1.38874 1.13939 18.204 0.410126 0.911779 -0.021338
5.12703 1.91177 16.8047 0.259965 0.438638 0.860241
4.98073 0.928472 17.2975 0.333079 -0.763038 -0.553923
6.10643 2.08755 16.5753 -0.420574 0.681192 -0.599246
7.31337 3.35556 0.0695252 -0.394233 -0.516961 0.759823
6.05335 3.4692 14.7223 -0.10162 0.15079 0.983329
7.95337 0.502302 17.2656 -0.751289 0.477288 0.455809
7.59664 2.29201 14.0773 0.980108 -0.0167064 0.19776
7.90956 1.30138 14.3461 0.559496 0.140441 0.816848
7.66114 1.3857 15.6925 0.277256 0.776112 0.566373
11.7108 0.651065 18.6399 -0.210874 0.845375 -0.490789
8.32697 0.387573 14.1256 0.305535 0.1408 -0.941713
14.2834 0.88888 18.403 -0.503195 -0.589556 0.631837
10.5402 1.48132 0.399318 0.814516 0.337291 0.472015
14.9326 18.7301 0.672713 0.814268 -0.0510832 0.578237
9.68869 2.57118 18.2085 -0.506615 0.732253 0.455135
14.2312 18.853 16.6271 -0.467234 0.867885 -0.168724
11.5416 4.3927 0.025494 0.207458 -0.766336 0.608021
15.2368 0.737532 18.9452 -0.368066 0.784001 0.49987
0.485978 1.71667 3.60896 -0.662793 -0.211853 -0.718209
18.2239 0.0683976 16.6069 0.465423 0.761407 -0.451267
18.4623 1.03871 1.60633 0.14762 -0.962075 0.22939
18.4362 0.60863 19.2933 0.850021 0.513589 0.117004
19.1074 0.950514 0.890233 -0.42919 -0.884336 -0.183699
0.0565594 0.557909 1.70834 0.208984 -0.903752 -0.373575
18.6112 8.20595 17.9632 0.658093 0.274084 0.701278
2.51408 2.66837 19.0266 -0.0294213 -0.83192 -0.554115
6.06175 6.28476 14.1766 0.823116 -0.163022 -0.543971
3.765 2.34278 17.846 -0.376712 -0.0505287 0.924951
5.13834 5.8312 17.4802 0.789091 0.613318 -0.0343071
4.32226 3.15393 18.0612 -0.39106 0.354948 -0.849167
6.12084 5.25095 13.6775 -0.855476 0.512697 -0.0728175
9.36084 15.6482 17.1712 0.45408 0.109002 -0.884268
6.39958 6.44339 15.1037 0.5602 0.643886 -0.52114
7.27639 1.91131 14.9395 0.741768 0.611524 0.275351
7.57444 3.52647 1.9226 0.816758 0.142944 0.558993
8.60667 1.52027 13.6409 0.66227 -0.492689 0.564496
7.87488 9.16339 18.8844 0.53483 0.4233 -0.731283
10.0697 2.03504 19.0023 -0.969293 0.175523 0.17223
12.7803 6.41231 0.335992 -0.180471 0.717863 0.672386
10.8704 3.91511 18.9002 -0.127309 -0.454536 0.881583
12.1618 4.71215 0.958632 0.873035 -0.448059 0.19249
11.8471 3.67586 18.7827 -0.334891 -0.914388 0.227469
12.0882 3.83469 17.7542 0.915448 0.398997 -0.0525057
15.415 0.107002 0.223493 -0.975907 0.202335 0.081651
14.4963 4.76516 17.3039 0.915819 0.262435 0.303979
13.1306 2.35334 18.066 0.369644 0.266568 0.890115
9.91701 3.8682 18.6847 0.258148 -0.357728 -0.897435
16.3891 7.48794 17.5086 0.77115 -0.636641 0.00400596
18.2467 8.8341 0.298111 0.432342 -0.69745 -0.571527
18.0603 1.00188 0.657242 0.395235 0.816513 -0.420828
17.3099 1.00142 0.00355384 0.553859 0.586801 -0.590682
16.7068 1.77977 19.4874 -0.0105607 -0.172003 0.98504
0.309104 10.1561 3.24933 -0.92992 0.12147 0.347123
4.47181 6.43487 17.9167 0.283611 0.531667 -0.798057
3.54776 7.71145 16.9093 -0.925242 0.0108725 0.379221
6.09213 4.42327 14.3659 -0.771306 0.10467 -0.627799
5.26858 6.82436 18.3535 0.235971 -0.957457 0.166113
6.56715 7.4287 15.5866 -0.270731 0.704988 -0.655512
6.41027 9.15309 13.9531 0.180351 0.349137 0.919553
5.68266 4.58078 15.3116 0.615731 0.623195 0.482187
5.58706 8.90378 16.4774 -0.876293 -0.472824 -0.0924503
8.85665 8.68768 18.6603 0.707474 0.622443 0.334732
9.1445 10.8487 16.8519 0.305469 0.0525663 0.95075
8.60288 11.6841 17.2115 -0.693143 -0.66402 -0.280411
6.90164 9.43049 18.4518 -0.0758133 -0.238742 -0.968119
12.3707 5.01355 19.4844 0.478846 -0.870482 -0.113873
6.71268 11.4341 18.5641 0.778158 -0.216399 -0.589611
16.0161 5.60064 19.0587 0.867322 -0.369833 0.33313
8.77411 10.41 18.8712 -0.937132 0.199637 -0.286232
14.999 5.4786 0.219642 0.861378 0.353409 0.364869
12.6601 5.8766 6.68674 -0.487967 -0.204868 -0.84848
12.837 3.16936 17.3753 0.854762 0.152087 0.496238
14.6427 3.75624 17.5519 -0.101897 -0.166522 -0.980759
17.0949 7.51281 0.785176 -0.749132 0.287925 -0.596574
16.9317 8.94944 1.78216 0.891984 0.435513 -0.121216
17.1594 6.6945 0.250411 -0.0972349 0.606723 -0.788944
15.5078 7.6445 0.813142 0.342679 0.925767 0.159768
17.6268 7.86027 0.0351269 -0.615271 0.763271 -0.197127
16.075 0.994898 19.4476 0.582327 -0.169794 -0.795025
5.93346 10.1413 15.9466 -0.131047 0.0336015 0.990807
2.10455 9.36396 0.884362 0.679335 0.519504 0.518286
2.97313 7.78288 16.0876 -0.586273 0.752997 0.298795
4.83499 8.48199 13.7594 -0.530886 -0.620862 0.576793
5.64602 7.10674 15.6358 -0.0787836 -0.0965871 0.992202
0.480621 12.1089 3.07178 0.579103 0.035899 0.814464
5.82845 8.08889 15.9641 0.739035 0.00592747 0.67364
4.36658 9.13882 14.3998 0.218203 -0.40269 0.888948
6.0454 5.39771 14.6457 -0.976761 -0.203714 -0.0666267
5.17084 11.0992 0.216201 -0.376438 -0.60798 -0.699039
8.39722 10.8654 0.172173 0.756168 0.631233 -0.172493
7.10533 12.2631 18.9394 0.144419 0.250332 -0.957328
8.52958 10.1209 17.038 -0.344411 0.573985 0.742915
7.75212 12.9659 19.3317 0.712841 -0.694235 0.099473
12.3407 7.00021 18.0155 0.871618 0.31536 0.375274
13.1872 5.3224 17.6351 0.25314 0.594651 -0.763093
7.68987 11.4351 19.0897 -0.576416 -0.367974 0.729617
14.0661 5.06672 18.1286 -0.351058 -0.92806 0.12435
12.6685 5.55233 0.874218 0.795176 -0.445726 -0.411124
13.4652 6.83456 19.2105 0.27529 0.531364 0.801166
12.3057 4.8897 17.2952 -0.643012 -0.01758 0.765654
13.49 6.18971 0.946246 0.506442 -0.112886 -0.854852
17.3012 8.02134 1.83309 0.899667 0.321797 0.295035
17.93 11.5204 0.106326 -0.899056 -0.428736 -0.0887855
12.3587 5.9033 17.2987 0.0311915 -0.0147775 0.999404
15.4156 10.1461 0.434768 -0.557509 0.502343 -0.660935
0.0781037 9.22144 2.86443 -0.691871 0.555546 -0.461175
3.45141 9.37845 0.929202 -0.371046 0.351521 -0.85951
1.75509 10.2319 0.438978 -0.939098 -0.150562 0.308912
2.40245 13.782 18.2277 -0.123033 -0.877239 -0.46402
1.19981 11.154 0.401194 -0.307841 0.322397 0.89515
3.61924 14.4069 16.8264 0.83725 -0.451845 0.307975
1.98876 13.6777 19.1943 0.820856 -0.554329 -0.137532
4.82077 14.2265 19.3519 0.857836 -0.423654 0.29092
5.45512 9.12024 14.4881 0.0223443 0.996194 -0.0842499
8.15123 15.473 17.1413 0.478873 -0.877725 -0.0167185
6.86103 14.8461 19.0511 0.354497 -0.283582 -0.891018
6.93688 15.4399 17.3321 -0.722732 0.265764 -0.637987
5.21865 12.8925 18.7744 0.295251 0.898579 -0.324627
8.5063 13.3741 18.7602 -0.151729 -0.782945 -0.603304
12.7782 6.81759 17.1319 0.698242 -0.419627 0.579975
11.7418 7.75422 0.0700224 0.116133 -0.881814 0.457075
11.8278 7.60422 18.5644 -0.690695 -0.688696 0.220542
10.7516 14.5286 18.1304 0.0603728 0.95232 0.299069
14.2495 9.45117 18.057 -0.177337 -0.46294 -0.868469
11.5861 14.3141 18.6453 0.360995 -0.5384 -0.761451
15.1124 9.28219 0.0835676 -0.106749 -0.374552 0.92104
12.3165 14.8933 15.7755 0.770237 -0.134524 -0.623408
14.4878 8.76129 18.9129 0.653089 -0.219419 -0.724796
15.2301 8.32833 19.4222 0.786081 0.343083 -0.514169
16.6992 10.1575 0.569326 -0.47965 0.851519 0.211782
17.3355 10.5198 18.4943 0.709012 -0.696399 -0.111044
11.5694 5.30514 16.8209 -0.312608 0.557805 0.76885
17.2763 11.5677 2.75484 0.811001 -0.472853 0.34451
1.42813 9.61389 19.1972 -0.915297 0.402773 0.00227983
2.67865 12.1749 7.19317 0.557343 -0.825981 0.0844023
16.1226 14.5877 18.2197 0.106991 -0.765918 -0.633974
3.57803 15.2525 15.968 0.311932 -0.932386 -0.182635
1.49034 13.2575 18.4427 0.29209 -0.830612 0.474096
2.31815 14.3526 17.4442 -0.718391 -0.66118 -0.216232
3.23771 13.7755 17.6487 -0.376494 -0.19923 -0.904743
5.83186 14.7227 19.0966 0.436043 -0.820032 -0.370693
6.28443 15.3708 18.3987 -0.217318 -0.715278 -0.664191
7.49987 15.5626 0.0271597 0.209645 -0.177131 0.961599
7.45601 15.1527 16.5235 0.00236546 -0.85279 0.522248
5.25876 18.2196 2.98072 0.846279 0.300704 -0.43976
7.69597 14.5788 19.4706 -0.592791 -0.432896 0.679117
8.47463 15.54 16.2114 0.203629 0.929471 0.307602
8.63573 13.5212 17.647 0.902479 0.124402 0.412378
9.27356 12.9495 19.2482 -0.427735 0.0378824 0.90311
9.85175 13.6531 0.201897 -0.434066 0.48166 -0.761308
12.0515 16.508 17.7862 -0.895195 -0.429719 0.118182
11.7008 15.1256 18.0041 0.266112 0.434873 0.860273
13.4194 18.4154 18.2874 0.572706 0.625445 0.529931
14.6109 9.84331 1.00296 0.68813 0.0188251 0.725344
13.3695 14.4301 19.2334 0.315205 0.567046 -0.760989
14.0809 15.199 19.4909 -0.306113 0.884802 -0.351314
13.5767 16.8195 1.19225 0.953716 0.131999 -0.270187
17.6224 11.1392 1.83534 0.387033 -0.907514 0.163167
12.4004 15.6304 17.4703 -0.643925 0.155363 -0.749148
16.9042 9.65382 17.8665 -0.189367 0.373788 -0.907977
14.6334 16.3945 1.74588 -0.672602 -0.665208 -0.324197
0.49444 12.815 18.3752 0.483566 0.180704 -0.856452
13.5676 14.8767 17.2423 -0.052761 0.994511 0.0903512
4.4993 15.6211 15.7567 0.0526552 -0.736845 -0.674009
0.690893 0.859673 0.953924 0.440707 0.326455 0.836185
6.21345 14.4239 15.3935 -0.727363 -0.514181 0.45449
5.25465 16.1643 15.2967 -0.593448 -0.181185 -0.784214
9.60267 16.7008 17.4899 -0.603701 0.605691 -0.518346
4.06354 1.33523 18.5878 0.559973 0.673051 0.483148
4.45958 15.7707 17.8413 -0.452659 -0.263656 0.851813
5.47568 15.249 15.6394 -0.115851 0.166872 0.979149
8.79698 16.7388 18.2699 -0.830466 -0.500954 -0.24366
8.2081 1.5254 18.8992 -0.773397 0.0868214 -0.627948
9.56974 16.2745 19.0307 0.202024 -0.79557 -0.571187
8.46757 18.8397 8.27411 0.0590626 -0.93938 -0.337752
11.8478 17.1218 18.5281 -0.305355 -0.846136 0.436821
6.28494 2.8331 18.0494 -0.473192 0.802204 0.364084
15.1374 17.1038 18.0605 -0.715324 -0.372354 0.591324
13.7213 0.440045 17.7274 -0.78711 0.118584 0.605306
12.4043 14.6587 19.1202 -0.244246 -0.0408389 0.968853
13.5029 1.43648 18.2083 0.208537 0.0758779 -0.975066
12.7852 17.1854 18.9667 0.294642 -0.933013 -0.206574
11.0221 17.2105 17.9603 -0.3953 0.113972 0.911454
13.6748 17.5397 18.7106 0.0674391 -0.632083 -0.77196
13.6659 18.9419 17.5061 0.969807 -0.0588688 0.236661
15.5935 17.5871 18.7861 -0.181583 -0.831405 0.52516
17.66 0.624536 17.2087 -0.177447 0.488874 -0.854116
13.4224 14.4279 16.1873 -0.820759 -0.529412 -0.214658
13.5549 18.1144 16.9401 -0.512041 0.43352 -0.741535
17.8101 12.3194 2.34239 0.802287 -0.547214 -0.238519
18.8206 19.2013 18.9113 0.482001 0.204294 0.852021
0.933724 1.26416 19.1048 -0.422482 0.70226 -0.57301
0.546065 3.3668 3.33183 -0.500127 -0.764069 0.407518
3.86423 0.30341 2.11162 0.614799 0.197535 0.763546
5.35102 0.496244 18.1305 0.910477 0.191132 -0.366744
3.36217 0.275504 0.119426 0.330782 -0.614259 0.716428
3.09647 2.81557 0.8594 -0.397347 -0.00515889 0.917654
5.81311 2.08122 19.209 -0.385879 0.657006 -0.647643
7.37854 0.824593 16.504 0.17731 -0.937765 -0.298593
6.15891 0.844381 18.8293 0.467329 0.830146 -0.304074
3.56244 5.01852 0.411586 0.243182 0.92458 -0.293282
7.97568 1.86504 0.74904 0.172459 -0.953141 -0.248555
6.74912 1.76616 15.871 0.302333 0.946893 -0.109487
8.66166 0.769632 17.9147 0.545957 0.307156 -0.779478
7.67918 2.32683 19.3195 -0.69164 -0.71616 0.0935391
10.41 0.420943 0.653138 0.162369 0.439496 0.883448
9.11254 1.65758 18.3542 -0.587839 0.770921 -0.245205
12.4327 1.93775 18.6671 0.11789 -0.797385 -0.591843
15.071 5.09831 3.34365 -0.323385 -0.857262 -0.400655
17.6252 3.57244 1.92005 -0.0132187 0.859124 0.511597
10.3057 2.98385 18.9149 0.714769 -0.142149 -0.684762
14.0462 17.1563 2.02184 0.480862 0.767144 -0.424573
16.8482 3.89954 1.41003 0.578493 0.712841 -0.39649
17.6885 2.31898 2.37781 0.776209 -0.630468 0.00296697
0.8766 0.388791 2.27905 0.625649 -0.329128 -0.707275
18.7657 0.561228 17.3507 -0.224442 0.973646 -0.0404888
18.1931 5.17519 2.20245 0.826409 0.0495025 0.56089
1.72598 0.549096 2.80305 -0.323316 -0.739058 0.590983
1.04489 1.71653 0.54302 -0.907157 0.257249 -0.333002
1.24887 1.48567 3.05665 -0.423957 0.521564 -0.740427
2.76687 8.67848 1.09966 0.0731063 0.174426 0.981953
2.47403 2.17039 0.435274 -0.644749 0.561117 0.519083
5.94045 6.7604 19.2143 -0.655964 0.70375 0.272849
3.29049 1.88134 1.16073 0.949579 0.0295234 -0.312135
3.59717 5.24394 1.38781 0.632401 -0.708578 0.313027
7.20314 4.71928 1.59686 -0.468297 -0.459673 0.754585
5.18793 3.68144 0.771313 0.245973 -0.190565 -0.950359
6.69746 2.72896 14.8965 -0.770991 -0.485648 0.411969
6.25147 4.74738 18.8723 0.120221 0.856265 -0.502352
6.67705 5.58026 3.32607 0.116583 0.398738 0.909625
7.41616 7.85311 0.750374 0.159657 0.0349099 -0.986555
8.30265 1.26359 16.6889 -0.1893 0.430395 0.882568
8.03327 7.10509 1.23004 -0.407191 -0.388383 0.826653
9.75578 2.77342 1.49546 0.200951 0.577216 -0.79148
10.3332 4.79028 19.0181 -0.347718 0.1115 -0.930946
11.1521 0.749003 19.4729 -0.569693 0.347057 -0.744984
10.4981 2.15244 1.34383 -0.546162 -0.830297 0.110968
15.8361 4.06101 1.12695 -0.360267 0.238339 0.901888
15.6601 4.77409 19.3869 0.556208 0.12893 0.820981
12.4453 3.05085 18.2723 -0.583223 -0.70295 -0.407079
11.7957 4.09654 1.66389 0.751322 0.0577506 0.657404
18.4924 5.36498 1.04584 0.520127 -0.828865 -0.206038
16.3108 8.86942 17.4958 0.397249 -0.314483 -0.862145
17.851 8.1977 18.5762 0.200328 0.936632 0.287384
19.0112 4.90638 4.03555 0.723881 -0.145135 0.674486
1.72969 1.92075 19.2736 0.477854 -0.87716 0.0473905
17.0399 8.47201 17.9935 -0.73115 -0.41326 0.542803
3.62445 8.52795 16.2178 -0.350154 0.327708 0.877496
0.993793 8.81604 2.2294 0.214654 -0.975792 -0.0418815
1.9698 9.6949 3.85371 -0.164817 -0.506707 0.846217
4.42422 6.95693 18.8888 0.515426 -0.416276 0.749033
4.25362 4.11147 18.3253 -0.858827 0.101337 -0.502143
2.80714 9.2119 3.3762 0.238268 0.914151 -0.327957
5.41196 6.26554 1.68512 -0.962052 -0.272119 -0.0202003
5.99687 10.1204 0.145878 -0.361711 -0.931838 -0.0290366
6.21493 5.27104 0.195475 0.658922 -0.642013 0.391971
6.96033 8.47376 18.6661 0.581502 -0.163953 -0.796853
7.22691 6.88996 0.640385 -0.712291 0.219846 0.666566
6.62444 10.6045 17.7589 -0.907776 0.388161 -0.15898
7.59541 9.62752 17.2015 0.547602 -0.735455 0.399046
8.63585 9.12031 0.171385 0.253535 0.946239 0.200876
9.51446 4.58289 1.59437 -0.567395 0.405887 0.716463
12.5081 7.15814 19.1359 0.530452 0.831297 0.166032
14.3165 5.27395 1.02477 -0.360097 -0.9307 -0.064252
12.5572 8.28735 1.43174 -0.339993 -0.177705 0.923486
13.5264 5.86936 2.68783 -0.437459 -0.309567 0.844274
15.1238 4.64604 0.780168 0.287104 0.703312 0.650325
11.9591 4.10252 16.8112 -0.922652 0.301933 0.239895
13.3854 6.84152 2.86632 0.443167 -0.254783 0.85947
18.1319 6.07343 2.77948 0.719504 0.482152 -0.499844
15.8033 8.23298 3.89372 -0.526597 -0.722076 0.448667
16.3159 6.78917 0.870766 0.34921 0.169773 0.921536
16.006 7.3446 3.3706 -0.844102 -0.469827 -0.258368
17.5497 8.38799 0.940855 0.91034 -0.398442 0.111913
19.1181 10.9836 2.69682 -0.429474 0.770288 0.47139
19.2851 11.5573 1.17852 0.0959783 0.929942 -0.35496
1.4009 13.0176 1.43039 0.602506 0.748659 0.276577
1.89082 8.65509 2.76772 -0.604243 0.580195 0.546137
18.8719 10.7946 19.4744 -0.693702 0.238105 -0.679768
5.61119 9.15006 15.5324 -0.876206 0.420036 0.23629
4.40524 8.68829 17.199 -0.0480708 0.856179 -0.514439
6.69233 7.39932 19.399 -0.527341 0.463585 0.71204
6.16916 10.0902 13.572 -0.984153 -0.00201038 -0.177309
5.43141 8.64141 17.4087 -0.125355 -0.98526 -0.116396
5.0927 10.3592 1.06544 0.541988 -0.833301 -0.1089
8.616 9.38613 1.49946 -0.821434 0.278614 0.497615
6.23574 8.46738 17.9837 -0.274576 0.727452 0.628826
6.21906 10.3077 18.6044 -0.91267 -0.228014 -0.339179
10.1972 14.6486 0.550435 -0.968839 0.0781461 -0.235039
12.7418 5.87036 4.67134 -0.0382846 -0.623478 0.780903
13.5517 8.87723 18.4482 -0.283631 0.844367 0.45453
10.5306 3.07587 2.10645 -0.00385043 -0.915045 0.403334
12.031 12.8269 0.333261 -0.916608 -0.231325 -0.326065
11.9115 11.4137 1.69383 -0.697742 0.635278 0.331025
12.3452 7.82865 17.457 0.983473 -0.04446 -0.175509
14.2772 6.81123 18.5981 0.430966 -0.329262 0.840152
13.5156 11.038 1.93304 0.836346 0.443604 -0.322088
15.2405 9.0681 2.5048 0.265735 0.025266 -0.963715
16.0902 9.8651 19.3146 -0.0674805 0.920003 -0.386058
17.2843 8.93248 2.74816 -0.124129 -0.972626 0.196447
15.248 12.1394 3.33206 0.446647 -0.515937 -0.730969
0.49322 11.1126 3.13566 0.397679 -0.124816 -0.908995
1.8203 13.1309 0.546713 -0.914534 0.0558191 -0.400639
2.11272 11.1867 0.714355 0.291364 0.322151 -0.900736
2.37308 15.0581 1.00519 0.0135531 0.343334 -0.939116
3.94888 14.0189 0.61034 -0.703608 -0.658941 -0.265956
3.18428 14.4574 1.02552 -0.350695 -0.805415 0.477829
0.430577 11.5749 19.3893 -0.153809 -0.852844 -0.498998
4.77374 15.691 4.23716 0.723719 -0.62726 0.287708
4.35976 8.29667 18.8482 -0.665234 -0.117227 -0.737374
5.26458 15.5291 18.3911 -0.217493 -0.970852 0.100713
6.17147 10.517 1.21907 -0.550118 0.739292 0.388352
4.92437 15.699 3.24655 0.0274896 0.983927 -0.176442
9.16426 13.7643 2.4345 -0.721832 0.490536 0.488194
9.45307 14.2675 1.45503 -0.361031 -0.414181 -0.83553
6.16978 12.5422 18.6216 0.210485 0.624253 0.752333
8.96549 14.611 3.93982 0.229829 0.121797 -0.96558
12.1602 12.0619 0.9626 -0.110324 -0.651141 -0.750896
10.6003 14.0527 19.0162 -0.578325 0.815142 0.0329346
15.0056 7.23767 17.8914 -0.384716 0.893755 -0.23064
9.71201 13.8507 3.26658 0.829876 0.26148 -0.492884
13.9496 10.6213 2.72201 -0.47841 -0.873457 -0.090537
14.1759 10.3189 1.75799 -0.817895 -0.485099 -0.309398
14.289 9.18615 1.73917 0.140014 0.514105 0.846222
13.6287 11.9348 2.41122 -0.401967 -0.576215 0.711617
14.495 10.8662 0.944546 0.981459 -0.0470597 0.185807
16.8135 10.7766 2.46798 0.283845 -0.406466 0.868457
16.5812 9.82547 2.16851 0.517346 0.443982 -0.731596
14.8105 12.1706 0.341653 0.690819 0.272446 -0.669733
0.318257 13.3113 1.41459 0.567693 0.493059 -0.659255
1.78691 12.1423 0.785917 0.466017 0.104482 0.878585
3.58242 13.6266 2.57154 -0.893812 0.392823 -0.216312
2.5292 0.144955 3.40523 -0.022472 -0.922944 -0.384278
1.53205 17.4973 3.86788 0.530264 0.0825433 0.843805
4.56799 14.8019 17.615 0.911489 0.0572618 -0.40732
2.3881 14.1778 0.433454 0.808213 0.0841768 -0.582843
2.5315 16.1009 2.74582 -0.878326 -0.399519 -0.262541
3.96322 15.3592 3.45961 -0.0480648 0.451271 -0.891092
5.77922 17.8612 3.73087 -0.701802 -0.711147 0.041769
8.0732 14.0985 18.2386 -0.792933 -0.595876 0.127236
5.71697 15.8942 3.77342 0.367352 -0.776645 -0.511738
12.5363 13.6963 2.6355 -0.624328 0.254429 -0.738566
10.7071 15.7056 0.886078 0.722521 0.399041 -0.564561
14.9806 7.565 18.8264 -0.933731 0.357976 0.00041931
10.0174 15.6277 0.174628 -0.843874 0.187169 0.502837
9.58415 15.2557 4.49316 -0.461763 0.514732 -0.722375
12.708 18.4946 0.915515 0.30018 0.243242 -0.922348
10.156 15.0399 17.3997 0.82306 0.558655 -0.102358
13.1048 15.2373 0.24033 0.403839 -0.415491 0.815035
13.0557 12.6525 2.7315 0.0614752 -0.382008 0.922112
12.2306 13.6826 19.2595 -0.866144 0.140522 0.479633
12.7923 15.0115 16.6696 0.379812 0.773642 -0.50717
16.6085 14.2463 1.09197 0.515743 0.820115 -0.247833
15.8617 13.88 18.8995 -0.775793 0.624416 0.0908246
15.0507 15.2245 0.89921 -0.181806 0.0631328 0.981306
18.0042 10.4997 0.49155 -0.312363 -0.709161 -0.632076
17.7097 18.924 3.80313 0.956157 -0.0335767 -0.290924
16.3801 12.2104 0.90455 0.0791418 0.620794 0.779969
15.0356 13.56 2.05803 0.985342 0.109781 0.130572
16.0647 12.7787 3.24066 -0.174205 0.0294348 -0.984269
3.02978 0.590515 2.63068 0.631876 0.637633 0.440633
2.6037 17.3745 2.72498 -0.55521 -0.549074 0.624707
4.25275 0.670414 0.0169089 0.386035 -0.912931 -0.132415
6.45202 16.2247 17.7849 -0.824934 -0.497061 -0.2691
4.13871 15.2551 16.7888 -0.682406 0.524676 0.508956
6.44271 14.9962 16.2054 0.044289 -0.716696 0.695978
5.35887 1.34261 18.7393 -0.296974 -0.24607 0.922635
6.1358 17.4952 2.85499 -0.861893 -0.287174 -0.417938
8.77115 19.2831 17.7621 0.928227 0.121261 -0.351695
8.23094 14.2051 0.776294 -0.267196 -0.963605 -0.00851106
6.99394 0.371302 18.5385 -0.4654 -0.656996 -0.593093
8.583 15.9656 19.2462 -0.589139 0.807614 0.0259887
6.76144 0.19526 17.0466 0.680646 -0.641315 0.35417
13.0914 16.2931 0.392966 -0.888776 0.348859 -0.297279
12.2243 1.13968 19.345 -0.688742 0.71906 0.0926641
12.5175 15.6649 0.915134 -0.651976 -0.247922 -0.716562
13.5531 18.9965 1.36578 -0.418093 0.644008 -0.640666
14.6626 17.8702 18.8718 -0.0551051 -0.241176 0.968916
15.3603 18.5177 19.2896 -0.549262 0.664632 -0.506534
13.3266 17.2476 0.342866 -0.830279 0.366735 0.419692
15.6274 2.45651 3.69788 -0.0323345 -0.843385 -0.536336
18.5336 0.470454 3.63804 -0.266743 -0.393759 0.87966
13.375 17.7449 1.47527 0.53952 0.248955 -0.804325
15.3511 16.183 1.0568 -0.646759 0.122522 -0.752789
18.8205 2.41091 3.03737 0.934295 0.0851085 -0.346193
0.833954 17.9386 1.86173 -0.21115 0.967135 0.141651
16.0314 15.1908 1.09019 0.110663 0.625738 -0.772144
3.34968 1.16295 1.84442 0.92905 0.329906 0.167416
0.217775 3.90163 5.32633 0.977908 0.0992213 -0.183988
3.19044 18.7801 5.44801 0.362732 0.491902 -0.791491
2.32962 19.4024 0.476057 -0.411038 0.745255 0.525016
3.73383 6.23656 2.64521 0.25359 -0.207572 0.944778
3.35186 4.99856 3.14763 0.359411 -0.883345 -0.300875
6.43206 1.13244 1.69875 0.728919 -0.035555 0.683676
5.63778 4.57025 0.720787 -0.361152 0.0755684 -0.92944
10.0791 2.3289 0.470791 -0.879625 -0.413387 0.235312
6.03666 2.86859 3.27347 -0.456471 0.619329 -0.6388
10.5411 1.34007 6.49662 -0.642976 0.27415 0.715139
6.89335 2.84198 18.8286 0.729548 -0.147059 -0.667932
8.74329 2.79217 1.38416 -0.0994125 0.112108 0.988711
10.6117 2.63615 7.82731 0.584849 0.258152 0.768966
10.8503 0.0335661 4.55634 0.573759 0.734116 0.363145
14.0915 5.08981 2.55139 -0.795662 -0.552667 0.247952
11.8597 19.142 2.08077 -0.746983 -0.588556 0.309222
12.2214 1.30702 6.3847 -0.657397 -0.744162 0.118541
14.5426 19.344 4.35359 -0.909585 -0.392583 -0.136141
16.4658 6.10149 2.34555 0.962471 -0.127511 -0.239562
16.4666 2.21494 4.1264 -0.451545 0.176111 0.874695
15.96 5.20414 2.85216 -0.654843 -0.161936 -0.738212
17.8504 1.52559 5.38795 0.123393 -0.974151 -0.189221
17.9528 6.2005 19.3276 0.318901 0.800235 -0.507865
14.1874 3.89016 1.97201 0.916272 -0.386662 0.104585
19.4644 4.2687 3.37897 0.0286008 0.461031 -0.886923
16.5155 18.9717 5.60457 -0.301337 0.455638 -0.837609
19.0813 3.41399 2.96096 0.582678 0.124467 -0.803115
1.119 3.60192 4.13234 -0.271955 0.950779 0.148525
2.787 7.20021 4.78315 -0.383964 -0.387823 0.837953
4.37526 5.0536 4.08529 0.927928 -0.360991 -0.0929212
4.65014 7.60244 4.06981 0.842924 0.522283 -0.129228
4.39715 4.22511 0.354108 -0.305952 -0.729195 -0.612101
4.98934 7.35725 1.51027 0.3384 0.518148 -0.785499
5.10929 3.86226 4.50174 0.882626 0.441591 0.161149
3.79666 7.19973 3.09442 0.890585 -0.38474 0.242557
3.1554 2.01021 2.3363 0.588625 0.545897 -0.596253
8.70704 5.14245 7.53258 -0.628126 0.682857 0.373047
8.48179 0.72967 7.57726 -0.492173 -0.870478 0.00575108
8.12115 6.18014 0.885075 -0.913152 -0.203774 0.353028
6.35411 6.22314 0.594304 -0.87799 0.425085 0.220083
8.42882 5.52215 1.71004 0.244816 0.960902 0.129351
12.1582 0.0941415 7.25865 -0.140532 0.96414 0.225131
10.243 5.25541 1.46572 0.16116 -0.181918 0.970017
14.1306 5.31427 3.50242 -0.273804 -0.925876 0.260356
12.1249 5.09012 6.99801 -0.161586 0.648186 0.74414
15.8381 4.4021 3.44266 -0.0725212 0.521149 0.850379
11.6179 3.18843 2.11409 -0.269012 0.568868 0.777188
16.5366 4.54014 2.14491 0.335425 -0.754876 0.563606
15.0488 8.30129 5.06098 -0.414236 0.121391 -0.902038
18.3534 4.5299 4.93622 -0.338799 0.810215 0.478296
0.118623 5.66034 3.75032 -0.649805 0.723776 0.232169
18.2695 3.11517 2.49845 0.604238 -0.421924 -0.675927
0.729476 6.19788 3.17033 -0.350155 -0.594535 -0.723823
0.263873 2.89893 5.10074 -0.724794 -0.0694087 -0.685461
0.00982918 8.89035 1.89679 0.102853 0.856813 -0.505264
18.7815 9.79674 0.410456 0.00042732 0.0562814 0.998415
19.0186 7.64997 4.12394 -0.436368 -0.413786 0.798977
4.36485 8.0137 3.24522 -0.757158 0.343186 0.555819
0.90623 9.03981 1.24492 0.499634 0.846289 0.184826
5.49263 7.08966 4.4559 0.58298 0.675413 0.45161
2.85377 10.2589 4.00943 0.441837 -0.704303 0.555642
7.18665 7.82861 3.05913 0.80435 -0.038494 -0.592908
3.9188 4.70056 19.0417 -0.854831 -0.518832 -0.00874791
9.33009 5.05644 8.36564 -0.770249 -0.281934 0.572039
5.7037 9.11629 2.79928 -0.152399 0.948415 -0.277998
5.55905 5.42013 2.2054 0.477244 0.65753 0.583003
6.08974 9.17007 1.78764 0.771222 0.624314 0.124295
7.67847 5.2394 2.38983 0.587692 -0.745948 0.313338
14.3543 7.59877 5.26445 -0.0632903 0.621276 0.781031
13.0933 2.66073 4.79807 0.458126 0.101981 -0.883018
11.9216 5.60107 4.17979 -0.458016 -0.0768128 0.885619
10.4019 6.21643 1.64665 0.871976 -0.338779 0.353393
13.6463 7.07337 5.79847 0.707637 -0.702072 -0.0796577
13.0621 7.53198 3.5708 0.884516 0.0507311 0.463744
13.5151 7.97391 2.83702 0.793902 -0.60688 0.0376471
12.5189 5.18399 1.82023 -0.991116 -0.122147 0.0526174
14.9701 9.31014 4.74749 0.888936 -0.0648868 0.453412
0.601533 7.41157 3.29363 0.85067 0.512636 0.116468
17.4489 8.97217 3.7334 -0.621991 0.78182 -0.043401
19.1872 8.88126 0.76999 -0.671401 -0.0844701 0.736265
16.8247 9.49309 6.64958 0.0366119 -0.244476 -0.968964
2.19853 5.56206 3.72441 -0.447126 0.651646 -0.612728
17.8503 9.73349 4.37223 0.911851 -0.124086 -0.391319
2.17526 7.10373 3.81232 0.470888 -0.493809 -0.731039
4.63791 12.2912 6.14595 0.367365 0.903121 0.222296
3.48474 11.1643 4.21225 -0.479559 0.834708 -0.270714
6.11401 7.47803 18.5049 -0.342606 0.785253 0.515751
1.83845 8.80929 1.66091 0.0623272 0.809496 0.583807
3.50025 11.6349 5.05476 -0.935256 0.35389 -0.00767714
7.20736 8.77014 1.55528 0.712021 -0.0833641 0.697191
4.38081 9.6961 0.616107 0.198717 -0.914283 0.352986
6.57162 8.40456 2.20454 -0.296877 -0.603692 -0.739879
4.10471 10.0921 1.49565 0.819741 -0.452509 0.351085
13.0898 7.36371 7.7419 0.633587 0.748622 0.195277
8.45962 13.9951 1.73345 -0.204942 0.978754 -0.00628758
8.12506 8.59526 1.06571 -0.467537 0.755378 -0.459144
12.7824 8.58379 7.3409 0.311303 0.556413 -0.770387
12.9199 6.40878 5.53764 0.554009 -0.631948 0.541955
12.3327 15.1754 1.87339 -0.250469 0.794837 0.55272
13.5272 6.75544 4.80894 0.267986 -0.96301 -0.0282029
13.9699 13.2389 4.94094 0.741032 0.39313 0.544353
12.9741 8.42194 4.0599 -0.908148 -0.217924 0.357458
14.4081 8.4588 2.44426 0.608669 -0.511442 -0.606588
14.8868 10.8658 3.44441 -0.137211 0.684817 0.715681
15.4224 8.10525 2.98872 -0.916671 -0.0601347 0.395093
16.5365 8.22855 4.57452 0.174566 -0.984351 -0.0240793
15.9201 10.5445 2.8425 -0.113751 -0.043516 -0.992556
14.8308 11.2398 5.31218 0.527595 -0.211716 -0.822691
17.4635 10.221 6.3137 0.628004 -0.0779375 0.774297
19.2628 8.48051 4.6845 0.178972 -0.392815 0.902034
1.10494 12.6522 2.34046 -0.513727 0.840002 0.174591
2.9397 11.933 0.645871 0.540664 -0.60808 0.58131
18.8033 13.5033 3.87966 0.759735 0.628982 -0.164877
4.36572 11.5778 4.08131 0.33523 -0.825151 -0.454695
4.38945 13.3433 19.0636 -0.0207746 0.39113 -0.920101
4.30817 9.20325 18.0696 -0.840744 0.499681 -0.208492
2.47252 13.2308 3.66374 0.833478 0.39787 0.383424
3.98652 9.79627 2.53426 0.858019 0.235874 0.456254
2.97717 15.3647 3.31328 -0.00117015 -0.509962 -0.860196
4.25838 9.28581 19.0762 0.933024 0.349883 -0.0839502
8.18945 13.7931 5.48508 0.692248 -0.478193 -0.540485
6.88617 12.9956 6.96689 -0.490823 -0.838122 -0.238001
9.96229 14.5249 3.92965 0.294537 0.65409 -0.696716
9.20648 12.8655 2.9469 -0.912919 0.0431378 -0.405855
9.8 18.1435 3.24402 -0.498676 -0.636383 0.588506
11.3292 12.616 3.66966 0.0110813 0.813143 0.581958
11.518 13.6659 3.11753 -0.766601 -0.470146 -0.437362
11.3877 12.9902 1.13992 -0.501308 -0.856929 0.11984
11.7178 14.9154 4.43676 -0.187847 0.961637 0.19992
12.6739 9.43347 4.26866 -0.195577 0.195002 0.961105
13.6343 16.5956 4.74291 -0.732458 -0.660504 -0.165045
13.6236 8.12969 1.88165 0.275688 -0.958764 -0.06905
13.5883 14.2723 4.97578 0.752862 0.574212 -0.321682
16.2619 12.2069 6.32929 -0.557333 0.799584 0.22371
15.7335 13.4181 0.27162 -0.97295 0.0637916 -0.222034
15.329 12.3624 1.39734 -0.404326 0.869933 -0.282377
17.8991 11.6479 4.82452 0.316862 0.410199 -0.855182
19.3624 12.6239 4.22832 -0.317518 -0.883109 -0.3454
16.9368 12.0883 3.69045 -0.660698 -0.666432 0.345466
3.90855 13.9884 1.64701 0.0652836 -0.949505 -0.306884
1.25008 15.9665 4.95245 -0.756799 0.362051 0.544219
3.98098 10.7497 2.22063 -0.986004 -0.109651 0.125586
1.21065 14.3889 3.38366 0.232413 -0.742438 0.628307
1.30403 14.0109 5.07077 0.566578 -0.270096 0.778484
1.77261 16.7545 5.12924 -0.360778 0.175997 0.915895
7.2391 15.552 5.94002 -0.263831 -0.889429 -0.373241
3.73267 17.8845 5.405 -0.826039 -0.563534 -0.00940665
3.78915 14.443 3.11634 -0.824136 -0.143658 0.547871
7.17955 15.287 4.64668 0.89425 0.224416 -0.387239
8.41197 16.6258 3.19217 -0.593628 -0.754016 0.281187
10.7698 19.172 1.52384 0.783482 -0.431217 -0.447446
12.0983 14.695 2.7468 0.990619 -0.0478487 0.128002
7.91563 18.5892 4.83776 -0.679546 0.59717 0.426152
10.7267 14.6822 4.54779 0.104196 -0.929533 0.35371
11.4285 15.3955 1.5253 0.244622 0.945806 -0.213567
10.8933 14.1631 3.69893 0.51594 0.8358 -0.187735
12.0151 0.272184 2.86076 0.109126 0.863611 -0.492207
16.2884 17.1518 4.45653 -0.713002 0.624677 0.318445
14.0115 12.9039 3.10917 0.121261 -0.969458 0.213184
12.7357 11.8655 2.01904 -0.519687 0.0763209 0.850941
15.5512 18.675 5.59474 0.103239 -0.0950964 -0.9901
16.7574 11.8739 7.2156 -0.927105 -0.176888 0.330435
14.98 12.9485 2.83142 0.283188 0.77148 0.569756
15.785 14.4011 0.495825 0.724564 0.245081 -0.64416
17.4063 18.8778 5.15194 -0.0362352 0.911592 -0.409495
18.4443 15.1622 5.39609 -0.374702 -0.222911 0.899949
2.17218 16.7385 2.05763 -0.919106 0.0396951 0.392005
1.86806 17.7168 1.9316 0.150231 -0.299782 -0.942105
0.833951 18.126 4.18355 -0.825208 -0.525906 -0.206047
1.88717 15.843 5.69799 0.799266 0.210987 -0.562724
0.360026 19.0178 2.91688 0.744791 -0.543425 0.387268
2.65794 17.7931 3.77409 -0.669589 0.733725 -0.115314
2.19545 17.4764 6.10962 -0.434823 0.49855 -0.749918
5.05261 0.0296651 4.48444 -0.593485 0.2334 -0.77026
7.12057 1.45205 1.05076 -0.562654 0.710684 -0.422314
3.29271 18.1142 4.51505 -0.929487 0.191372 0.315326
5.6639 0.929053 2.33288 -0.397805 -0.823005 -0.405479
8.78854 0.327508 6.73594 0.869246 0.299208 0.393556
6.91584 2.10515 1.8554 -0.997219 -0.0329235 0.0668597
10.4449 16.5309 0.133203 0.297262 -0.168041 -0.939892
9.571 18.9372 6.04565 0.265283 -0.943279 0.199622
12.6735 0.805191 4.62771 0.857754 -0.46588 0.217288
13.0186 0.164921 2.70992 -0.32329 -0.935922 -0.139765
11.1367 0.284956 2.32371 -0.341968 -0.439937 0.830369
12.6701 18.2817 5.10458 0.103775 -0.327818 0.939024
13.9274 0.0919248 3.25024 0.451837 -0.635263 -0.626326
16.0447 2.92578 2.95739 0.814869 0.272066 0.511829
15.2746 1.76607 4.41181 0.741035 -0.643506 0.191751
13.1659 17.5294 4.69447 -0.573622 -0.524335 0.62931
17.9882 18.235 4.4711 -0.64024 -0.652677 -0.405099
17.7113 4.46057 4.12054 -0.0398861 -0.99882 0.0277165
16.242 0.508931 3.38287 -0.478635 -0.737645 0.476223
17.8661 1.29118 3.33634 -0.40989 -0.116667 -0.904643
0.0243647 16.5269 4.7033 -0.0712374 0.989239 0.127797
17.5776 0.287932 3.34723 -0.498481 0.449042 0.741538
5.28636 2.21447 3.21684 -0.13163 0.211465 -0.968481
4.56457 2.01786 6.70606 0.828519 -0.516645 0.215948
2.33552 2.75393 5.45031 0.465087 0.389183 0.795129
4.79992 5.22745 2.81053 0.0574949 0.998342 -0.00290817
3.49583 19.3762 3.08206 0.117801 0.514654 0.849267
0.946731 9.99501 8.2396 0.253707 0.920785 -0.29629
7.0336 2.66031 6.01937 -0.0717334 -0.0981621 0.992582
6.07842 3.77585 3.69601 -0.946847 0.261672 -0.187105
6.65529 0.19803 1.30558 0.209239 0.452862 -0.86668
7.915 3.13026 5.89622 0.392933 -0.693991 0.603307
8.76388 1.44737 8.58436 0.653746 -0.710996 0.259036
7.46781 5.10318 4.08954 -0.45546 -0.465475 0.758874
11.5293 2.0224 6.46694 -0.243986 -0.582381 0.775437
9.58627 2.94231 8.09842 0.103517 0.994528 -0.014072
10.6511 1.75642 9.792 -0.283579 -0.86467 0.414644
12.6959 1.65265 5.17775 0.921442 0.0216504 -0.387913
10.5051 19.2746 5.85772 0.0636959 -0.608846 -0.790727
10.8445 0.680651 8.16748 0.869517 -0.378512 0.317283
11.9497 4.67289 2.90083 -0.845337 -0.146516 -0.513749
14.7542 4.906 4.28205 -0.245762 0.936248 0.251081
13.1869 17.758 3.31734 -0.871322 0.257553 0.41769
14.1455 2.06492 7.5995 -0.310042 -0.362391 0.878946
15.6961 1.54256 6.79955 -0.908859 -0.280213 -0.308959
17.1592 4.4033 4.92896 -0.652028 0.680317 -0.334706
15.8456 3.45847 6.13337 0.0441885 0.370642 0.927724
0.180952 0.626716 4.06844 -0.600296 0.781421 0.170373
15.7198 0.381664 6.37114 -0.171081 -0.306631 -0.936327
0.40296 1.08549 5.51674 0.517137 0.0548398 -0.854144
1.08315 1.77463 5.89758 0.0191484 0.549572 -0.835227
2.39898 6.32928 4.3995 -0.97906 0.118134 0.165787
19.3133 7.73659 7.41717 0.128604 -0.325426 -0.936781
4.73829 7.42157 5.04569 0.0804632 0.996693 0.0113223
5.7382 4.99975 3.15959 -0.179306 0.76176 0.622552
0.888269 8.42264 5.65287 0.223944 0.780351 -0.583867
5.04856 2.54521 6.00442 0.422277 -0.869936 -0.254743
9.14581 6.04643 7.97657 -0.25877 0.0223786 0.96568
6.61155 4.6777 3.69396 -0.642362 0.395176 0.656664
10.2291 6.97655 5.87843 -0.618771 -0.202942 0.758905
8.68376 3.17457 8.45849 -0.18259 0.765583 -0.616883
10.1263 6.7535 7.53404 0.00217563 0.745532 -0.666466
11.5399 3.51056 7.79822 -0.92765 0.167348 -0.333856
11.4753 5.0899 9.16245 -0.552671 -0.0903351 0.828489
11.3991 2.71209 7.19655 0.492472 -0.472403 0.730963
14.0413 4.39983 4.78961 0.618612 -0.665167 0.418176
11.511 4.00355 8.7073 0.899365 0.429769 0.080258
13.4064 3.63865 4.77395 -0.370562 0.362794 -0.855023
14.2479 4.61317 9.39793 -0.226874 0.847964 0.479047
14.9424 5.3531 6.31889 0.669094 0.546199 -0.503964
16.7525 4.15737 3.83197 -0.334493 -0.629797 0.701049
16.3233 4.19521 5.55928 0.722446 0.211008 0.658443
18.8363 2.68155 5.55742 -0.402192 -0.572517 -0.714469
18.2389 9.22049 3.08749 -0.185948 0.959136 0.213263
18.5476 4.13768 2.44162 0.118793 -0.0550257 -0.991393
17.0086 6.55301 6.86423 -0.605766 -0.462145 -0.647665
18.8218 8.62354 7.30191 -0.470025 -0.414658 -0.779189
0.226959 5.66987 4.89919 -0.772773 -0.131693 0.620869
2.1775 4.91242 2.9299 -0.451551 -0.81391 0.365585
0.441138 9.52735 7.22252 -0.987161 -0.0119883 -0.159275
2.81936 8.02173 5.29669 0.457928 -0.406474 0.790621
2.98519 9.69766 8.92471 -0.0916924 0.269718 0.958564
4.76341 6.7984 6.35378 -0.922025 0.136749 -0.362175
2.82271 10.7869 4.94888 0.835537 -0.230817 0.498599
9.23759 7.0617 7.95914 -0.23757 0.195271 -0.951541
5.15405 7.63077 5.99796 0.777269 -0.448437 -0.441313
6.13876 6.93026 3.70867 -0.735677 0.0698247 -0.673724
6.05443 7.8053 6.56058 -0.786162 -0.251879 0.564363
11.3949 5.71666 6.55464 0.501104 0.775819 0.383405
6.77718 6.82891 2.91471 0.692427 -0.499505 0.520615
5.64197 5.54918 1.02652 -0.818802 0.11854 -0.561704
10.0848 7.6617 8.13582 0.654799 -0.675678 0.338671
10.5539 6.71157 9.67585 0.471617 0.660237 0.584521
12.7296 7.72169 6.87573 0.951734 0.20415 -0.229184
11.9403 4.08702 3.92838 0.589774 0.758807 0.276367
12.3931 3.31605 4.51218 -0.0397098 0.322142 0.945858
14.6865 5.06691 5.3799 0.969247 -0.159438 -0.187454
13.9832 10.4519 3.67826 -0.243031 0.95122 0.190041
18.2176 10.2568 5.14767 0.470297 0.742945 -0.476292
17.0836 8.41771 6.44808 0.865189 0.253074 -0.432898
16.8054 3.15798 6.19558 -0.140829 -0.269806 0.952561
16.8266 8.19551 5.52672 0.768158 -0.552886 -0.322878
0.594684 7.77551 4.31117 -0.296639 -0.953559 0.0522571
17.5252 8.38952 7.33876 -0.542405 -0.840099 -0.00545054
17.4146 5.6976 7.15783 0.0280673 0.464274 0.885247
18.4297 9.0524 5.01212 0.751338 0.540552 0.378542
2.69019 9.86824 6.54208 0.129687 0.0212712 -0.991327
17.6352 10.8616 4.25657 0.886345 0.0948488 -0.453207
3.18267 10.5398 7.95826 -0.641277 0.257932 -0.722658
3.10716 12.8562 2.96919 -0.642358 0.0394961 -0.765386
5.7056 12.1613 7.77798 0.120433 -0.41044 0.9039
4.51399 10.6095 7.59985 0.721177 -0.682111 -0.12095
5.24194 9.56898 5.95823 0.707339 0.195888 0.67919
4.71759 8.93265 3.13322 0.112041 -0.0385159 0.992957
3.74088 7.75613 4.89068 -0.0291773 -0.937231 0.347486
3.38402 8.84444 5.50889 -0.945092 0.306022 -0.114678
11.1169 6.33753 7.60574 0.041245 0.984697 0.169324
9.10198 14.962 6.06131 -0.192571 0.226067 -0.954887
10.5897 8.5036 7.69664 -0.419986 0.623059 0.659856
12.399 10.3198 7.89249 0.884972 -0.111181 0.452176
13.278 4.34697 5.51042 0.847182 -0.010119 0.531207
12.6307 14.8978 5.04692 0.191909 -0.0883355 -0.977429
12.7989 6.8172 6.49878 -0.929874 0.0126603 -0.36766
10.0781 13.4844 7.99557 -0.726886 -0.0614745 -0.684001
14.7732 9.52331 7.38479 0.413255 -0.910131 -0.0296953
13.225 10.2476 4.32662 0.551779 -0.430006 0.714587
14.9115 10.2447 4.21582 0.749769 -0.468703 -0.46708
14.3185 8.88577 5.39026 -0.559525 -0.539197 -0.629443
16.2918 8.02186 8.60132 0.151808 -0.337564 0.928981
15.2963 11.9739 5.87925 -0.131051 0.47822 -0.868407
15.1763 10.2308 5.2517 0.931114 0.0126546 -0.364509
18.258 8.17231 8.00515 0.0802196 -0.806112 -0.5863
1.70244 10.0486 6.48484 -0.0118998 0.709098 0.70501
16.2319 10.2647 6.40533 0.603761 0.632832 0.484765
19.3662 12.9251 3.25455 0.94865 0.286377 0.134357
0.241485 12.4433 5.22807 0.513212 -0.532152 -0.67337
0.872228 11.9134 5.86136 0.753432 0.489045 -0.439518
2.85722 12.9375 5.38563 0.281427 -0.243008 -0.928303
3.82305 11.3 3.17972 -0.201561 -0.934572 0.293169
0.950588 13.1023 5.24152 0.0421254 -0.0854953 -0.995448
4.50062 9.66347 6.77355 -0.120471 -0.946747 0.29859
6.24423 14.6857 6.89228 -0.233266 0.320058 -0.918232
3.7408 9.00799 3.07903 0.249856 0.568254 0.784002
5.91212 18.0033 4.75293 -0.204383 -0.971612 0.119156
6.72342 9.36211 7.73567 -0.70065 0.704112 -0.115391
10.4818 17.3 3.38619 0.826925 0.426298 0.366694
13.971 13.7898 4.08081 0.974431 -0.221066 -0.040164
13.2687 16.9401 3.85397 0.994874 0.100838 -0.00763235
9.75823 13.7356 8.99091 0.694507 0.601085 0.39542
11.315 14.6797 5.37231 0.688022 -0.705391 -0.170438
12.6655 12.9793 6.35445 -0.264469 0.891708 -0.367305
10.7533 14.0737 7.52328 -0.701528 0.684688 -0.19764
11.9393 12.202 4.32168 -0.584249 0.407373 0.701926
11.0908 13.9728 6.07073 0.821072 0.211786 0.530083
12.2583 12.3881 5.64772 -0.419008 -0.617759 0.665437
17.6878 12.4945 5.28591 0.513021 -0.206808 0.833091
15.891 10.2334 8.6459 0.615585 0.270762 -0.740097
14.0244 9.4565 6.71525 -0.140463 -0.912551 0.384084
15.6097 10.9103 5.82208 -0.67929 -0.364111 0.637172
17.927 15.2591 7.71355 -0.61292 0.047685 0.788705
18.5969 10.4488 6.03385 0.105488 -0.962427 0.250212
18.7523 12.3046 4.98625 0.376146 -0.913282 0.1563
18.7305 14.2278 5.16137 0.833662 0.336901 -0.437612
19.2976 16.813 6.44504 0.542235 0.839935 -0.0221504
1.49811 14.8767 4.22775 0.843372 -0.498487 0.200586
3.26118 18.635 3.68002 -0.484995 0.608068 0.628517
2.03526 15.0367 3.38591 -0.228527 0.938016 0.26058
5.61443 19.481 6.98896 -0.491901 -0.0752175 0.867396
6.67907 15.9771 3.99914 0.456216 -0.0933263 -0.884961
6.23803 16.8037 3.55429 0.329223 0.527861 0.782927
8.20446 12.9759 6.07595 -0.992945 0.113506 0.0342943
7.23162 17.1793 5.58996 0.710839 0.350592 0.609749
8.95194 16.0071 6.13029 -0.761397 0.291531 -0.579037
9.21165 18.7594 3.72908 -0.175215 0.325501 -0.929166
8.33472 16.993 4.10234 0.262436 -0.838553 0.477448
7.97149 15.0034 7.65082 0.701775 -0.633638 -0.325599
12.3769 15.8702 6.10904 0.748053 0.156589 0.644901
12.606 0.478681 3.61546 0.398074 -0.913485 0.0841544
17.0581 16.4306 6.30686 0.637842 0.575125 0.512239
11.9065 17.6345 5.24485 0.130971 -0.16212 -0.978041
12.0428 14.7093 7.64624 -0.62144 -0.457393 0.636085
14.5704 16.0321 4.41444 -0.00598491 0.166891 -0.985957
17.7105 15.8372 5.28695 -0.255065 -0.234364 -0.938092
15.7104 17.2656 7.25239 -0.279322 -0.860695 0.425656
16.1304 17.0872 8.2505 -0.48509 0.864071 -0.134419
18.4623 17.7468 5.31802 -0.151057 0.406164 0.901229
16.7443 12.6697 5.61079 -0.384469 -0.630103 -0.674651
18.9185 18.7795 7.39419 0.266587 -0.434429 -0.86035
0.134259 14.7988 6.89047 0.336703 -0.931402 -0.13828
18.4375 16.3892 4.92589 0.62168 -0.369212 0.690794
19.1533 14.564 6.01464 0.408784 0.823773 -0.392804
4.82087 0.883873 4.93637 0.935637 0.327502 0.131624
3.86571 19.0202 6.15955 -0.128797 0.943749 -0.304548
0.969284 16.9081 4.48365 0.0473624 -0.75033 -0.659364
4.36772 18.8959 3.34005 0.167318 0.121649 -0.978369
4.25236 2.22039 5.52072 0.113881 -0.932591 0.342499
6.53668 1.73916 5.83499 -0.622348 0.212192 0.753431
5.2711 18.7493 3.88275 0.288731 0.614433 -0.734239
7.36901 16.7448 4.02835 -0.0725446 0.337638 -0.938476
7.86287 0.964249 6.81836 -0.709423 -0.647198 0.279022
8.99294 19.1876 7.5209 -0.491798 -0.69214 -0.528278
8.43291 19.2365 4.11984 -0.42035 -0.465115 -0.779085
8.33128 18.568 5.79708 -0.723129 -0.316322 0.614024
10.3471 19.2767 8.19193 -0.344537 0.027194 -0.938379
10.0234 17.1584 4.28784 -0.04359 -0.955601 -0.291421
12.6493 19.3252 5.16722 0.78015 -0.0290126 0.624919
11.2332 0.931088 3.21136 0.471266 -0.398122 0.787024
14.609 1.09448 4.71915 -0.458464 0.110674 -0.881795
13.9993 17.7175 6.5576 0.789191 -0.614144 0.00213972
12.4675 2.04341 4.29582 -0.6444 0.563759 0.516648
15.551 16.4061 4.64403 0.566905 -0.763644 0.308976
17.7979 18.7697 7.13785 0.385341 0.914407 0.123987
16.498 16.91 5.44051 0.998007 0.0628326 -0.00578003
17.3117 1.8805 4.57243 0.632805 0.605336 -0.482832
16.1698 17.8903 5.51022 0.650981 0.264534 -0.71151
16.3302 1.15119 6.13806 0.661143 -0.392495 0.639404
4.86083 0.299588 5.71814 -0.547169 -0.656654 -0.519049
0.100835 2.02122 5.63694 0.13576 0.114814 0.984066
2.39128 1.71173 5.46855 0.360316 -0.340891 -0.868312
15.7604 2.11238 19.324 0.212146 0.543177 0.812375
3.22434 2.30864 5.33201 0.098504 -0.33856 0.935775
18.7647 6.80746 6.0764 0.34005 -0.901879 0.266419
5.22516 2.93758 5.13305 -0.301321 -0.873759 -0.381774
4.71384 1.55303 8.66024 0.233274 0.779707 0.581068
11.743 16.5821 6.44429 0.757387 0.597314 -0.263781
6.0803 2.57067 5.52404 -0.010443 0.491466 0.870834
7.74306 1.54964 7.69259 -0.0303364 0.733925 -0.678553
7.30913 0.524169 9.45771 -0.465076 -0.813595 0.348953
8.2187 1.26983 9.98729 -0.30215 0.931676 0.201704
7.56202 3.35187 8.27366 -0.0852718 0.302898 0.9492
9.17366 3.08914 10.207 -0.725298 -0.533095 -0.435605
9.99503 1.65886 13.3264 0.576294 -0.565009 -0.590466
9.78423 18.5179 9.54976 0.693736 -0.105184 -0.712507
9.28967 3.62222 9.32488 -0.939191 0.331101 0.0910607
9.40737 18.9291 8.613 -0.224035 0.504421 0.833887
13.1169 0.0689558 7.55202 0.296283 -0.467714 -0.832742
15.7561 3.10822 8.78959 0.952075 -0.0146365 -0.305515
13.4707 2.76393 8.01361 0.45727 0.346057 0.819237
15.0202 1.45164 7.70842 0.312495 0.918766 -0.241278
14.6333 2.87663 7.96012 0.514865 -0.640589 0.569701
17.7099 16.0893 10.1061 0.781516 -0.483339 -0.394484
17.9643 1.05853 6.29349 0.792458 -0.590343 -0.153314
5.41177 0.868908 4.01067 -0.874597 0.476667 -0.0887048
18.1032 1.35158 7.2195 -0.94691 -0.200532 0.251292
3.7581 1.81837 8.60678 -0.229877 -0.938843 0.256379
1.60328 0.621842 6.08452 -0.935135 -0.326888 0.136629
4.24882 1.06095 6.89236 0.743857 -0.201614 0.637204
6.50491 3.3654 7.46882 -0.575007 -0.814481 0.0773797
5.45095 3.61185 7.40854 0.239567 0.238101 -0.941231
0.307841 8.53536 7.03852 -0.469455 0.100465 -0.877222
0.0317919 6.6738 7.36822 0.864946 -0.150134 -0.478882
5.61328 7.73008 13.7043 -0.827063 -0.362136 -0.429912
4.71419 2.89031 7.1805 -0.898639 0.244909 0.363961
10.5254 6.04378 5.79522 0.979196 0.174553 -0.10347
7.16694 3.65485 6.38786 0.712038 0.0911064 0.696205
7.98646 8.33412 9.14657 -0.62056 -0.716287 0.319122
10.04 2.27494 12.5133 -0.254982 -0.616983 -0.744525
13.0191 7.11116 8.7825 0.509807 -0.793412 -0.332557
9.14373 3.08518 7.20523 0.803378 0.36879 -0.467523
8.32688 6.82527 8.17346 -0.0594378 0.445314 0.893399
12.6098 0.748608 5.657 0.908727 0.396587 0.13013
9.98423 5.24715 9.68312 0.437725 -0.839272 -0.322521
12.8975 0.697694 6.75496 -0.344502 -0.783024 -0.517873
11.4272 6.13179 9.50426 -0.453471 -0.071361 -0.888409
15.7898 4.10852 8.75498 0.557663 0.19863 -0.805952
15.2026 4.38062 7.09916 0.36237 0.875088 0.320794
13.4212 4.12592 9.79906 -0.487529 0.759672 -0.430365
15.2801 3.65696 7.96001 0.727929 -0.638928 -0.248779
14.9677 2.72192 19.0324 -0.564301 -0.821567 -0.0811922
17.7675 3.31839 6.36668 0.0735474 0.956692 -0.281658
18.7102 1.64249 5.87178 -0.218634 0.692961 0.687025
16.4965 6.18699 7.59091 0.115649 0.891276 0.438466
17.7716 4.09513 8.1465 0.938862 0.336662 0.0720911
18.2988 5.35029 7.46354 0.187485 0.119602 -0.974959
17.8961 6.45386 6.4026 0.481014 -0.193616 0.855066
5.94953 5.16289 12.6447 0.10274 0.993611 -0.0467172
0.717583 7.43735 7.68576 0.41451 0.396138 -0.819302
1.0231 9.02608 6.47972 -0.731722 0.578575 -0.360325
1.7887 7.93374 5.67738 -0.408828 -0.832377 -0.374178
5.94466 12.9116 8.77169 -0.930883 -0.202858 -0.303819
7.35772 6.5932 8.80954 0.717202 -0.68957 -0.100568
5.47399 8.12634 8.50601 -0.420841 -0.0574492 -0.905313
8.51298 7.82027 7.99335 -0.574753 -0.360887 -0.734452
7.37108 7.01144 7.89092 -0.0655528 -0.906087 -0.417982
12.1948 6.42595 8.69927 -0.129495 0.816061 -0.563272
11.7149 3.85306 6.84709 -0.630511 0.773684 0.0622073
12.0309 4.38752 7.68569 0.848737 -0.412636 -0.330721
9.95978 7.5773 9.64586 -0.618871 -0.563839 0.546886
12.3093 10.9121 5.89075 -0.630198 -0.761548 -0.151312
13.088 4.96697 7.26614 0.0871108 0.0864781 -0.992438
11.9935 6.99217 9.4685 -0.885783 0.301413 -0.3529
13.3152 9.66606 7.42818 0.55981 -0.67175 0.485145
15.6981 6.52096 7.04511 -0.630464 -0.763533 0.139763
17.1441 7.42357 6.30057 0.932919 0.062492 0.354622
15.6055 4.61025 6.1433 0.765526 0.60839 0.209358
13.1724 3.73082 8.86165 -0.533364 -0.79838 0.279487
15.5436 6.58701 8.04163 -0.0634385 0.990627 -0.120973
15.7311 9.78684 7.14759 0.129117 -0.855398 -0.50162
17.5902 4.66659 7.34563 -0.751023 0.441518 0.490944
2.89472 11.4591 8.29798 0.912907 0.0722857 0.401716
17.3899 3.5922 7.24624 -0.772076 0.566582 -0.287895
16.5988 6.81518 9.76155 -0.798923 -0.18765 0.57141
2.0835 10.5487 5.6795 0.489776 0.418573 0.764798
3.96039 13.4101 8.32047 0.0443367 -0.899712 0.434227
5.30147 9.57977 10.3393 0.115263 -0.92822 -0.353726
3.55162 9.36764 6.44784 0.489006 0.50377 -0.712102
3.70285 10.0161 7.22078 -0.301375 0.657377 -0.690673
6.43268 12.8777 7.86889 -0.567525 0.790182 -0.231362
6.80444 7.55551 7.2404 -0.721674 -0.668362 0.180218
5.5358 8.55651 6.07975 0.232652 -0.132108 -0.963546
6.25971 8.47526 7.44334 0.024525 -0.574107 0.818413
5.47896 9.32644 9.15537 0.693736 0.58475 0.420472
11.7042 8.57787 7.51997 -0.315165 0.0741202 0.946138
8.90166 13.9149 6.1252 0.644249 0.209691 -0.735509
10.6152 6.34486 6.75848 -0.590747 -0.76589 0.253833
12.7287 10.6982 5.03436 -0.858461 -0.15931 -0.48751
12.3239 11.6147 5.02624 -0.889236 -0.277299 0.36382
12.1382 12.8833 3.17962 0.38255 0.240989 0.891953
10.3084 13.1693 9.62761 0.0407315 0.539497 0.841002
16.8905 4.30825 8.94367 0.38866 0.831653 -0.396607
16.1332 6.62565 8.86642 0.747086 -0.622201 -0.233942
13.5111 13.1922 5.84226 0.199062 0.93739 0.285787
15.1875 4.96147 9.46947 -0.0410764 -0.142877 -0.988888
15.613 5.87237 9.37648 -0.717748 0.140902 -0.681898
11.3123 15.1745 7.12634 -0.379507 0.152461 0.912541
17.309 8.1164 8.33132 -0.271992 0.962299 0.000865866
17.8325 3.9973 9.15194 0.300526 0.911752 0.279987
3.84543 12.1434 6.85879 0.201602 -0.979042 -0.0288707
2.55364 10.5628 8.72754 -0.629697 -0.471289 -0.617551
1.39613 11.3072 5.19207 -0.927898 -0.197067 -0.316496
1.25952 10.7087 3.69428 0.425021 0.397793 -0.813092
2.98556 13.4029 8.1867 -0.077841 -0.208376 0.974946
4.82893 13.2921 7.69111 -0.14225 -0.807463 -0.572511
2.43759 15.268 6.43435 0.309715 0.949547 -0.0493633
5.32292 10.0223 8.46929 0.960983 0.276441 -0.00956308
4.87704 10.0752 9.50876 -0.568461 -0.76845 0.293831
5.93663 9.01395 8.32752 -0.835001 0.220007 -0.504351
6.98146 15.4204 6.88884 0.611758 -0.788286 -0.0660097
5.15186 10.9889 8.31114 -0.816544 -0.0853406 0.57094
7.49 18.5316 8.44837 -0.428941 0.663438 -0.613074
12.3006 9.38367 7.61848 0.290551 -0.211369 0.933222
8.16844 15.2445 6.26782 0.141035 0.465304 0.873843
9.71434 12.4392 7.50443 0.228333 -0.0847365 -0.969889
9.36264 13.523 9.85051 -0.160019 -0.943033 -0.291691
11.214 9.42295 7.57449 0.377855 0.403793 0.833172
9.46033 14.3229 8.24156 -0.947686 -0.28652 -0.140704
11.6356 13.0063 6.23363 -0.0766508 0.289188 -0.954199
10.7133 12.7903 7.57413 0.255504 -0.377109 0.890228
12.3772 12.8345 8.69123 0.621577 0.782983 0.0241007
12.0197 13.5266 9.5763 -0.543481 0.698123 -0.466104
15.5627 8.67634 8.79624 -0.62089 -0.378807 -0.686295
11.2417 12.832 9.73384 -0.138895 -0.216887 0.966265
3.60449 12.3789 5.77106 0.55766 0.63367 -0.536169
18.1149 16.8037 9.48019 0.238278 0.504118 0.830113
15.4833 9.50518 8.13031 0.868056 -0.414907 -0.272638
2.95391 12.4218 8.14331 0.925928 -0.0565252 -0.373447
