9.80866 13.4715 18.9676 -0.777256 -0.45014 -0.439599
22.3548 20.2096 8.6693 0.175497 -0.610493 0.772333
13.5768 17.427 16.5413 -0.889614 0.151593 -0.430822
9.46315 14.0236 20.3316 -0.928802 0.370449 0.00975876
20.2606 12.8283 18.2055 0.215239 0.671303 -0.709243
19.0564 12.1757 6.6233 0.496282 0.816981 -0.293677
15.5035 11.7613 9.66669 -0.514189 0.360957 0.778023
16.0419 20.2448 14.6617 0.634043 -0.0977306 0.767097
14.1238 11.3729 6.9065 0.423581 -0.901535 0.0883895
11.5042 16.2228 7.12922 -0.959227 -0.277403 0.0541343
19.644 21.8509 14.9039 0.276233 -0.478975 0.833234
18.9085 10.0796 19.2513 0.153248 -0.722797 -0.673854
13.516 7.48543 6.89644 -0.430663 0.544662 -0.719634
11.1113 16.8925 8.53122 -0.200872 -0.20855 0.957161
9.8009 8.06439 16.6835 0.0190665 -0.940562 -0.339086
16.299 18.5621 6.87856 0.983528 -0.180104 0.0153184
11.6478 17.8151 6.68719 -0.907878 0.330433 0.258015
17.9026 18.8924 6.4041 -0.436226 0.798342 0.415159
17.9987 14.5279 19.3881 0.252796 -0.252484 0.933995
19.9852 9.73923 14.4698 0.421222 0.563691 -0.71051
19.7994 10.6489 12.6412 0.84163 -0.15534 -0.517231
22.5131 21.6247 12.1489 0.433678 0.876358 -0.209572
14.0928 16.0413 15.4635 -0.885691 -0.258029 -0.385969
16.4092 15.6777 17.2896 0.224225 0.156758 0.961847
9.9758 12.3569 16.9109 0.758785 0.227764 -0.61022
19.4806 21.18 8.07119 -0.535722 -0.163245 -0.828464
12.4342 14.9879 13.922 0.0443072 -0.978298 -0.20241
15.453 12.0154 14.7315 0.541143 0.0879502 0.836318
13.1013 7.45229 13.8837 -0.262402 0.410973 0.873067
19.5067 8.53531 9.37978 -0.0775715 -0.33146 0.940275
17.1091 13.7587 15.7259 -0.516584 -0.0870626 -0.851799
8.46224 10.7715 17.6858 0.60917 0.5994 -0.519261
21.3199 7.46405 18.323 -0.33609 -0.933103 -0.127913
18.6399 12.5972 20.1418 -0.0547054 -0.928169 -0.368116
10.16 14.7927 8.37966 -0.891578 0.320039 0.320411
14.3172 21.7317 16.5634 -0.103806 -0.533432 -0.839449
16.1346 17.2186 15.8183 0.352423 -0.815532 0.459027
16.9764 15.4676 9.4409 0.437501 0.859185 0.265317
10.1994 18.3215 12.664 0.427304 -0.844996 -0.321547
22.6388 14.884 10.2705 0.511704 0.323776 -0.795819
11.9219 18.1974 8.01784 -0.876326 0.292529 -0.382726
15.1316 10.9519 14.183 0.172555 -0.0375808 0.984283
15.1703 15.1041 16.8855 -0.658187 0.210628 -0.72279
17.5184 21.34 14.5031 -0.184497 -0.59428 0.782811
19.3184 18.7839 13.6227 0.576446 0.807508 -0.125063
10.9773 13.5589 12.4723 -0.478509 0.165662 0.862314
10.5723 9.57609 19.2392 -0.723 -0.687574 -0.0671752
15.059 21.1848 8.71412 0.963502 0.26205 -0.0547112
19.9807 19.2759 14.8309 0.619672 -0.517679 -0.589928
8.75917 19.1258 15.8514 -0.728653 -0.655444 -0.198641
16.3095 12.6667 11.0676 -0.647071 0.0131463 -0.762316
16.1521 17.7077 14.2173 -0.467703 0.83058 -0.302309
18.1436 14.9499 15.8234 -0.317936 0.809992 -0.492778
20.0573 14.3762 18.2455 0.104926 -0.0423731 -0.993577
15.388 20.5405 10.8791 0.917477 0.166103 0.361448
13.6924 18.5223 9.13722 0.373211 0.109246 0.921292
21.7563 15.6823 9.76465 -0.797338 -0.279696 0.53481
11.9808 9.12099 19.7448 -0.197763 0.528422 -0.825627
15.7271 14.0931 9.96084 -0.567088 -0.819302 -0.084591
10.5315 7.42198 11.7185 0.857882 0.485586 -0.168063
21.4518 20.6289 19.0705 -0.171298 -0.979136 -0.109315
22.7546 18.1114 13.7821 0.0304671 0.860275 -0.508918
11.1364 20.1722 16.4802 -0.116464 -0.939056 -0.323435
14.2491 18.9928 18.2791 0.167233 -0.573048 -0.802277
16.9203 17.2321 10.4973 0.311662 0.769124 0.557956
21.026 12.7382 19.9457 0.647693 0.743293 0.167358
18.0575 12.0542 11.4806 -0.128249 0.799832 0.586362
9.76619 20.2606 19.7813 0.183384 -0.930219 -0.317904
12.5541 21.7407 6.89115 0.375367 -0.680984 0.628777
17.5098 17.6947 13.4977 0.820492 -0.568497 -0.0600337
15.9385 12.2153 19.7088 0.724163 0.0035093 0.68962
17.2251 19.89 11.5406 -0.994237 0.0427412 0.0983128
20.2978 15.3015 14.1102 0.397811 -0.547899 0.735903
8.57506 10.9843 14.276 -0.188133 -0.428318 -0.883827
11.9875 12.4759 20.3606 -0.74845 -0.502063 -0.433308
14.1799 9.46706 15.9638 0.676481 -0.721218 -0.149059
8.82247 16.7407 10.2662 -0.558157 -0.265711 0.78604
11.6956 21.3975 18.749 -0.689679 -0.7231 -0.0383451
14.1699 18.5674 20.5747 -0.776889 0.422839 -0.466531
20.83 20.0394 20.4325 0.564479 -0.421799 0.709542
16.2483 10.9043 18.1631 0.398347 -0.900177 -0.176068
9.12615 20.0362 8.63054 0.595058 -0.691509 0.409538
9.35412 9.27015 9.41715 0.0174191 0.999655 0.0196596
15.0437 11.2005 17.3545 -0.403232 0.759684 -0.510181
21.7173 7.89402 12.4983 0.327813 -0.76453 0.555007
9.67054 14.8837 19.1168 -0.953193 0.270673 -0.134754
17.5779 18.6467 8.19337 0.742865 0.552425 0.378125
17.421 10.4181 10.9743 -0.188775 0.877625 -0.44061
10.4901 13.8179 17.0055 -0.658691 -0.604141 -0.448486
8.72322 21.7981 11.2562 0.286933 -0.863184 0.415432
10.9513 19.9186 10.916 0.513005 -0.826231 0.232741
9.51233 8.28486 14.6877 -0.985909 0.0184783 0.166262
11.8342 21.0796 19.8478 -0.491803 0.414959 0.765467
15.8129 13.4386 17.6694 -0.233675 0.683468 -0.691569
11.6714 8.40868 16.8592 0.871474 0.293592 0.392857
16.3125 18.1767 12.7812 0.885986 -0.337213 -0.318303
10.7391 16.9103 17.3245 0.568575 0.819746 -0.0688401
9.22257 18.7522 9.88798 -0.523141 0.79509 -0.306848
17.0133 12.7146 7.79695 -0.173759 -0.653886 0.73637
15.346 8.23615 12.4181 0.849454 -0.387231 0.358441
16.1758 19.7465 7.20267 -0.698468 -0.119488 -0.705596
15.6007 13.0629 14.536 0.61104 -0.199437 0.766064
12.9127 10.5357 6.67304 0.885951 -0.463696 -0.00874411
10.1989 15.9931 19.3837 -0.989448 -0.130864 -0.0621858
21.1601 7.94179 13.6592 0.0509525 -0.704333 0.708038
12.9469 14.0817 14.6431 -0.0304786 0.998079 0.0539429
22.7411 21.774 17.1667 -0.674446 -0.734661 0.0734615
17.2228 11.3597 17.9983 0.563647 -0.801572 0.19946
10.5039 10.6542 8.45352 0.34129 0.771473 0.536982
13.3406 13.4921 7.2179 -0.334822 -0.894012 0.297718
20.6832 14.0527 11.244 0.688461 0.57687 -0.439593
22.4217 17.3992 10.012 0.438301 -0.635415 -0.63572
17.5833 11.8844 19.8802 -0.358782 0.915018 0.184438
18.4335 16.607 15.1531 -0.177272 0.0417991 -0.983274
9.49029 13.8443 8.66987 -0.732322 0.351435 0.583265
20.4271 9.82759 20.326 -0.818777 -0.407878 -0.40403
8.80104 8.75978 12.9898 -0.678279 -0.584367 0.44548
15.1073 9.03653 13.4553 0.268041 0.963404 0.00239218
22.7944 20.8582 14.439 -0.165044 -0.252141 0.953512
19.6167 21.9597 6.61335 0.405534 0.77364 0.48685
22.7686 13.3413 6.23463 -0.956431 -0.285565 -0.0607619
19.4572 13.1547 18.8371 -0.0858618 0.340446 -0.936335
12.9255 12.9011 13.3078 0.735031 0.0917871 -0.671792
18.5648 7.66031 20.5945 0.610586 -0.438698 -0.65934
9.9364 9.48054 6.81777 0.797762 0.512557 -0.317588
11.5353 10.4189 20.377 -0.194829 0.784182 -0.589152
8.45217 19.9818 10.747 -0.0672069 -0.987787 0.140573
8.59748 9.99731 11.9649 0.466887 0.409489 -0.783796
12.1858 11.0838 13.1911 0.211591 -0.63262 0.744998
18.2752 18.1088 18.1363 0.842204 -0.534387 0.0715696
15.7372 8.01934 10.316 -0.849079 0.0316034 -0.52732
11.521 10.4942 8.82699 -0.379866 -0.0811885 0.921472
18.216 7.56687 14.5913 0.193094 0.472737 -0.859788
19.0459 19.0243 6.96288 0.11057 -0.967416 -0.227771
18.0785 19.2178 13.7742 -0.0140134 0.967781 -0.251403
19.7547 19.338 18.6057 -0.752714 0.616665 -0.230534
14.7958 20.8836 17.2302 0.172715 -0.706419 -0.686397
16.364 18.5308 20.4862 0.941202 -0.324057 -0.0955323
20.3905 11.8582 6.80217 0.637141 0.715044 -0.287686
10.5226 18.374 11.502 0.218284 -0.97512 0.0386415
22.2069 16.1763 15.0618 -0.493996 0.84353 -0.210772
8.47945 17.6452 11.2514 0.877145 0.339602 -0.33954
16.6819 10.8974 15.9634 0.829981 -0.412095 0.37591
13.2122 21.9381 10.4198 -0.00938475 0.0827106 -0.996529
14.7703 16.8446 18.9733 0.944736 0.290733 0.151487
18.545 13.6089 8.91941 -0.0926153 -0.995687 0.00552795
22.4996 20.0209 11.7412 -0.648248 -0.682731 -0.337125
17.8281 12.7947 15.6966 0.466225 0.298457 0.832801
12.9783 16.6954 8.39635 -0.177809 0.630996 0.755135
17.8937 11.6749 15.9361 -0.754627 -0.2503 -0.606537
15.7442 16.3411 9.49812 -0.299012 -0.938595 -0.172136
19.243 13.9316 6.72499 0.263702 0.861577 -0.433757
14.6836 18.3036 10.9335 0.415713 0.660624 0.625106
9.82555 14.4255 12.1648 -0.629773 0.542593 0.555858
10.2357 8.53591 7.48224 0.414099 0.905374 0.0939124
23.0376 14.7619 13.7231 0.800018 -0.0744174 0.595343
10.9084 8.73003 10.334 -0.446841 0.76338 -0.46646
20.7835 20.2512 7.48576 0.990575 -0.0784068 0.112313
22.7831 17.7872 12.6102 -0.705398 -0.705428 0.0691758
18.7084 9.35026 20.3375 0.541756 -0.800378 0.2567
15.3315 13.571 12.9576 0.939861 -0.159685 0.301931
13.1217 8.57393 16.0686 -0.0968959 -0.875945 -0.47258
18.9589 19.4272 12.7122 -0.740829 -0.640225 0.203184
18.1332 13.7498 7.88534 0.0685768 -0.964144 0.256368
20.228 7.71651 19.3028 0.994451 -0.0416761 -0.0965946
9.84417 11.993 18.83 -0.627477 0.443652 -0.639879
20.6346 7.94727 17.3316 -0.292575 -0.908062 0.299705
14.9407 9.95747 20.358 0.142258 0.600541 -0.786838
23.0748 18.9977 16.9373 0.907186 0.221243 0.357862
18.5083 14.9144 6.68115 -0.67895 -0.734027 -0.0152242
15.1727 13.2446 11.2197 0.901753 0.425213 -0.0776883
21.2259 11.802 8.52071 -0.122417 -0.99143 0.0456217
11.3743 12.2879 13.5863 0.663501 0.183735 -0.725264
18.3857 14.5843 11.4571 -0.450415 -0.694052 -0.56162
12.6803 11.4111 16.3877 0.101854 -0.865485 0.490471
15.3927 20.294 7.86714 0.840548 0.0745803 0.536579
13.1848 19.8327 14.2465 0.482214 0.380585 0.789065
13.0108 8.40691 11.6201 -0.815511 -0.496223 0.297833
12.8079 9.8674 8.39936 -0.149288 0.188344 0.97069
11.8159 19.4902 19.9572 -0.739393 -0.664875 0.106017
20.8848 13.753 18.8194 -0.511481 -0.475647 0.715644
19.4001 13.9699 10.8386 0.727795 0.647977 -0.224591
14.3583 21.3834 10.3926 -0.608496 -0.0552128 -0.791634
13.8498 12.6626 18.2049 0.375448 -0.664933 0.64568
19.3094 15.4241 7.6744 -0.631133 -0.634754 0.445822
15.2145 20.5927 6.45785 0.940579 0.322936 -0.104992
20.9572 19.2782 12.7693 -0.159974 -0.936454 0.312191
13.5292 12.059 11.8451 0.659981 -0.230262 -0.715126
11.128 13.7406 18.3018 -0.582384 -0.557108 -0.591996
13.9078 9.63221 8.31 0.268452 0.198277 -0.942666
11.4306 8.38764 9.19701 0.691401 0.608351 0.389711
12.9893 12.1091 17.3578 -0.996885 -0.0787996 0.00340342
11.7152 14.3664 11.913 0.833081 -0.330338 -0.443681
18.1111 16.9185 18.4502 0.246618 -0.174052 0.953355
16.9117 11.6382 18.9998 0.223581 -0.973134 0.0549609
14.2363 7.80448 20.0741 -0.150917 0.344903 -0.926427
20.5828 18.0383 8.05881 0.93533 0.353642 -0.00974595
9.50984 19.4645 20.5462 0.0990159 0.698061 0.709159
22.5659 13.6516 10.0084 0.544217 -0.285782 -0.788769
12.9041 21.5727 18.2061 -0.0517107 -0.976031 0.2114
13.6346 13.0148 20.3057 -0.0402324 -0.868961 0.493243
9.37255 15.8446 6.45373 0.954871 0.297022 -0.000360023
16.1009 14.1554 13.9306 0.97907 -0.202977 -0.014929
15.918 13.9613 6.3669 -0.850968 0.521977 -0.0582637
11.019 7.91994 12.6048 0.786459 0.503417 -0.357846
14.4889 15.9935 9.96562 0.397593 0.768018 -0.502064
20.5872 13.1875 16.6865 -0.4399 0.820221 -0.365684
15.1165 11.294 7.45861 0.311353 0.771699 -0.554563
8.76799 8.19563 16.2442 -0.000385099 0.779677 0.626182
11.6985 17.1581 12.4297 -0.42955 -0.902826 -0.0197945
15.2823 19.956 18.4956 -0.231094 -0.833478 0.501907
22.0787 16.4222 16.1148 0.502365 -0.798337 0.332096
14.0677 20.9984 12.9929 -0.362817 -0.931426 0.028445
18.926 19.3903 14.4736 0.117362 -0.890772 0.439035
12.4417 18.2273 20.6024 0.932228 -0.101844 0.347245
22.812 13.4621 15.7177 0.723636 -0.381291 0.575299
16.7939 15.3008 12.4146 -0.589767 0.776394 0.222231
10.8871 11.3782 18.6517 -0.567741 -0.820313 0.0689774
13.4829 14.6831 9.94714 0.322077 0.192296 -0.926978
19.5926 12.7323 7.68181 0.718885 0.320933 -0.616609
18.2187 21.1076 20.6969 -0.232328 -0.486198 0.842398
20.7727 8.79785 18.4345 -0.720906 -0.689493 0.0699583
12.9934 18.7602 18.4192 -0.800038 0.277595 -0.531865
14.8638 14.0193 19.9621 0.337429 -0.587562 0.735468
21.7915 17.9083 16.3155 0.0199925 -0.663131 0.748237
14.8048 13.1148 18.285 -0.0518086 -0.0965749 -0.993976
8.60267 12.6934 7.22233 -0.915765 -0.22278 -0.334282
20.0085 11.0854 17.1424 -0.78796 0.612529 -0.0626698
12.5713 16.3514 20.7045 -0.209988 -0.912863 0.350123
22.3597 15.0968 12.034 0.958438 0.176442 0.2242
14.164 10.6817 15.1548 0.0193802 0.968453 0.248441
18.8073 8.09851 16.8682 0.590375 -0.672148 0.446849
13.6978 8.60901 14.3818 -0.389306 0.474423 0.789533
10.4565 20.9159 15.7842 -0.15764 -0.89745 -0.411986
17.7311 15.9187 12.9405 -0.212692 0.442211 0.871328
9.23504 20.1448 17.0442 0.873772 -0.389427 -0.291322
20.378 11.5617 13.0859 -0.786688 0.603019 0.13225
15.9186 9.14046 10.5505 -0.733151 -0.145225 -0.664379
14.6518 8.92698 17.9585 -0.147775 -0.867744 0.474534
23.0254 11.1675 9.71629 0.750358 -0.531131 0.393527
20.1856 7.82324 15.7612 0.169809 -0.601095 0.780929
11.9073 7.37981 17.3017 -0.18695 0.555952 0.809918
20.1678 21.5547 20.1424 -0.795527 -0.584107 -0.161106
10.6535 20.145 6.5755 0.0694985 0.479975 0.874525
18.8302 21.24 14.44 -0.423462 -0.201226 0.883283
16.2806 15.3586 10.8995 0.584092 0.811208 0.0278982
13.2503 19.4118 15.6797 0.756009 -0.055516 0.652202
8.47646 14.2996 17.0572 0.176165 0.957871 0.226823
22.8818 10.8452 8.59949 -0.329403 0.893955 -0.303873
14.6734 18.3035 8.63976 -0.107483 0.0811691 -0.990888
8.89823 20.4606 7.38394 0.925273 -0.356908 0.128404
19.6026 15.7344 16.4378 0.479278 -0.829848 -0.285738
8.66617 16.1104 15.485 -0.077032 0.757897 -0.647811
22.0607 11.3061 15.6765 0.366999 -0.385161 -0.846736
15.619 12.3811 17.3286 0.539683 0.261193 -0.800325
17.9402 11.8254 6.17363 0.311405 -0.950216 0.0107815
11.5626 11.4963 9.70479 -0.492474 -0.31234 0.812351
8.63998 11.7566 11.6486 0.523894 0.792808 -0.311434
19.4229 14.1944 14.5698 0.694529 0.292229 0.657444
14.8539 17.3522 16.0019 -0.74747 -0.290544 -0.597388
17.5753 21.5607 18.0073 -0.892045 -0.251294 0.375643
18.0288 16.99 11.7776 -0.548726 0.829333 -0.105391
10.1511 19.1874 18.4779 0.744606 0.662105 -0.0847295
18.4343 19.5359 19.3252 -0.328044 0.646472 -0.688812
21.2302 16.3814 11.9939 0.798078 -0.32422 0.50789
13.1306 15.4645 16.1097 -0.192901 -0.864436 -0.464263
21.7096 21.0391 14.8135 0.249453 0.613917 -0.748918
12.6143 8.83953 13.8917 -0.298447 0.13423 0.94494
10.9705 20.8035 17.6853 -0.943498 -0.330996 -0.0159265
14.9814 16.4237 17.0217 0.80446 0.0184503 0.59372
16.7117 11.247 6.468 -0.845797 0.527776 -0.0779797
9.20657 18.4063 16.4584 0.798165 0.598271 -0.070744
20.4083 16.6004 16.555 -0.480799 0.670733 0.564756
18.844 10.3152 10.6952 -0.566123 -0.823732 -0.0311332
19.3416 21.2684 16.4596 0.571546 -0.78756 0.2304
11.0593 16.4194 15.4511 0.0272281 0.766956 -0.641122
14.9023 12.7272 15.634 0.389027 0.267754 0.881457
17.5809 9.13764 9.00302 -0.501275 -0.691097 -0.52068
20.6655 11.2961 18.8084 0.0777323 -0.338591 0.937717
21.5529 15.0628 6.8805 -0.621358 -0.617414 0.482406
11.9171 15.3076 18.6068 -0.980567 -0.0841973 -0.177198
14.9446 12.597 20.2229 -0.790817 0.0138331 -0.611897
15.8268 16.9877 20.0455 0.878838 0.476967 -0.012073
16.7821 13.6933 8.41498 0.773195 0.597944 0.211267
23.119 10.6715 19.1558 0.540147 0.841382 0.0178159
13.3143 17.9304 10.4977 -0.443536 0.28395 -0.850087
9.75125 18.3771 17.4375 0.965922 0.23151 -0.115751
10.1519 20.7652 8.23171 -0.115678 0.672432 -0.731064
20.3641 8.46165 12.0783 0.35149 0.933373 0.0725873
9.21209 19.0817 13.7073 0.273889 0.93696 0.217002
20.4643 9.48235 17.6597 0.946784 0.273438 -0.169799
18.75 15.8426 13.3455 0.326777 0.715651 -0.6173
16.0783 13.5236 19.917 -0.555199 0.551988 -0.622145
12.9105 19.6028 17.4638 -0.523601 -0.134946 -0.841208
11.612 14.9141 8.7293 0.454184 -0.814006 -0.362094
15.7651 10.2003 8.06275 -0.537223 -0.441994 -0.718354
10.5713 19.8177 13.2469 0.264987 -0.957567 -0.11335
14.0014 11.2217 20.0228 -0.386764 0.591567 -0.707433
17.909 16.8089 10.6473 0.415571 0.894713 0.163676
19.1246 17.3705 19.4864 -0.716864 0.660186 -0.224188
10.144 8.93152 8.75521 0.281959 0.917946 0.279061
21.3403 12.7381 18.1031 -0.0584537 0.740255 -0.669781
15.6727 18.1372 10.443 0.560053 0.686682 0.463474
13.8883 11.4625 16.4632 0.217657 -0.786423 0.578069
22.0382 7.90209 17.2576 -0.493094 -0.840609 0.224133
10.4325 8.59116 6.49966 -0.874095 -0.454998 -0.170102
12.9375 14.1461 8.54982 -0.0344992 0.236819 -0.970941
20.8311 21.3599 10.8197 0.0626005 0.727922 -0.682796
17.2702 14.813 11.3318 -0.394523 -0.916283 0.0691103
22.442 17.3693 19.011 0.392879 0.708462 -0.586283
12.9603 20.8148 11.8674 0.468968 -0.0427242 -0.882181
13.167 19.4834 6.37802 0.634946 -0.70875 0.307436
13.4482 14.3279 16.5012 -0.280085 -0.9351 -0.21712
13.72 10.6387 8.98756 -0.357909 -0.274946 0.89236
9.19763 19.057 14.8035 0.29177 0.947171 0.133185
15.8779 9.90241 16.2575 0.651737 -0.0954777 0.752412
10.815 7.58056 15.3179 -0.519397 0.692336 0.500896
12.2096 7.73784 9.93366 0.0683174 0.0105839 -0.997607
16.0512 20.2104 16.0079 0.714643 0.174089 0.67748
21.3026 14.8026 16.6996 0.415854 0.63153 -0.654397
14.0446 12.5591 13.6153 -0.271584 0.444394 0.853672
20.3627 16.4644 14.2646 0.687476 -0.34023 0.641576
13.9499 16.6859 10.828 -0.951101 -0.267274 0.154828
11.5684 9.85159 10.3664 0.346461 -0.121543 -0.930157
11.1559 16.8099 18.3394 -0.53181 -0.846833 0.00721546
18.4073 18.1488 12.2294 0.458264 -0.520118 0.720743
9.03646 15.6237 10.2884 0.546926 0.421313 -0.723442
11.6206 16.6932 16.5687 0.860921 -0.304229 0.407749
10.6236 15.0006 15.0763 -0.804667 0.12626 -0.580145
10.1413 11.4202 16.3268 -0.454918 -0.491137 0.742856
10.0396 10.8383 6.94849 0.427425 0.557781 0.711469
22.5809 10.8771 16.5955 0.825875 0.428687 -0.366275
8.5226 7.32811 13.7773 0.0623898 0.211168 -0.975457
15.2887 11.0791 20.6734 -0.403324 0.445945 -0.799039
19.6889 11.0526 19.0967 0.101054 -0.479944 0.87146
17.1057 11.0181 8.58776 -0.317995 -0.553126 -0.77002
15.8101 11.9062 8.21723 -0.500248 0.645898 0.576687
16.9283 15.1713 13.4951 -0.650208 0.758556 0.0426891
20.8336 14.4307 19.8348 -0.650298 -0.411906 0.638315
14.7589 17.809 19.4932 0.652314 0.0775816 0.753968
16.6498 14.4566 17.2867 0.292142 0.366128 0.883518
19.4392 18.4802 10.0471 -0.393935 -0.86535 0.309813
12.4833 7.88113 19.7692 0.307154 0.718799 -0.623687
11.2128 18.2647 14.2294 0.00696189 0.606634 0.794951
9.76648 9.26923 15.3743 -0.405286 0.0114844 0.914118
22.2737 9.37494 6.38018 0.027249 0.86963 0.492952
16.4326 19.2152 16.9932 0.901356 -0.217276 0.374631
20.9955 9.14712 13.8712 -0.401796 0.605484 -0.686986
22.1059 14.0027 19.2748 0.444191 0.885678 0.13516
20.5432 8.41522 20.6116 0.679922 0.721007 0.133624
22.1751 7.86362 14.6005 0.315084 0.677666 -0.664448
9.5894 20.0143 11.0246 0.0119285 -0.998513 -0.0532023
18.4191 16.4611 6.31907 0.757026 0.609184 -0.236233
15.6911 19.4073 8.51362 0.464895 0.261395 0.845899
9.5027 7.42214 17.5969 -0.509838 -0.747219 -0.426297
11.3704 19.751 17.6012 -0.874065 -0.420784 -0.242799
22.2278 9.86501 9.21399 0.291103 -0.886735 0.359111
16.4853 19.196 13.2846 0.817523 -0.48952 -0.303358
9.33274 21.458 14.0777 -0.326997 -0.854237 0.404169
22.1139 13.2197 7.55501 0.766775 -0.0234449 0.641488
20.736 20.7775 6.51832 -0.885848 -0.154921 -0.437348
9.32611 13.776 12.933 -0.30262 -0.322247 -0.896983
23.0809 12.5105 14.6988 0.538169 0.659307 0.525061
19.7932 21.4571 18.754 -0.735547 0.42196 -0.530019
19.4533 19.5308 8.32673 -0.641322 -0.672971 -0.368533
21.6312 14.1129 6.39831 -0.935176 -0.345524 0.0778456
12.1019 14.5376 16.7633 -0.263873 0.565063 0.781712
13.1191 21.7258 19.4622 0.310139 0.72422 -0.615889
8.76728 16.2253 16.9535 0.659382 -0.731287 -0.174456
13.5365 8.94773 20.1223 0.475055 -0.546975 0.689305
9.35348 19.5792 12.0338 0.621654 0.679559 0.389546
16.0197 15.7096 7.46936 -0.954249 -0.258395 -0.150467
12.9475 16.8887 11.94 0.356737 -0.848697 0.39045
9.47184 10.4122 14.4472 0.121917 0.287665 -0.949939
14.4979 13.1408 6.45835 -0.144383 0.9885 0.0449584
16.4433 12.6939 9.42707 -0.157503 0.984666 -0.0750002
12.2685 10.8641 10.1782 0.335234 0.172985 -0.926118
17.419 14.9749 16.722 0.629961 0.15905 0.760166
12.1439 14.8657 10.81 0.237669 -0.527408 -0.815693
20.0212 13.0738 8.63828 -0.656312 -0.142985 0.740817
11.9243 14.0592 14.8182 0.152507 0.969001 0.194369
17.1727 18.9028 10.3577 0.499527 0.829229 0.250703
18.3023 9.80235 13.0473 -0.135994 -0.856766 0.497452
13.4845 8.66771 7.48775 -0.496274 -0.528313 0.688911
19.4959 20.7782 11.6321 -0.590053 -0.758769 0.275876
11.2347 16.2805 10.9589 0.128737 0.553929 -0.822551
20.2898 10.3012 7.71428 0.312025 0.941594 -0.126651
19.8823 20.5693 14.4919 0.555727 -0.127125 -0.821588
9.49135 15.9583 18.2009 0.547977 0.800949 0.241249
11.7182 11.5129 15.3921 0.36942 -0.780901 0.503709
8.96294 11.6517 8.90026 0.617745 -0.785834 0.0292789
15.864 16.7172 7.35563 0.921301 0.355939 0.156564
9.55974 11.6085 12.3739 0.473014 -0.880647 0.0268021
8.84101 20.7931 19.0574 0.7671 0.572979 0.288534
18.226 9.59234 6.65409 0.4596 0.824351 0.330475
19.7479 20.9254 12.926 0.7031 0.587705 -0.400315
16.4083 15.0722 6.61582 -0.815513 0.144813 -0.560329
10.2329 12.7661 12.0738 -0.530401 0.0163374 0.84759
22.7157 18.3168 9.18448 -0.319232 -0.25219 -0.913505
22.5021 15.9749 19.1308 0.870553 0.409006 -0.273591
16.9728 20.1839 13.8961 -0.17117 -0.948584 0.266251
15.1251 20.6639 12.0467 0.969937 0.238816 0.046789
14.189 7.89117 15.0327 0.167551 -0.396152 -0.902768
17.2196 20.7541 12.394 0.420557 0.899234 -0.12046
19.5953 9.45318 9.93905 0.607073 0.441898 -0.660446
14.9227 21.7029 12.1356 -0.819961 -0.197341 -0.537327
19.033 15.1773 18.4236 0.0284649 0.222659 -0.974481
13.1951 21.4552 8.45295 -0.776904 -0.629122 0.0249933
21.401 21.2961 13.3707 0.434459 -0.736237 0.518845
19.6815 11.3844 14.7899 0.574337 -0.812299 0.101525
9.95145 13.1051 14.05 -0.632367 0.384366 0.672589
22.6892 17.4301 15.4677 0.58021 -0.483348 0.655539
18.375 11.697 14.0318 0.15985 0.981896 0.101631
20.1941 8.46991 13.7779 -0.187556 0.558996 -0.80768
20.4516 17.5705 15.0221 -0.569584 0.703447 -0.425131
12.4294 20.5072 9.6123 -0.826514 -0.137689 -0.545817
18.8501 21.1529 10.8138 0.472492 0.88042 0.0401611
14.2457 8.52693 8.87855 0.00992275 -0.250656 -0.968025
17.7625 8.65608 17.5122 0.218884 -0.939257 -0.264361
17.3303 19.214 20.3263 -0.602 0.5175 0.608103
19.6855 17.2447 6.94681 0.5406 0.841025 0.0207137
16.9816 11.5614 13.255 0.368997 0.655065 0.659341
10.1369 17.0965 19.359 0.933895 0.354829 -0.0440099
16.7364 16.4891 8.90111 0.520584 0.723692 0.453058
11.3951 14.1823 20.8083 0.910028 -0.252185 0.329017
18.5598 21.6527 9.35969 0.110798 -0.697473 -0.707994
10.9476 12.9388 19.1061 -0.557188 -0.395626 -0.730083
8.81031 20.8644 9.34848 0.131446 -0.779202 0.612835
13.1781 11.881 9.29676 -0.00336988 0.0392221 0.999225
18.0146 11.28 17.1634 0.846786 -0.215745 0.486217
18.6094 8.54096 19.5077 -0.699282 -0.151513 0.698605
15.9894 19.0797 17.9816 -0.736691 0.458834 -0.496747
19.0985 13.9356 19.5077 -0.394075 0.311527 -0.864671
20.5395 15.5649 12.5388 -0.897598 0.327287 -0.295299
16.5642 13.9732 18.8667 0.687584 -0.328013 0.647793
21.295 15.1765 20.4845 0.878156 0.142183 -0.456756
13.0048 19.366 11.5705 0.697136 0.299184 0.651529
20.9999 16.5132 17.5881 0.593777 -0.545263 -0.591707
15.4526 19.5138 10.4869 -0.967329 -0.181337 -0.177177
17.3845 21.4155 9.5954 0.447043 -0.158028 0.880443
22.2829 14.6433 14.6984 0.833635 -0.46244 0.301996
12.5959 12.867 8.97904 -0.184931 -0.176992 -0.966682
17.664 17.5346 19.4502 -0.271405 0.199063 -0.941655
16.8634 9.21864 9.79504 -0.703062 -0.484683 -0.520371
20.5522 17.9728 10.2591 -0.560634 -0.617642 -0.55155
18.6618 22.003 13.0363 -0.386878 -0.914936 0.114964
10.3767 7.39652 9.65932 -0.750878 0.0404559 -0.659201
10.6427 15.781 13.7087 -0.177703 0.306612 0.935099
10.9173 18.9225 8.61718 -0.79181 0.543943 -0.277782
10.6407 13.2511 6.54496 -0.997314 -0.00366977 0.073156
15.2242 14.2163 11.8944 -0.977688 -0.209745 0.011549
10.119 17.225 8.12695 -0.011296 -0.42759 0.903902
18.9034 20.7795 19.0729 0.80011 -0.569368 0.188798
14.7745 17.4052 17.9459 -0.993092 0.0674461 -0.0960202
18.0679 15.4303 9.61271 0.342479 0.8794 0.330703
17.156 8.65074 13.668 0.12399 0.736767 0.66468
18.2573 21.7254 7.79424 -0.443147 -0.483246 0.755046
18.4345 17.9625 9.29422 0.325286 0.923021 -0.205479
19.6567 12.3462 16.1409 -0.585129 0.400961 -0.704879
20.9249 21.6191 15.5974 -0.201603 -0.752598 0.626859
22.6083 14.0788 12.39 -0.75702 -0.365286 -0.541744
17.3524 21.7529 16.8052 0.808131 -0.310399 -0.500576
11.9439 8.57656 8.30645 -0.896332 -0.335623 -0.289734
21.6882 13.6141 13.0387 0.463741 0.549526 0.694957
17.554 12.7204 8.98221 0.24549 -0.887928 -0.388998
20.1207 10.8099 10.0035 0.428015 0.689891 -0.583826
10.6868 17.6998 9.52735 0.0325385 0.176574 -0.983749
19.0702 12.331 11.0816 -0.00694764 -0.581911 -0.813223
9.84929 8.00659 10.5932 -0.210404 0.938946 -0.272231
13.8367 15.2259 19.4239 0.771005 0.636675 0.0140235
12.8345 18.2554 19.5382 0.878312 -0.378818 0.291659
22.7268 14.4155 8.64141 0.365381 0.912336 -0.184768
12.7406 11.6053 14.4433 0.373671 -0.795673 -0.476734
16.7672 14.254 20.3186 -0.871138 0.451559 -0.192907
22.221 8.29746 10.8379 0.000437961 -0.863154 0.50494
9.67035 14.6152 6.64802 -0.986839 -0.148556 0.0638809
8.50836 18.5793 20.2175 -0.132801 0.147133 0.980161
15.2906 10.764 10.2881 -0.797897 0.0342036 0.601823
17.9015 8.83871 7.763 -0.00368495 -0.88725 -0.461275
11.6251 20.2766 12.9601 0.616365 -0.691223 -0.377233
18.0865 12.3708 7.28476 0.104074 0.796463 -0.595664
22.365 19.4287 19.3553 0.115046 0.704904 0.69991
18.0371 17.6262 8.17161 0.881392 0.46417 -0.0877115
19.8917 14.6729 8.6923 -0.671251 0.611415 0.41904
12.8808 18.6007 16.3646 -0.891255 0.0998908 -0.442364
21.3321 11.8324 20.5754 0.839187 0.532407 0.110942
19.9162 10.8875 8.62275 -0.310986 -0.931569 0.188327
16.2913 14.3569 12.9442 -0.925959 0.377401 0.0129387
11.6225 16.0114 17.606 0.632435 0.306622 0.711343
14.5132 19.3397 9.05354 0.83668 -0.0375178 0.546406
22.9479 9.14505 15.6262 -0.646143 -0.351694 0.677356
10.1553 8.57073 12.0775 -0.5478 -0.463704 0.696343
18.849 11.4744 8.95966 -0.786447 -0.617112 -0.0259561
8.80934 17.5192 8.96807 0.058356 -0.309485 -0.949112
10.402 13.8846 15.0315 -0.715894 -0.267086 0.645106
21.5403 12.6395 13.5179 -0.972125 0.0948747 -0.214408
14.1851 16.1438 7.78259 -0.136283 -0.986658 0.0890713
20.6253 7.99877 8.51313 -0.246584 0.719869 -0.648834
9.71675 17.4132 17.004 -0.578296 -0.585719 0.567897
11.3665 21.5523 8.98784 -0.931746 0.0746131 -0.355362
17.5737 7.51651 11.4335 -0.655463 0.215669 0.723779
12.5849 12.4423 18.2516 -0.649981 0.695769 -0.305663
19.5484 11.5169 20.5692 0.451566 0.880415 -0.144769
16.3661 9.87196 13.786 0.179351 -0.636766 -0.749908
22.2504 19.8984 16.7553 0.934457 0.156973 -0.319608
17.2217 20.9526 20.4977 -0.0614515 -0.502146 0.862597
11.9884 19.4275 7.8475 0.905726 -0.402543 -0.132742
9.03745 21.7624 9.98443 0.682349 -0.672594 0.286385
21.0945 16.0524 6.50415 -0.465829 -0.244043 0.850557
16.2082 11.1992 16.8387 -0.65004 0.552897 -0.521299
17.0751 16.4644 20.5271 0.938361 -0.101897 -0.330298
18.934 12.1642 18.3931 -0.291041 0.264345 -0.919465
22.4332 19.7478 17.9205 0.283197 -0.957539 -0.0540184
15.1247 15.1287 15.43 0.667399 -0.219204 0.711708
21.3288 11.6686 12.3031 -0.550781 0.825237 0.125
11.9372 12.3269 10.8356 -0.37757 0.169045 0.91042
10.2629 14.4159 9.31694 -0.859678 0.359137 0.363282
21.0082 7.77858 6.65139 0.602934 0.757315 0.250889
21.3495 10.1064 14.5568 -0.634694 -0.617752 0.464269
19.8814 18.8478 20.2166 0.250287 0.79215 -0.556647
19.2598 10.2905 16.6532 -0.898047 0.405965 -0.169425
22.3495 14.574 15.779 -0.919773 0.131564 -0.369742
13.0338 10.9536 15.4194 -0.235439 -0.957256 0.168017
17.0685 9.83968 20.7273 0.605986 -0.455392 -0.652226
13.9483 20.3108 16.4539 0.434083 -0.127653 -0.891783
22.0283 15.8999 13.8787 0.871506 0.340514 0.352884
10.1949 18.8037 13.9321 -0.0790233 -0.912428 -0.401536
16.6233 8.3883 17.3607 0.33113 -0.484677 0.809593
22.4769 9.24601 18.0218 -0.310541 0.222914 -0.924053
21.5913 12.562 9.41593 -0.990563 -0.0859439 -0.106767
11.7574 8.31557 7.04612 0.796002 0.604359 -0.0336316
11.3997 18.498 10.0491 -0.789865 0.334517 -0.514014
17.168 9.10347 16.1751 0.207455 -0.872562 0.442265
13.8315 8.31079 12.6692 0.367795 0.858029 0.358487
15.386 20.1351 12.9539 0.906543 0.414445 0.0800966
12.0724 17.4233 9.8016 -0.521335 0.228808 -0.822105
16.0479 7.82157 16.086 -0.345862 0.919643 -0.186109
17.5339 10.5704 9.6985 -0.70757 -0.552913 -0.440036
16.9507 13.3397 17.7613 -0.423508 0.00863239 -0.905851
20.2306 19.3802 6.67548 -0.75468 0.188598 -0.628402
21.253 8.34294 16.0094 -0.212973 -0.775426 0.594439
11.1013 11.7683 16.723 -0.546022 -0.501398 0.671163
11.9058 8.0574 15.2784 0.292011 -0.680847 -0.671697
11.2099 11.0802 11.8365 0.178131 -0.735007 0.654243
15.4486 9.51381 8.97729 0.577548 0.298811 0.759704
22.3506 18.6482 11.9466 -0.512977 -0.714422 -0.475874
12.1454 16.3337 9.58429 0.0470717 -0.167772 0.984701
12.9102 9.55809 11.991 -0.660769 -0.434575 0.611988
18.0577 20.1308 8.5728 -0.00259939 0.30835 0.951269
8.8632 19.4711 19.1488 0.0289864 0.457268 0.888857
9.05403 13.8894 10.218 0.624273 -0.308022 -0.717917
21.4686 20.538 10.3258 -0.0414876 -0.861844 0.505475
11.4729 20.8367 15.482 -0.058421 0.906535 0.418068
13.6633 14.2976 17.5405 -0.842732 0.457068 0.284415
13.9924 13.3539 15.6884 -0.139197 0.499611 -0.854993
8.4737 10.0189 16.3575 0.107467 0.322718 -0.940374
18.2303 8.23389 11.9474 0.201203 0.0326648 -0.979005
20.4704 14.6468 13.3293 0.783283 -0.198801 0.589021
18.6282 14.2624 17.3115 -0.768834 -0.215607 0.602003
12.8318 20.6177 15.5151 -0.477697 -0.4927 -0.72736
18.0367 19.9191 12.4595 -0.496491 -0.862412 -0.0987019
11.3192 10.9902 7.32251 -0.0511849 -0.961204 -0.271047
12.3635 19.1206 9.67244 0.71705 -0.231373 0.657499
18.6584 14.3473 12.9385 0.607707 0.482645 0.630671
15.4204 7.48089 6.85364 -0.874813 0.301768 0.378997
17.9978 17.0591 7.1865 0.804677 0.588478 0.0786711
9.98499 18.684 15.4343 0.792771 0.608337 -0.0379465
9.78534 12.0074 6.90223 0.72565 0.562467 0.396312
21.6422 10.2612 7.93605 -0.379339 -0.899023 0.21877
18.7068 21.4571 11.9421 -0.790073 -0.371175 -0.487866
22.9748 8.53107 8.77442 0.523327 -0.802718 0.285959
21.0645 17.6625 12.5325 -0.75786 -0.613953 -0.220704
14.4637 19.7073 20.2818 -0.184522 -0.329831 0.925831
10.9571 10.0615 14.1684 0.615387 0.02765 -0.78774
12.4362 13.7671 18.7552 -0.440772 -0.858078 0.26348
8.95185 16.4731 20.3755 0.980636 0.183387 0.0687243
15.7637 20.1797 19.5025 -0.343991 -0.549242 0.76158
8.47678 13.7228 17.9697 -0.647633 -0.703256 -0.293263
11.4223 16.5409 20.4417 0.0781621 0.822528 -0.563329
20.5535 18.401 17.041 -0.521737 0.819524 -0.237003
21.267 10.0437 9.81298 0.0146447 0.932738 -0.360256
12.1142 18.819 6.85835 -0.936395 0.303226 -0.176685
11.8172 17.3722 11.276 -0.426134 0.897822 -0.111021
9.07 14.9244 15.2841 0.434997 -0.533926 0.725053
20.7668 17.5477 13.9302 -0.959528 0.089013 -0.267176
15.8945 18.2993 9.39064 -0.396871 -0.780405 -0.483178
15.6423 7.55755 7.93241 -0.996691 0.0196061 0.0788817
18.2119 20.2068 20.1181 -0.379893 0.688117 -0.618204
20.7508 17.1625 7.50767 -0.689728 -0.633486 0.350671
15.813 12.879 7.11452 -0.654352 0.754069 -0.0566064
11.7373 19.8267 10.25 -0.735437 -0.271989 -0.620609
11.7853 9.78906 17.3606 -0.639512 0.0473353 0.767322
22.3508 11.2163 20.1585 -0.93487 -0.322931 0.14742
14.442 19.2154 15.1383 0.69199 0.10904 0.713624
21.0614 20.4248 17.5697 0.452366 -0.656462 0.603674
12.6313 9.70132 20.4393 -0.414289 0.597783 -0.686309
18.9608 9.29018 7.59245 -0.0845857 -0.824801 -0.559061
17.0822 20.1912 9.76655 0.0616336 -0.193254 -0.979211
18.9782 9.41865 12.207 -0.663363 -0.287664 -0.690796
18.4885 16.2223 17.4139 0.413847 0.0351347 0.909668
17.7066 15.7215 18.2785 0.317471 -0.114999 0.941269
20.0645 11.7246 11.787 0.152884 -0.767092 -0.623054
16.8678 20.389 19.5662 0.41806 0.267601 -0.86811
19.1803 18.4811 18.9458 0.834815 -0.415375 0.361312
19.9747 15.6933 18.8384 0.707477 -0.477463 -0.521062
22.5272 21.0963 16.1992 -0.889969 -0.37264 0.262857
10.5701 17.2466 6.33302 -0.245574 -0.526904 0.813674
19.5307 7.67348 8.56227 0.524651 -0.197927 0.827989
18.4142 8.52165 9.16629 0.127518 -0.191456 -0.973182
15.7321 21.3902 20.0386 -0.664761 0.107375 0.7393
10.8603 11.524 6.33521 0.182366 0.862596 0.471879
15.5125 14.169 8.65718 0.0540913 -0.900805 0.430842
15.8819 12.3379 13.5458 0.699326 0.593047 0.399046
8.58778 9.06044 10.1314 -0.328963 0.924431 -0.1929
17.2263 9.48247 7.11557 0.28338 0.866982 0.409924
22.1969 9.67335 13.9054 0.126254 0.587835 -0.799068
14.2475 16.3847 17.8362 -0.785932 0.330185 -0.52277
19.7049 18.2901 17.7115 -0.528427 0.379363 -0.759506
14.2908 19.9449 17.8031 -0.148211 -0.685517 -0.712811
8.79751 15.8742 13.6276 0.733954 0.268361 0.623934
17.0822 7.84835 15.5092 -0.179059 0.951122 -0.251604
22.0482 8.17955 8.00265 0.75387 -0.597343 0.273608
11.1788 7.49732 19.505 -0.662592 -0.553692 0.504378
22.2519 21.55 19.8812 -0.58045 0.79994 0.152227
15.7311 8.58023 7.34917 -0.919873 0.390684 -0.0346351
22.045 16.8248 18.1124 0.697571 -0.652364 -0.296336
20.3309 16.3361 9.44717 -0.561116 -0.515817 -0.647365
13.434 19.8919 9.31406 -0.161607 0.509239 -0.845316
15.7762 17.992 8.00134 0.647847 0.455449 0.610624
19.9381 18.2224 9.09533 -0.745565 -0.640161 -0.185277
11.288 14.8934 9.83066 0.375837 -0.905596 -0.196578
19.0495 8.37329 14.7166 0.104305 0.402666 -0.909385
17.0577 14.7033 14.7728 0.996159 0.0248819 -0.0839575
19.8453 16.0447 17.704 -0.359096 0.763553 0.53669
15.8119 19.2728 15.0061 0.713783 -0.0533521 0.698332
14.0746 16.3211 14.3816 0.961945 -0.258838 -0.0875493
14.8081 21.2654 14.0733 -0.320785 0.220218 0.921195
13.6935 9.55081 18.2295 -0.0809854 -0.840553 0.535641
14.9319 18.2355 14.6361 0.0170633 0.0715794 0.997289
12.6751 11.1513 7.83416 -0.81138 0.475673 0.339704
15.9278 9.16805 20.7221 -0.0863968 -0.457516 -0.884994
11.5066 14.9626 7.24904 0.915973 -0.291523 -0.275695
21.7845 20.6955 20.5498 -0.690734 0.347166 -0.63432
18.279 13.1136 9.99503 -0.0250826 -0.998308 -0.0524638
20.7593 17.4412 9.13322 -0.722767 -0.486221 -0.491118
20.345 12.1604 10.2768 0.839196 -0.144187 0.524367
15.9513 8.21247 13.8454 0.524692 0.747299 0.407729
21.7726 11.6251 13.43 -0.778475 0.0229971 0.627254
21.6309 14.7459 9.13821 -0.0377539 0.347592 -0.936886
9.26768 12.5647 19.6386 -0.880739 -0.422472 -0.214047
19.7575 16.5111 15.1887 -0.376237 0.865751 -0.330031
16.2977 19.032 12.0227 -0.816521 0.188877 0.545545
16.1508 17.0875 13.0953 -0.834466 0.132956 -0.534779
10.1529 12.0034 20.3537 0.691009 0.710591 0.132537
20.9991 18.6331 20.485 0.00437671 -0.236053 0.97173
14.1836 11.3341 18.2043 0.823592 0.0456664 0.565341
13.1505 15.6002 17.5973 0.58964 0.115323 0.79939
15.0981 15.4822 12.2118 -0.883644 0.222762 0.411764
17.9658 18.4449 16.764 -0.524937 0.668419 -0.526932
16.3971 15.973 19.6642 0.944718 0.207616 -0.253777
22.5688 16.8416 6.50814 -0.603404 0.086774 -0.792701
10.6269 8.27929 18.8151 -0.552308 -0.806005 0.212865
22.1208 11.9938 10.4593 -0.566799 -0.300846 -0.766962
20.8219 12.716 15.6327 -0.643884 0.299546 -0.70405
15.4832 8.66051 17.2778 -0.224899 0.562325 -0.795745
22.2059 17.993 20.6219 -0.0139432 0.119964 -0.99268
13.2548 8.50688 9.84547 -0.168358 0.464484 0.869431
10.4156 12.1216 10.3612 0.284304 0.0274198 -0.958342
9.72166 21.6764 15.1814 -0.160176 0.923728 0.34795
14.7264 9.72562 11.2189 -0.378793 -0.0251526 0.92514
17.9547 19.9269 17.7128 -0.548047 0.826993 -0.125408
11.5691 21.9661 7.95282 0.983511 0.123181 0.132414
11.0849 9.01158 15.0035 0.478615 0.0158988 -0.877881
13.103 18.4925 12.7706 -0.0246873 -0.194291 -0.980633
13.927 11.4479 14.1069 -0.266837 0.777744 0.569133
17.2843 10.7573 14.0612 -0.107306 0.855789 0.506074
13.9132 15.804 11.6171 0.193191 0.937587 0.289151
14.9464 20.3755 9.67168 0.951975 -0.241333 0.188419
8.68753 19.5592 6.87344 0.214686 -0.597486 0.772606
10.7546 11.0674 14.5456 -0.283321 -0.301377 0.91044
15.7932 11.5476 10.9732 -0.707238 0.301061 0.639669
20.5826 13.7618 9.52821 -0.981367 0.19178 0.0117563
14.1666 21.5301 19.2374 0.208444 -0.291439 0.933603
9.05357 21.7106 7.81781 0.537937 -0.338407 0.772078
19.2662 20.7653 9.73206 0.18798 0.957627 0.218206
12.7784 12.9678 11.4597 0.713374 -0.0661131 -0.697658
21.997 9.90258 10.7242 -0.181004 -0.649558 0.738453
13.1248 17.4159 12.8183 0.91483 0.10167 -0.390832
14.8126 15.4388 13.5679 0.557672 0.576463 -0.597237
22.0022 14.3036 7.75532 -0.598194 -0.489974 0.634105
20.4423 19.1972 8.11059 -0.631856 -0.620656 -0.464267
11.7751 8.95771 11.4103 -0.517132 0.330689 0.789443
22.6955 9.54146 7.59546 0.0412735 -0.995868 -0.0808971
10.239 19.2514 10.2891 -0.1602 0.919282 -0.359521
22.729 21.7415 18.2803 -0.300672 0.920738 0.248673
11.1749 13.9051 15.8954 0.0562459 0.763725 0.643087
10.0216 18.8963 6.64706 -0.360152 0.454305 0.814799
12.0408 7.95911 13.5201 -0.555405 0.17989 0.811889
17.8411 18.5741 15.1527 0.600925 -0.0346484 0.798554
22.7487 8.9272 11.8108 -0.167293 -0.634963 0.754212
20.2314 15.3525 19.9317 -0.7683 -0.596624 0.231852
16.2955 19.201 19.2994 0.870011 0.379318 -0.314959
17.7689 11.0431 11.9078 0.537608 -0.797104 -0.27496
12.5383 20.8901 14.0951 -0.318212 0.483244 0.815608
16.6706 17.1326 11.8599 0.559309 -0.120922 0.820092
15.6024 18.078 11.9525 -0.822318 -0.0748642 0.564082
21.8342 9.44995 12.6307 -0.320321 0.786636 -0.527824
17.3353 16.9277 15.1168 0.0744478 0.784883 -0.615156
10.7051 7.39536 17.2494 0.175814 0.90598 0.385084
19.8179 11.0784 15.9923 -0.778733 0.568731 -0.264803
21.3587 17.7175 19.3007 0.22683 0.819501 -0.526276
8.51106 17.4923 20.3218 0.0541264 -0.162665 -0.985196
12.8776 14.857 12.253 0.311441 -0.855686 -0.413287
8.49402 7.47607 20.1508 0.18109 -0.390713 -0.902524
16.1043 7.61294 9.30461 -0.772638 0.280281 -0.569625
19.1011 11.2802 11.8615 -0.183349 0.922074 0.340825
12.6477 13.7599 19.9427 0.158601 -0.945238 -0.285256
11.777 16.3519 13.5576 -0.175949 0.841721 0.510438
9.91333 15.4398 15.7072 -0.458253 0.577321 -0.6758
15.5515 9.6605 14.7249 -0.639131 0.418608 -0.645196
21.8766 17.0873 7.85415 -0.20141 0.662662 0.721328
18.9255 11.1339 7.87729 -0.769619 -0.614351 0.173954
10.0706 9.5268 13.3726 -0.270692 -0.896942 0.349603
8.88905 11.9483 13.466 0.0825876 0.842413 0.532465
17.6352 19.9419 14.7854 -0.353575 -0.697987 0.622735
21.5378 21.1866 8.89221 0.0361469 -0.873988 0.484601
13.682 13.7682 18.8399 0.214765 0.939687 -0.266204
18.7284 17.5834 15.5446 0.52054 -0.0652775 0.851339
9.21387 16.6993 11.467 -0.500082 -0.473372 0.725146
13.3152 17.6049 7.18315 0.921247 0.11708 -0.370939
20.3218 13.8102 14.1438 0.628574 -0.1413 0.764807
12.4639 10.698 18.7644 0.961669 0.19713 0.190613
21.8382 18.9435 9.6099 -0.00562346 0.0321507 0.999467
20.7372 18.903 11.7262 -0.364021 -0.90279 0.229038
17.4239 18.566 9.24984 -0.676679 -0.705896 -0.209323
13.3316 14.8355 20.676 0.106436 0.949479 -0.295232
22.9412 19.092 8.35606 0.739686 -0.425296 0.521524
15.7228 18.2131 17.4175 -0.718697 0.490407 -0.492926
10.175 10.9556 9.76124 0.231575 -0.845801 0.480619
10.2165 13.3384 10.5188 0.493082 -0.075124 -0.866733
17.1738 12.5073 16.5864 -0.407746 -0.118918 -0.905318
21.6631 16.5998 9.00961 -0.0337649 0.451135 0.891817
11.6402 15.9583 14.6469 -0.422928 -0.8739 -0.239647
23.0523 12.8859 10.6654 0.0937802 -0.649739 -0.75435
22.1427 7.55376 16.0762 0.549746 0.63775 -0.539495
14.1653 10.203 19.3414 0.440085 0.144754 -0.886212
19.7234 16.7328 10.4238 -0.483406 -0.704872 -0.519109
16.5289 21.1849 10.1524 -0.281228 -0.231636 -0.931266
12.9671 9.95219 13.0857 0.879657 0.338475 -0.334124
10.7562 10.4187 16.9299 -0.330413 -0.271702 0.903883
10.2706 15.7817 8.90175 0.0604829 0.395376 -0.916526
9.73094 11.2341 10.8188 -0.560255 0.440319 -0.701593
12.5476 19.6416 19.0413 0.820658 -0.449251 0.35312
20.6931 17.4319 20.6785 -0.750038 0.267479 -0.604895
21.0864 10.4886 10.8198 -0.0225524 0.799488 -0.600259
16.5341 20.3279 17.5987 0.315578 -0.778219 0.542942
17.9896 9.56321 18.839 -0.434948 0.443764 0.783514
11.2383 20.5905 11.7209 0.902599 -0.419124 0.0982343
21.9475 16.6347 10.7509 0.711246 -0.492962 -0.501116
18.8619 10.1194 9.22706 -0.221944 -0.772658 -0.594761
19.7673 14.3157 7.57818 0.473382 0.705839 -0.526973
9.31119 20.7187 16.0541 0.388524 0.398159 0.830975
14.8081 10.6261 16.4036 0.12394 0.924869 -0.359523
22.3716 12.5411 19.8079 0.741905 0.652219 0.155523
12.1271 15.7424 19.7924 0.572347 0.786627 -0.231595
11.4776 21.7656 13.7733 -0.879733 0.261486 0.397108
9.19283 20.7351 12.8877 0.17486 0.984365 -0.0211834
18.8184 20.1802 16.6645 -0.536031 0.771844 0.341947
18.0825 11.5743 18.6805 -0.486269 0.871006 0.0699366
9.52267 17.472 6.2101 -0.255087 -0.252815 0.933282
17.5828 15.3273 20.4686 -0.997487 0.0395613 -0.058779
22.5388 14.5868 18.2288 -0.440927 -0.896986 0.0316126
21.5632 10.7921 17.945 0.283111 -0.540194 0.792489
20.2853 21.8209 13.8942 -0.419544 0.622659 -0.660514
18.5556 19.0722 10.3102 0.646449 0.759586 0.0716417
11.7429 21.623 11.3604 -0.848213 -0.144935 -0.50944
15.372 8.33471 14.7844 -0.728884 0.622109 -0.285846
22.9828 19.4643 14.1666 -0.125394 -0.799786 0.587043
13.4431 9.83352 14.2811 -0.766981 -0.0862867 0.635841
13.9313 17.022 20.3511 0.484001 0.0601243 0.873
10.8513 20.5271 19.9809 -0.324592 0.594493 0.735675
11.279 20.9987 10.0396 0.846245 0.119064 0.51932
20.7262 18.7696 15.4834 -0.549551 0.62171 0.558095
13.3586 15.7822 9.86355 -0.156513 -0.270074 0.950034
12.5707 11.3179 19.832 0.498118 -0.69103 0.52379
18.1791 11.7731 12.9191 0.364664 0.92909 -0.0617451
19.4864 17.7526 11.4728 0.0584835 0.82761 -0.558248
15.7538 10.3838 11.2105 -0.734369 0.21059 0.645255
9.60366 20.1594 18.4002 -0.720804 -0.428972 -0.544449
15.4736 7.73308 19.8522 -0.425085 -0.214288 -0.879422
12.397 16.3449 15.7207 -0.544207 -0.792839 0.274307
10.4517 11.7116 13.0287 -0.565046 -0.348694 0.747753
12.72 15.2312 9.10038 -0.532878 0.119726 0.837679
9.95699 16.0871 12.3914 0.372757 0.593546 -0.713271
19.3396 10.2465 17.9675 -0.967709 -0.238777 -0.0807783
10.0242 12.2909 8.24103 -0.56242 -0.708747 -0.425866
9.31937 17.4443 12.2923 0.0202308 0.849346 -0.527449
14.4062 19.9525 14.0814 0.583459 0.527138 0.61782
9.65345 14.4575 10.9347 0.744336 -0.0397804 -0.66662
22.1861 14.5583 17.2178 -0.126816 -0.991829 0.013894
12.3633 18.4514 17.242 0.852701 -0.365416 0.373326
14.3019 9.81986 9.75368 -0.456295 -0.316633 0.831588
22.3664 10.9349 11.1087 -0.865644 0.34637 0.361507
15.9179 13.0978 12.0877 0.848799 0.526881 -0.0440052
14.3452 12.7264 7.78764 -0.669267 -0.72663 -0.155211
13.6883 15.1238 13.1719 0.245228 -0.388659 -0.888148
17.6017 15.2744 8.36566 0.937003 0.294771 0.187446
20.8744 8.8637 19.5566 -0.956744 -0.253896 0.142052
20.5678 13.1654 10.3719 0.98762 -0.0768053 0.136778
19.2719 15.4629 14.8138 0.0409707 0.579219 -0.814142
22.3938 11.4816 18.7758 0.734213 0.370287 -0.569052
14.6718 15.7721 20.7419 0.358721 0.829144 0.428764
10.7024 9.26106 17.3053 0.486485 0.106867 -0.867128
11.1121 19.2192 12.1762 -0.382461 0.906643 0.178105
12.561 17.2609 18.9297 0.749352 0.534996 -0.390193
20.1929 13.8105 12.4653 -0.885848 -0.390375 0.250759
12.2139 15.5512 7.87999 -0.768123 0.45122 0.454299
16.8064 16.8031 18.1121 0.0352704 -0.248418 -0.968011
8.8578 9.73609 13.534 -0.345056 -0.50051 0.793994
15.9989 14.3346 7.40802 0.980259 -0.187444 0.0629033
17.6034 7.74594 9.05687 -0.0762196 -0.0528829 -0.995688
18.4853 8.15038 18.1969 -0.874323 -0.136352 0.465798
21.1317 16.1233 18.6979 -0.650731 0.581159 0.488674
16.7595 15.7709 14.5759 0.978505 0.114377 -0.171599
12.4523 12.0037 6.84456 -0.737004 0.595921 0.318911
22.5432 18.5224 7.43562 -0.82243 0.446128 -0.352957
14.5155 13.9948 9.51237 0.258324 0.78158 -0.567805
20.9807 11.4401 15.4397 -0.157283 0.348861 0.923882
20.056 9.22202 16.0881 0.290317 0.826523 -0.482261
16.4475 9.7465 19.5167 -0.422804 0.346954 0.837173
14.1514 7.79126 10.6757 -0.0946776 -0.00239903 -0.995505
16.0915 18.1078 18.9389 0.839464 -0.00781858 0.543359
9.19383 9.3375 8.28615 0.177037 0.980522 0.0850528
11.4091 21.4359 12.5973 0.98456 0.174827 -0.00878764
11.7418 9.6114 7.92738 -0.446387 -0.130045 0.88534
8.72188 21.1813 6.21454 -0.93923 0.329381 -0.0967251
10.4228 16.8698 13.7606 0.239279 -0.0771709 -0.967879
20.0949 17.9979 16.0833 -0.786753 0.58031 -0.210379
18.6798 15.7059 10.9124 0.624656 0.733372 0.268273
15.1859 15.7902 10.8373 -0.544447 -0.748382 0.378817
13.4903 21.4601 20.8133 -0.105945 0.814939 -0.569781
9.81215 13.7798 17.89 0.60176 0.632579 0.487574
9.10406 8.51648 11.6022 -0.0334661 0.828516 -0.558964
20.7445 21.6165 7.92171 0.113176 -0.886184 0.449299
11.5825 20.6771 6.53299 -0.287798 0.862544 0.416161
20.666 8.70835 9.56567 -0.27759 -0.760344 0.587214
13.8314 13.3672 8.855 -0.313279 -0.504743 0.80442
19.8252 18.309 12.6878 0.201082 0.971186 -0.127922
23.0693 13.528 19.0299 0.569785 0.686985 0.450995
13.9266 17.0946 9.23087 0.639327 0.181647 -0.747171
18.6031 16.2868 7.73293 -0.805983 -0.565135 -0.176106
8.73714 12.3159 20.8002 0.849232 0.495794 -0.181641
20.753 15.4385 8.84759 0.128397 0.545578 -0.828166
13.8913 16.489 13.0466 -0.904047 -0.11448 0.411818
13.7473 16.0304 6.68686 -0.421525 0.889908 -0.1743
10.8358 18.4911 18.9716 -0.601428 -0.177199 0.779028
12.5715 17.2445 17.4383 0.453676 -0.425649 0.782944
12.4411 9.85939 10.9673 -0.338926 0.221894 0.914271
15.4328 16.3489 8.46362 -0.688334 -0.712763 0.134779
9.45927 13.8232 7.34937 -0.956824 -0.2552 -0.139142
10.928 14.5614 13.3686 -0.952703 0.151059 0.263702
14.0674 18.77 12.0317 0.320021 0.120324 0.939739
22.0275 18.1665 17.5298 -0.599538 0.725447 -0.338054
9.5737 16.6951 15.8795 -0.38304 0.695133 -0.608334
13.5373 11.4106 13.0397 0.826329 -0.350445 -0.440872
12.2078 20.3642 16.3671 0.303806 0.618695 0.724513
18.4172 9.61268 16.9481 0.884597 -0.466322 0.00571087
22.2042 19.3187 6.18808 -0.277583 -0.382713 -0.88118
22.2047 7.38741 6.98129 -0.206826 0.403653 -0.891228
17.0584 18.0451 15.6216 -0.61758 0.418664 -0.665819
16.5947 10.9178 19.9768 0.899738 -0.241107 0.363785
16.568 18.2319 16.6169 -0.656667 0.370993 -0.656622
20.865 9.97487 19.2743 0.808184 0.300376 0.50657
9.885 17.7047 18.2967 0.939279 0.221021 -0.262495
22.7943 13.0084 12.8977 0.431329 0.735735 0.522158
15.4337 21.2918 7.47448 -0.944349 0.0263994 -0.327885
21.1203 16.7249 13.2713 0.934536 0.180571 0.306654
23.0958 9.99919 20.2988 -0.588367 -0.750116 -0.301912
12.4938 13.4024 17.2309 0.388574 -0.682083 -0.619494
16.475 17.4209 6.44262 0.994427 0.0483227 -0.0937009
20.628 9.3587 6.80519 -0.760232 -0.632249 -0.149363
15.1746 21.6798 9.87337 -0.618444 0.21111 -0.756941
15.7097 15.1638 18.8845 0.980908 -0.136712 0.138306
19.4338 19.3523 11.5545 -0.765555 -0.536029 -0.355806
15.1747 21.2286 18.9442 0.177572 0.508815 -0.842363
18.7487 13.6443 15.2663 -0.964339 0.182076 -0.192089
16.589 7.35523 13.9397 0.51339 0.706956 0.486461
10.4049 7.48059 6.20155 -0.895125 -0.281459 0.345736
11.9768 11.1025 17.5641 0.130718 0.552455 0.823229
15.3284 8.57929 11.254 -0.865463 0.201553 -0.45864
15.3222 13.8611 15.3705 0.638198 -0.414977 0.648458
10.1612 21.4493 18.2595 0.873185 0.474453 0.111547
19.4904 13.0588 16.9689 0.357167 -0.721982 0.592599
17.1085 8.63554 19.6563 0.367918 0.174848 -0.913272
14.3494 14.3905 15.8522 0.618333 -0.565321 0.545964
12.1089 20.5073 7.63746 -0.798474 0.495912 0.341337
13.1687 21.865 17.01 -0.56554 0.628618 -0.533858
18.2112 9.87627 15.6729 0.640574 -0.6754 0.365376
18.1105 8.74492 15.3083 -0.00299393 0.738948 -0.673756
8.98802 10.1249 7.06297 0.403967 0.618883 0.673642
9.39132 9.07714 20.6078 0.774246 0.458571 -0.436182
17.0675 14.0601 10.2857 -0.279239 -0.959024 0.0479383
9.32849 12.6541 9.50307 0.143387 -0.199122 0.969428
9.02629 15.0045 7.64609 -0.673032 -0.726656 0.137836
17.7017 7.55012 19.8335 -0.441132 0.140988 0.886298
18.6966 10.9195 15.0605 -0.78017 0.612142 -0.128908
20.4239 8.80125 10.8207 -0.155473 -0.929186 0.335324
9.67257 11.4195 15.0489 -0.18032 -0.549966 0.815489
21.4785 11.5465 7.06516 0.353486 -0.725519 -0.590483
21.3089 7.48742 11.4461 0.182468 -0.633743 0.751715
8.66861 16.9989 13.6196 0.544586 0.351917 0.761302
17.0163 9.99838 12.1388 0.350847 -0.591939 0.725613
14.8044 8.81204 19.8709 -0.228672 0.442282 -0.867234
17.1516 12.909 13.081 -0.818792 -0.442105 -0.366227
19.5013 20.7013 18.0543 0.92727 -0.24343 0.284452
11.1337 14.3185 10.9333 -0.354134 0.73752 0.575024
9.86695 12.5138 15.3565 0.690076 0.351038 -0.632903
12.2208 18.1498 13.8186 -0.282339 0.726939 -0.625975
20.766 20.0294 14.8947 0.304324 -0.157834 -0.939401
15.2505 16.8327 14.8801 -0.834825 0.386257 -0.392267
10.1451 9.90024 11.4696 -0.528677 0.0100739 -0.848763
