23.4872 14.5918 17.1079 -0.711898 0.506101 -0.486892
10.755 11.1816 7.10185 -0.886273 -0.107195 0.450587
13.4195 22.5566 18.3498 0.685042 0.265995 0.678207
13.5727 21.2795 5.55208 -0.142823 -0.265861 -0.953373
13.5572 12.2849 17.6843 0.589296 0.108039 0.800661
14.7357 10.7266 17.6358 -0.341299 -0.706889 0.619535
11.8846 11.7201 16.8129 0.788072 -0.0667167 0.611958
13.8345 23.9001 17.1643 0.743546 -0.0891793 -0.662712
13.8043 12.0449 16.2458 -0.464795 -0.712194 0.526066
15.5169 11.1973 18.3246 0.369665 -0.0560869 -0.927471
16.639 14.0905 16.9599 0.681364 0.693933 0.232808
16.8386 22.797 5.92056 -0.28446 0.345341 -0.894328
17.538 12.4277 4.90959 0.926963 0.190955 0.322917
19.979 21.2158 7.56807 0.437594 -0.579007 -0.687941
17.0479 13.2571 17.8494 0.582783 0.294896 0.757232
18.6313 21.9999 6.89755 0.672019 -0.736717 -0.0750888
17.2312 11.6095 5.49149 0.752271 -0.547637 -0.366309
21.8627 10.8059 5.92596 -0.580785 0.748675 0.319648
21.7112 23.3298 17.662 0.408445 -0.905984 0.111196
19.3553 22.6682 6.56056 -0.228226 -0.556631 -0.798796
18.8581 12.6275 7.08278 0.666671 -0.277791 -0.691652
19.1922 10.6687 17.5581 -0.803931 0.477365 0.354708
12.011 23.8462 16.7853 -0.688552 -0.553663 -0.468352
21.4573 11.4697 16.8683 -0.091509 -0.432246 -0.8971
21.2255 13.9641 16.7768 0.265703 0.00422819 -0.964046
11.1806 10.9668 5.87836 -0.906841 0.353592 -0.229373
22.9995 11.9592 17.2853 0.723425 -0.083664 -0.685315
12.1441 22.5736 16.8675 -0.41965 -0.729806 -0.539702
22.6902 16.1161 17.3301 -0.563837 -0.353755 -0.746288
23.5107 12.7024 5.34998 0.152706 -0.314946 -0.936744
11.4276 12.6458 16.1094 -0.977352 0.155944 -0.143053
12.0101 21.7547 17.8558 0.606617 -0.682241 0.40812
13.2249 12.2428 5.32685 -0.609125 -0.361284 -0.706003
13.9976 12.9817 17.111 0.674732 0.134069 0.725784
13.2504 13.2259 18.1093 0.358492 0.0394009 0.932701
11.3461 13.1864 17.0327 0.931162 -0.364122 -0.0187597
14.5519 14.0314 6.05401 -0.854862 -0.0252795 -0.518239
16.0324 11.5284 16.3065 0.76158 0.607688 -0.225194
14.6019 11.9303 17.6972 0.00480541 -0.44237 0.89682
14.6876 14.3633 15.7267 -0.0445749 0.476386 -0.878106
16.4686 16.2875 15.7616 -0.65104 -0.607471 0.45511
15.7633 13.2739 17.8259 0.447511 -0.586728 0.674896
17.3708 14.3607 5.63856 0.829449 -0.30389 0.468685
15.7897 12.2953 17.199 0.712234 -0.672986 0.199531
18.8612 15.8218 6.48467 -0.206826 -0.955158 -0.211889
21.1091 12.8137 9.47288 0.966201 0.173747 0.19044
19.7857 14.6527 5.93066 0.454002 -0.130477 -0.881396
20.5654 12.6912 5.32328 -0.874308 0.0802278 0.478695
20.964 15.475 8.72277 -0.490727 -0.859379 -0.143718
19.9921 11.4691 17.5082 0.2057 -0.629744 -0.749073
21.5783 14.8068 17.4335 0.0191267 -0.484849 0.874389
22.0841 14.6272 15.898 0.155572 -0.198127 0.967751
20.6918 12.9652 8.45491 0.993819 0.0688958 0.0870474
20.8888 13.2663 7.45203 0.977195 0.209403 -0.0352281
22.4339 13.9419 5.09875 0.141131 0.460097 -0.87658
22.1996 15.6282 15.6327 -0.933687 0.155113 -0.322751
10.6273 16.5004 17.7534 -0.0279371 -0.662264 0.748749
11.4227 12.4903 6.45411 -0.716253 0.591699 -0.369966
11.9025 13.7483 16.4033 0.715821 -0.563104 -0.412933
15.5296 13.5384 15.9816 -0.849426 -0.461175 0.2565
13.8739 14.7098 18.1172 0.736668 0.633047 0.237847
14.8399 14.9944 16.9471 -0.684129 0.447189 0.576185
12.5431 14.1723 17.0203 -0.384437 -0.069572 0.920526
22.8968 14.1941 7.91818 0.218264 -0.604955 -0.765761
14.7478 15.3497 5.71661 0.854536 0.504204 0.124691
16.8026 15.2265 15.6819 0.496874 0.677382 -0.542467
15.5464 16.7295 17.6859 0.879784 -0.43921 0.181863
18.4372 16.1419 5.59899 -0.324155 -0.937647 -0.125467
15.8423 15.5556 18.2957 -0.753501 -0.521578 -0.40024
16.009 17.2739 15.4067 0.303745 -0.458459 -0.835197
18.0732 15.2847 16.7843 -0.0962188 0.962064 0.255295
16.9105 15.3824 17.9167 0.271088 0.00626079 0.962534
17.6125 13.5555 16.8004 -0.383588 0.564895 -0.730585
19.2076 13.6658 7.07829 -0.00585425 0.240559 -0.970617
18.9258 13.1131 17.5528 0.225738 -0.469772 0.853438
20.7006 12.4646 17.366 -0.13402 -0.76944 -0.624501
20.6659 15.3052 17.7647 -0.259939 0.481129 -0.837226
23.5096 13.0325 7.89062 -0.399342 -0.163092 0.902179
11.0935 17.9632 17.0163 0.836694 -0.547363 -0.0183422
20.793 14.8215 16.3997 -0.36303 -0.21167 0.907417
22.1684 16.3827 5.2618 0.698014 0.655468 -0.288337
22.5007 12.8768 18.3377 -0.653091 0.00210059 0.757277
11.0851 14.7849 17.9973 -0.626906 0.159984 0.762492
21.8054 13.5614 17.8365 -0.475314 -0.162853 0.864613
13.2288 17.2907 17.5878 0.863225 -0.488308 0.12805
13.9669 16.9692 5.06523 0.965983 0.199787 -0.164199
11.3765 16.0766 17.245 -0.521779 -0.817402 -0.244132
12.0143 14.7805 5.00131 0.336786 0.399602 -0.85258
12.894 19.4659 7.6076 0.0316104 -0.62576 -0.779375
13.4723 15.5162 5.0828 -0.646433 -0.658184 0.3859
13.4468 15.125 17.1353 0.363505 -0.645078 -0.672116
12.4141 13.445 5.36685 -0.334209 -0.85137 0.404318
15.887 19.3933 6.89596 -0.46356 -0.0419234 -0.885073
15.6216 20.8562 8.12298 0.0678343 0.583662 0.809159
16.1278 17.0435 16.9548 0.349558 -0.909405 -0.225369
17.6324 16.3612 18.2115 -0.206398 0.85396 0.477653
17.7901 17.7395 18.0269 0.387034 -0.759388 -0.523005
18.4557 17.0281 16.3645 0.202274 -0.97678 0.0706149
16.163 18.7183 16.3371 0.619065 0.39555 0.678453
16.7583 17.8021 16.143 -0.169643 0.256805 0.951458
19.335 17.347 17.2923 -0.504538 -0.85724 -0.102862
22.436 17.7018 5.74598 -0.799475 -0.503262 -0.327974
19.0211 15.0365 16.0239 -0.143128 0.804882 -0.575916
18.9249 14.1753 17.6708 0.967535 0.0437498 0.24892
19.6209 16.0997 17.1005 0.147903 -0.0454578 0.987957
21.7582 17.1118 6.88171 0.77095 0.609681 -0.184189
22.0852 22.0169 16.6043 0.583024 -0.0763011 -0.808864
22.6399 19.7388 16.8208 0.802914 -0.466904 0.370581
22.5893 18.8617 16.2436 -0.0456615 -0.808805 0.586302
23.0247 14.829 5.79709 -0.0912873 0.141315 0.985747
23.6912 17.1722 16.1564 0.349225 -0.791666 -0.501305
12.6262 18.9316 5.34259 -0.846681 0.532097 0.00169552
12.3095 20.6276 5.71185 0.416985 0.851687 -0.317416
12.2903 17.5343 4.94069 -0.791507 -0.132883 -0.596539
13.8361 19.2207 18.366 0.881098 -0.454609 -0.13037
12.4531 16.1673 16.8786 -0.386682 -0.35298 -0.851987
11.134 22.7984 18.2436 0.13598 0.707501 -0.693507
15.7158 19.1629 17.8948 -0.329185 0.940419 0.0851489
14.9545 20.1293 15.1665 -0.59433 -0.803078 0.0428699
12.3175 15.5266 5.78551 0.3755 0.623712 -0.685553
15.1762 23.6319 5.41959 0.63518 0.266857 -0.724799
17.5308 19.6282 8.38417 0.480946 0.288552 0.827906
16.961 17.027 17.621 0.254228 -0.88764 -0.384009
16.1794 20.8512 16.5663 0.0734364 -0.251214 0.965142
14.905 21.2542 17.516 -0.287442 0.00472886 -0.957786
17.558 18.136 16.8249 -0.0651465 0.990201 -0.123522
17.7457 22.752 5.27367 0.0166162 -0.441492 0.897111
17.6032 22.2094 17.5594 -0.0673037 -0.767038 0.638062
17.7575 19.3354 18.3179 0.214439 -0.633681 -0.74328
11.0195 18.3233 5.97454 -0.777899 -0.620237 -0.100892
20.3075 18.0445 18.3108 0.517958 -0.797337 0.309795
20.5049 20.2876 16.1214 0.477519 0.700667 -0.530133
20.2597 20.7312 18.0524 0.243967 -0.609219 -0.754541
22.0695 18.4351 17.5363 -0.190435 0.749982 -0.633452
20.4858 21.0948 16.8181 -0.880056 0.446612 -0.161366
18.452 20.6569 17.975 0.0831435 -0.964098 0.252196
21.5094 21.9053 5.37121 -0.270859 0.630347 -0.727529
11.5665 16.4077 4.88367 0.713698 -0.525173 -0.463496
12.7674 21.5146 16.9345 0.490671 0.116031 0.863585
23.1204 21.3372 6.55534 -0.59849 0.399718 -0.694288
23.331 23.2364 6.95 -0.847491 0.336512 -0.410511
11.5571 21.9188 7.15879 0.589961 -0.710111 0.384302
23.7818 23.3987 17.7976 -0.0546933 0.720784 0.690999
12.2824 20.4176 17.7508 0.67212 0.0656224 -0.737529
10.9725 10.8425 17.6316 0.221555 -0.401211 0.888788
13.7594 21.0143 16.8566 0.383328 -0.445197 0.809233
12.1235 22.8195 4.9283 0.0446491 -0.836537 0.546088
12.3219 19.715 15.6068 0.769299 -0.213365 -0.602208
14.6164 20.1183 8.42498 0.162456 0.986676 -0.00886842
14.6098 20.9319 5.9039 -0.237778 0.0192333 -0.971129
16.9349 21.4807 17.0071 0.457164 -0.78973 0.409057
16.8166 20.4793 5.68065 0.451849 0.850421 -0.269476
15.5611 23.0455 17.9074 -0.407945 0.519885 -0.750534
19.0342 18.7853 6.85328 -0.471935 -0.333037 0.816311
20.6714 16.4051 18.135 0.686976 -0.714493 0.132529
18.3667 18.7681 15.4546 -0.304707 0.555071 0.773984
16.5001 21.2581 18.0835 0.749651 -0.657158 0.0785321
20.7237 19.0048 16.9381 -0.382499 0.288887 0.877633
18.6441 23.3904 7.58118 0.489533 -0.164339 0.856359
21.6521 21.1959 16.1527 0.684747 -0.633026 -0.361108
18.475 23.5447 17.1055 0.0259499 0.864725 -0.501575
10.675 21.3893 18.3578 -0.756938 0.355123 0.548573
19.4617 20.3039 17.4917 -0.204134 0.973108 0.106728
12.1219 19.7401 16.9398 -0.856982 0.455315 0.241391
19.7323 22.246 5.13773 0.668131 0.0153898 0.743884
22.9121 20.4705 18.0996 -0.738311 -0.150992 -0.657342
22.867 20.7233 16.8784 -0.894543 0.441993 0.0666005
23.7623 11.5005 18.3152 0.999405 0.0215902 0.0269006
11.8296 13.2123 18.1303 -0.571619 0.713157 0.405781
10.9772 21.0885 6.87362 0.340965 -0.479654 0.808502
11.4502 21.2813 16.9654 -0.677089 0.672281 0.299313
23.6311 23.2586 16.4565 0.775368 0.47231 0.419198
13.6911 11.2917 17.9828 0.414284 0.0246353 -0.909814
13.7803 22.4716 6.35112 -0.645504 -0.261478 -0.717603
14.4927 22.7919 17.5534 -0.270815 0.0769087 -0.959554
13.2865 22.5884 16.7997 0.320438 0.481388 0.815834
13.8378 23.6375 8.11071 -0.476181 -0.879139 -0.0191612
17.5376 10.7036 7.33353 0.277344 0.64617 -0.711016
14.1881 22.0586 16.0734 0.585628 0.0260851 0.81016
17.7374 21.3208 6.42513 0.778945 -0.501045 0.377093
15.6008 12.4432 16.1079 -0.826433 -0.546923 0.133731
18.3845 21.6859 15.7087 -0.799399 0.441408 -0.407579
18.2685 20.1613 7.46355 0.668109 -0.38939 -0.634039
18.0631 21.401 7.55029 -0.899668 0.435702 0.0275721
17.4638 21.9113 8.63006 0.540286 0.500597 -0.676383
19.3725 20.4005 5.0209 -0.251482 0.967714 0.0169283
19.0038 20.8575 5.99104 0.447657 -0.891844 -0.0649378
16.9637 10.6302 6.44255 0.499503 -0.861023 0.0955816
21.2078 11.2546 18.3155 -0.59205 0.786643 -0.175127
22.0789 21.434 7.04827 0.394798 0.870971 -0.29248
19.9517 22.7411 8.45802 0.586969 0.236778 0.774211
23.6283 21.5584 16.7008 -0.632405 0.77196 0.0643581
23.3315 22.4759 6.03548 0.994064 -0.0834951 0.0697467
14.0555 21.354 7.87142 -0.0201151 -0.331353 -0.943292
23.1349 23.9637 17.2118 0.50395 0.823945 0.259131
23.5205 22.7759 5.02608 0.265266 -0.705044 -0.657683
11.3571 11.9103 7.67418 -0.191546 0.881657 -0.431267
22.4686 22.7152 7.49012 0.75524 -0.472604 0.454156
11.6601 23.1655 9.39804 0.15583 0.466151 -0.870873
14.1832 21.8823 18.1837 0.238958 -0.00496609 0.971017
14.4823 13.3386 7.07387 -0.467172 -0.869712 -0.159221
12.4261 10.8818 7.5367 0.131217 0.124437 -0.983513
14.0467 23.7342 6.88056 -0.600558 -0.687752 0.407832
13.7634 23.842 5.23733 -0.703724 -0.486648 -0.517636
15.0892 12.6432 7.62875 0.432555 0.896396 -0.0967955
13.9513 11.3155 7.19913 -0.647333 -0.484695 0.588244
16.7019 10.9713 18.1699 0.402368 -0.823183 -0.400586
15.1296 23.5855 8.5945 0.466535 -0.874035 -0.135678
17.5249 22.5129 9.73456 0.644414 -0.566241 -0.513909
16.0402 10.7348 7.4126 -0.461264 -0.842535 0.278154
18.7462 11.7617 4.97881 0.378805 0.198539 -0.90393
19.5445 10.8141 4.96089 -0.88543 0.0249521 0.464102
17.8609 13.3749 6.55366 -0.429972 -0.249929 -0.86756
22.0314 11.5346 11.3518 -0.666684 -0.181258 0.722965
21.1966 14.4446 7.51672 -0.597421 -0.55017 0.583439
20.766 23.2219 4.95538 -0.159728 0.48456 -0.860051
20.9424 12.868 10.5865 0.859398 0.16516 0.483898
18.8602 23.4869 18.1678 -0.889559 0.444643 -0.104778
21.4978 23.4655 16.3585 0.542222 -0.634656 -0.550642
22.176 11.2433 8.00917 0.355316 -0.299752 0.885381
21.2606 11.0508 9.83764 0.658827 -0.126291 0.741619
22.7782 12.0599 7.89221 0.428075 -0.364689 -0.826894
21.7818 13.8345 6.62403 0.659222 0.622529 0.421762
22.1183 11.9367 5.48429 -0.999918 0.0127874 8.84706e-05
11.119 12.471 5.13777 -0.358322 0.620887 -0.697212
12.2135 13.2396 6.9257 0.468496 -0.869786 0.154868
23.9097 15.0043 8.24006 -0.522462 -0.37955 0.763528
12.6673 11.7758 6.07065 -0.653121 -0.126023 -0.746694
12.4864 13.4463 9.3527 -0.0558459 0.256924 -0.964817
16.8335 14.1755 6.4724 -0.810371 -0.0320879 -0.585038
13.3592 13.6338 8.45576 -0.063273 0.578229 -0.813417
15.5149 13.4041 5.82538 0.271572 -0.278718 0.921176
14.3114 13.0544 8.1961 0.130573 -0.928602 0.347346
17.21 12.413 7.57375 0.120806 0.98202 -0.145059
17.9645 15.549 15.7132 0.171008 0.983339 -0.0616564
15.9677 23.7206 16.7594 -0.36216 0.1626 -0.917824
17.3551 16.3104 16.2894 -0.156119 -0.970242 0.185088
19.826 10.7341 9.48014 0.835988 -0.531226 -0.137561
17.942 16.3178 6.7434 0.366088 0.850776 -0.377041
17.0115 12.3064 8.68819 0.17878 0.911995 -0.369192
18.6035 12.9436 8.73252 0.168315 -0.888327 0.427253
16.5731 11.8127 9.83417 0.773188 -0.54212 0.329068
19.4807 13.4642 5.28863 -0.845352 -0.294212 0.445891
22.0002 14.1701 9.14836 -0.399665 0.907059 0.132335
19.6443 12.007 8.50303 -0.849161 0.102239 -0.518144
19.6825 11.3719 6.47511 0.948813 -0.314755 -0.026131
18.3222 14.6676 10.3447 -0.0772301 0.686278 0.723227
18.6395 11.3148 7.363 -0.586884 0.781 -0.213556
11.2115 15.2757 5.87325 -0.183397 -0.244275 0.952205
12.6316 12.2369 10.1388 -0.624269 0.349736 -0.698551
23.5409 14.0385 6.0626 0.806285 0.401354 -0.434534
10.6389 14.1502 6.87746 0.615886 -0.514465 -0.596666
22.5233 16.9659 7.60578 0.264002 0.958838 -0.104562
12.5102 14.6786 8.30101 0.0423504 0.388888 0.920311
11.5423 16.3535 6.28731 0.568131 0.296838 -0.767538
13.3925 13.4828 6.61303 0.519908 0.691571 0.501423
11.5775 16.0869 9.11259 0.423126 -0.74025 0.522488
14.4997 13.0115 9.28197 0.323881 -0.860742 0.392714
15.7392 18.0816 6.10045 -0.626877 -0.730134 -0.2719
15.2978 14.6502 5.34345 -0.832064 -0.45586 -0.316008
15.6715 15.2422 9.4625 0.117394 -0.236678 -0.96447
13.7617 15.8933 6.00082 0.719282 0.622108 -0.309217
17.0924 16.6658 5.92849 -0.49513 0.865645 -0.0741947
15.3743 16.5084 5.23532 -0.51852 -0.470497 -0.713982
14.3493 17.485 9.18407 -0.0847668 -0.0861605 0.992669
16.5718 13.2294 5.85509 0.0851625 -0.416955 0.904929
17.6969 14.6063 18.1046 0.849942 0.490779 0.191663
20.2878 23.1871 16.3254 0.748003 -0.646211 -0.151338
15.9914 14.5925 17.5939 -0.0222578 -0.448174 0.893669
18.6545 14.1831 5.18279 0.359382 0.820913 0.443787
19.6747 15.101 17.4228 0.167604 -0.0147015 -0.985745
16.4708 12.7762 10.9813 -0.374807 0.0420491 -0.926149
19.4501 16.0509 11.6082 -0.542442 -0.38155 -0.748449
19.6656 14.6629 7.79071 0.917565 0.394772 0.047221
21.4772 15.8905 6.5799 0.638285 0.6441 -0.421577
20.3544 13.6035 6.01745 -0.520228 -0.492195 0.697931
20.7637 16.245 5.67099 0.580126 0.723845 0.3735
22.5718 12.8462 7.05213 0.056607 -0.200026 -0.978154
23.6635 13.6536 18.2473 -0.630701 0.13066 -0.764947
23.6563 16.1636 5.76033 0.141113 -0.939985 0.31067
12.0381 18.2306 6.8937 -0.0543206 -0.998335 0.0193866
13.6133 14.9549 8.15997 -0.196416 -0.0781766 0.977399
10.6763 17.1374 6.70588 0.467734 0.880933 0.0719799
11.8053 14.3797 9.42153 -0.00778973 -0.271076 -0.962526
10.9494 18.7902 7.3355 0.271076 0.497057 -0.824289
14.5007 19.3047 9.89069 -0.507384 0.270377 -0.818204
14.1212 17.4349 5.897 -0.505978 -0.686323 0.522444
14.7463 15.662 6.7537 0.202228 0.852077 -0.482771
14.7649 21.359 9.27298 0.462109 0.879588 -0.113048
13.7585 16.1241 9.77374 -0.170152 -0.323274 -0.930882
16.5594 18.1375 7.40019 -0.143362 -0.696386 -0.703203
14.7263 18.2971 6.42352 -0.32461 -0.546243 0.77217
15.7481 17.5826 7.97989 -0.809159 0.496211 0.314701
18.4293 15.1973 7.35757 0.0472483 -0.865196 -0.499204
18.2612 20.2932 17.0665 0.632291 0.743931 -0.216273
15.9978 16.4447 7.0849 -0.268154 0.0810275 0.959963
16.3129 18.7968 5.35141 -0.640956 0.76232 -0.0896861
19.687 16.1507 5.94397 0.536696 0.46327 0.705222
19.4124 17.5342 5.1821 0.0662214 0.972306 0.224135
18.712 15.7831 17.7473 -0.066551 0.841858 0.53558
19.4497 17.645 6.21873 -0.848883 0.35019 0.395936
19.5183 16.8137 7.47924 -0.515306 -0.591684 0.619975
23.1392 18.0053 17.5233 0.192717 -0.95819 -0.211499
22.6531 15.4757 18.2528 0.228426 0.377617 0.897344
20.8236 18.9902 7.36711 -0.410207 0.906301 0.101732
23.7016 17.6692 7.43574 -0.31336 0.693201 -0.649059
10.8753 17.7057 4.95792 0.792826 0.494451 0.356293
11.7596 18.4377 17.916 -0.996905 -0.0325477 -0.0715652
11.4283 19.7219 7.77816 -0.119547 -0.182183 0.97597
10.6663 19.888 11.6668 0.929285 -0.0995565 -0.355692
23.9536 21.8279 7.47599 -0.6677 0.503136 -0.548663
11.9591 17.7316 5.98789 -0.798191 -0.599458 -0.0595011
12.2071 20.4787 10.034 -0.327136 -0.087742 0.940895
16.2004 19.6728 10.3169 -0.611705 -0.790596 0.0278203
12.067 21.0627 8.51696 -0.075966 0.874298 0.479408
15.4693 19.2896 16.7071 -0.692369 -0.456451 -0.558818
13.356 19.3111 6.04567 0.792941 -0.444521 -0.416709
16.2773 19.5625 9.10645 -0.644612 -0.628527 0.435234
16.7479 19.3295 18.0251 0.295794 -0.882802 -0.36492
16.0216 17.5977 5.03771 0.581123 -0.810675 -0.0714321
16.2815 20.3414 11.3814 -0.561759 0.288182 -0.775485
17.3642 18.0193 6.31163 0.441371 -0.728956 -0.523274
17.4871 19.3261 6.54549 -0.430576 -0.0512411 -0.901099
18.8424 18.503 17.7975 0.0132719 -0.979838 0.19935
18.1715 19.135 9.5808 0.174411 -0.334426 -0.926143
21.0739 18.9426 18.3718 -0.116402 0.588169 0.800317
21.3392 19.8301 17.5139 0.157895 0.0654474 0.985285
23.2473 19.3648 5.19314 0.271881 0.454886 -0.848032
10.5788 19.5547 5.71778 -0.152557 -0.70639 0.691187
23.7814 18.4992 5.06579 -0.793087 -0.607574 -0.0432099
21.2058 20.6861 5.53818 -0.0131076 -0.0686942 0.997552
11.3111 19.0407 17.0674 0.784482 -0.61316 -0.0928593
20.2818 18.5181 6.22721 -0.0853402 0.464869 -0.881257
10.6481 18.853 9.15666 0.698507 -0.155703 -0.698459
11.897 21.1099 6.51595 0.286138 -0.820528 0.494832
11.9439 19.4493 17.9147 0.970214 -0.208797 -0.122839
22.0412 23.1057 8.63977 0.0455441 -0.862963 -0.50321
14.3447 17.9273 18.0433 0.978713 -0.0978316 -0.180418
12.8862 21.282 6.87866 -0.25168 0.648877 -0.718064
11.2828 20.8368 5.744 0.275875 0.789218 -0.54866
10.9125 22.4463 8.18488 -0.924662 0.369606 0.091605
14.8349 18.9194 17.3815 0.254598 -0.908157 -0.33231
14.9435 21.8458 7.50399 0.483572 0.120073 0.86703
15.5505 20.4613 5.62748 -0.235194 -0.280554 0.930577
13.3398 21.998 9.79509 0.922244 0.328301 0.204169
17.8807 20.8808 8.8534 -0.790876 -0.342543 0.507128
16.6898 22.4635 17.8924 0.37971 -0.357778 0.853121
15.3301 21.7525 5.9561 -0.119145 0.357347 -0.926341
16.7594 22.5399 8.0995 0.520927 0.467815 -0.713991
18.7683 20.0797 8.69198 -0.219037 -0.730629 -0.646687
16.9539 20.2733 7.1863 0.527354 0.138119 -0.838344
16.8182 22.1093 15.7721 0.0980405 -0.99453 0.0360376
19.1507 22.0779 9.57462 0.0635252 -0.704202 -0.707152
18.2253 21.5299 5.22633 0.205266 0.899789 -0.385028
20.1564 22.0708 7.01765 0.378561 0.410167 0.829732
20.0583 19.8546 6.60565 -0.723353 0.625356 0.29273
21.167 21.4317 10.2572 -0.824714 -0.427309 -0.370479
22.4827 19.1509 7.79088 0.216859 -0.452949 -0.86476
21.3905 22.2594 7.21108 0.154859 0.143974 -0.977389
22.3708 20.5042 5.95193 0.280814 0.150697 0.947857
22.1319 22.8385 10.2711 0.399159 -0.01576 -0.916746
13.4824 20.3055 5.65536 -0.550677 0.15428 0.820337
21.7497 10.6246 6.96249 0.992733 0.117732 0.0248883
12.3689 22.5073 6.7844 -0.512884 0.228826 -0.827399
22.7439 11.2887 6.18033 -0.357096 0.628207 0.691259
13.6049 22.4868 8.95112 0.890082 0.316839 0.32767
11.86 23.6143 6.81737 0.969705 -0.204897 -0.133
24.0312 23.7026 6.18912 -0.589427 0.699978 0.403245
13.824 11.3311 6.09775 -0.572568 -0.666532 0.47739
11.5103 21.6266 12.209 -0.120848 0.535322 0.835958
12.242 23.0225 15.9734 0.855621 0.350882 0.380519
13.9095 20.0736 7.21122 0.204484 0.171887 -0.96366
12.2677 10.9384 4.88816 0.500947 -0.223544 0.83611
16.2021 21.1024 6.12956 -0.074449 -0.665896 0.74232
15.496 10.544 6.42513 -0.505266 -0.635727 0.583573
16.1049 23.16 6.54191 -0.489771 -0.236572 -0.839141
14.6177 12.9715 5.74872 -0.316425 0.460203 -0.829511
18.2263 10.9183 11.8838 0.169319 0.401938 0.899876
16.1635 11.0489 8.31655 -0.959033 0.268033 -0.0917262
21.7391 18.3368 5.34989 0.89348 0.296531 -0.337287
18.1262 22.0952 10.4662 -0.513855 0.673585 0.53126
20.8403 21.4567 6.505 -0.161633 0.105605 -0.981184
18.9422 10.5656 6.45382 0.900415 -0.302071 0.313059
20.275 20.3798 5.62123 -0.307601 0.572166 0.760268
17.9845 11.5925 8.24805 -0.113645 0.982508 0.147525
20.6182 23.0188 6.8608 -0.593185 -0.110313 -0.797473
22.2795 22.6359 5.10292 0.67129 -0.699557 -0.244928
20.9688 23.6236 6.11711 0.908396 -0.402832 0.112001
19.8383 23.0105 11.4924 0.268383 0.620126 0.737167
22.5364 23.6296 7.85666 0.982151 -0.178103 0.060491
20.1229 11.4892 5.56656 -0.782554 0.621819 0.0308086
23.422 11.1435 9.03594 -0.125961 0.469761 0.873761
23.4067 13.3346 12.0766 0.228611 0.246315 0.941842
11.1966 21.9397 9.48479 0.718794 -0.0222547 0.694866
13.0704 11.698 8.13453 -0.783718 0.269759 -0.559479
10.9515 11.4272 9.15487 0.262082 -0.195865 0.94496
12.3552 13.9521 14.6108 -0.00173592 -0.227218 -0.973842
15.6032 23.8984 10.2902 -0.536627 0.835768 -0.116289
17.7572 12.2985 6.28966 0.947567 0.200641 -0.248717
12.6793 23.367 5.7782 0.968425 -0.121921 0.217459
16.1342 14.0078 8.69353 0.478222 -0.335268 0.811726
16.2764 13.1761 8.07086 -0.0947254 -0.279135 0.955568
15.426 12.2084 5.41446 -0.274765 0.374561 -0.885555
15.02 10.9366 7.3841 -0.283017 -0.849798 0.444684
16.0549 12.1966 7.60729 -0.101654 0.229828 -0.967908
18.4641 22.4536 11.9161 0.323171 -0.120523 -0.938634
17.6399 14.7274 7.95991 0.128049 -0.990555 0.0490311
17.8118 23.2823 8.9961 0.0576317 -0.225306 -0.972582
18.5196 12.9722 11.0141 0.441685 -0.859201 0.25824
20.719 11.2306 10.7072 0.521986 0.733198 0.435833
19.5651 12.1457 10.5967 -0.0840236 0.979679 0.182124
18.519 23.9988 9.05501 0.880131 -0.460721 0.114484
19.5087 10.8676 11.244 0.86463 -0.500214 0.0469186
21.5249 12.4274 7.17683 0.182779 -0.0732748 0.98042
19.8913 11.2503 7.49692 -0.283768 0.958745 -0.0168499
22.1776 11.5324 9.62806 0.539389 -0.600432 0.590374
21.9754 12.4791 13.3905 0.340162 -0.225471 0.912936
14.6307 11.4185 13.1291 -0.500862 -0.864982 -0.0307143
19.9655 10.5732 13.5092 0.725935 0.420228 0.54445
23.9384 12.1123 6.72464 -0.0479666 0.0686825 0.996485
23.084 12.0707 11.5111 0.285776 0.341709 -0.895303
23.587 13.3182 15.2082 0.582284 0.787939 0.200241
14.0687 12.2091 12.6093 -0.484757 -0.168025 0.858358
13.4429 12.7073 7.6257 -0.530619 0.814268 -0.235394
15.2638 11.8945 8.9253 -0.111465 -0.881841 0.458183
13.7395 15.0491 10.2811 0.847534 -0.398722 0.350295
12.991 15.5911 7.57096 0.377537 0.691495 0.615874
12.5472 23.2048 7.99672 0.53487 0.570342 -0.623397
14.9423 16.7723 12.5038 -0.501986 -0.861069 -0.0810542
13.9064 13.0292 13.541 -0.955577 0.0493025 0.29059
16.2235 14.4838 7.26717 -0.65387 0.462116 -0.599085
17.4153 13.5277 13.1938 0.174704 0.233932 0.956428
14.1301 15.6106 13.7919 0.0698264 0.755486 -0.651434
16.343 13.6072 12.7903 0.268053 0.301831 0.914902
18.7224 16.8368 9.66803 0.278509 -0.568084 -0.774411
19.4685 13.4295 9.81608 0.979303 0.0864181 -0.183025
16.5688 13.7854 11.1429 -0.321889 -0.161599 -0.932884
20.4892 13.3317 11.4629 0.887065 0.441465 -0.134997
19.8216 15.5222 7.0225 0.59525 -0.0842724 -0.799109
19.3552 10.7845 8.45053 0.648057 -0.71881 -0.251663
20.5746 15.6225 10.0475 -0.784943 0.194766 -0.588159
17.1832 11.4389 12.5961 0.690369 0.108384 0.715293
21.8685 14.6141 8.19957 -0.0445007 0.995258 0.086495
19.9373 13.5905 17.2819 -0.0174332 -0.67071 0.741515
21.4599 16.6246 7.91228 0.266236 0.933596 0.239826
23.3244 14.2869 10.1394 -0.879421 -0.418938 -0.226073
11.1059 12.2558 17.3998 0.722668 -0.329923 0.607373
11.3229 13.2983 8.98086 -0.367397 -0.179885 -0.912503
10.7725 15.5037 9.01368 0.236523 -0.671767 0.701987
10.9828 14.5486 11.1614 0.611378 -0.626999 -0.482793
11.3164 17.001 7.7119 0.132224 0.964163 -0.230015
13.4209 14.21 11.9606 0.373802 0.742387 0.555998
13.3415 15.189 13.229 0.388065 -0.882274 0.266456
13.2729 14.5137 14.7241 -0.495484 0.140354 -0.857203
12.5197 14.0713 10.5762 -0.301306 -0.545103 0.782354
13.0823 14.3533 6.23757 0.894173 0.426699 0.135582
12.7635 17.5087 10.662 -0.793787 0.387738 0.468574
15.1244 15.815 13.4707 -0.254544 -0.944421 0.208028
14.2805 15.9861 8.18158 0.291527 0.241881 0.925476
14.6364 15.8018 11.3387 0.485087 -0.757606 -0.43672
15.6153 16.2881 9.53596 -0.341018 -0.325508 -0.881902
16.8044 12.7654 13.4878 -0.0833745 0.460471 0.883751
17.5073 13.7086 9.00286 -0.539261 0.705449 -0.459934
18.729 15.2555 8.76205 -0.983002 -0.183595 -0.000670111
16.8086 15.9306 7.42361 0.293784 0.800615 -0.522213
20.1364 17.4968 9.38188 -0.429186 -0.856822 0.285753
17.3976 13.8556 10.1737 -0.0870175 -0.745327 0.660995
19.3121 14.0312 8.89348 -0.946711 0.320229 0.0345141
23.4874 15.9178 7.43306 -0.257516 0.748862 0.610649
21.9315 15.6857 9.99138 0.708317 -0.603833 0.365613
20.4125 16.5054 7.82805 0.271634 0.887398 -0.372479
23.6063 15.4112 9.94079 0.817037 0.326806 0.475024
21.0926 17.62 11.2062 -0.719243 -0.35676 -0.596164
12.1557 13.0103 7.95085 -0.79768 0.4406 -0.411799
22.8397 16.4832 6.71886 0.424603 0.872541 -0.241628
23.7343 20.1254 6.70163 -0.366811 0.508039 -0.779324
22.2477 18.5376 15.0563 -0.452175 -0.0104236 0.891868
11.9422 15.7617 11.5962 -0.730013 -0.343479 -0.59085
12.5955 17.1744 7.56035 0.543794 -0.732983 -0.408687
12.2245 14.5529 11.8087 0.81128 0.584111 0.0252617
15.0714 18.6681 8.90741 0.749338 0.287782 -0.596384
12.6357 17.5074 13.3625 -0.114394 0.628434 0.769405
14.6365 19.7394 5.71699 0.150197 0.51728 -0.842533
13.8643 14.026 9.75919 0.810366 -0.119327 0.573645
13.1724 18.3835 10.1438 0.37299 -0.430374 -0.821984
14.2695 17.5316 11.6513 0.631249 0.530509 0.56576
15.5321 17.8685 7.07044 -0.070425 -0.878159 -0.473157
16.5823 17.7654 11.5057 0.412868 0.444662 0.794868
17.3165 17.6032 7.72909 0.56287 0.0189651 -0.826328
17.0211 16.1781 9.98163 -0.771116 -0.331532 0.543568
19.8051 17.3065 8.24432 -0.114194 -0.809897 0.575349
19.4459 17.6631 10.1513 -0.0945687 -0.716061 0.691602
15.982 18.0932 8.97923 0.704928 0.701106 -0.107357
21.4552 18.0429 6.43625 -0.779258 -0.625661 0.0361376
17.6277 18.5669 8.03901 0.201806 -0.0556392 -0.977844
20.4512 18.7159 8.25426 0.314728 -0.937339 -0.14947
17.3819 15.857 11.1677 -0.220327 0.866988 -0.446977
11.191 14.3468 7.74504 0.658338 0.572386 -0.488841
22.0274 19.3745 5.44574 -0.471782 -0.231494 0.850784
21.9213 14.835 5.87593 0.438173 0.882644 0.170129
23.5136 20.3853 10.8744 -0.574284 0.767368 0.285211
23.1364 18.3108 10.7305 -0.801017 -0.509033 0.31505
23.6668 16.8699 10.0868 -0.784835 0.593875 0.177051
12.0389 17.2651 8.63694 0.827738 -0.560823 0.0180873
22.2035 21.2795 18.2245 -0.696283 0.0689016 -0.714453
12.9059 17.3099 9.47567 0.805964 -0.463106 -0.368721
12.6929 18.2904 8.93753 0.317051 -0.489771 -0.812159
11.4807 19.3572 9.96253 0.230439 -0.715772 -0.659218
23.5048 20.7347 8.7738 -0.88201 -0.462479 0.0903966
16.6231 17.4631 9.9329 -0.225512 -0.810009 -0.541321
13.7097 18.502 8.58727 0.181783 -0.532368 -0.826764
12.3476 16.0184 6.79739 -0.652153 -0.356977 0.668777
12.2592 19.0978 8.48623 0.197075 -0.57873 -0.791349
14.9596 19.038 12.3237 0.14732 0.305969 0.940574
17.0491 19.3969 9.77108 -0.576134 -0.817331 -0.00625506
14.7804 19.3113 7.53045 0.0285663 0.997104 -0.0704869
17.3009 20.8928 11.6304 -0.522434 0.114304 -0.844984
17.0436 16.56 8.57859 0.914078 -0.402116 -0.052581
16.7747 19.9652 16.4489 0.285096 0.055519 0.95689
18.3519 18.2207 5.73651 0.0419582 -0.756212 -0.65298
17.5721 17.7054 10.7707 0.0239789 -0.483569 -0.874978
17.9115 17.1749 11.7725 -0.93677 -0.228364 -0.265164
21.6151 16.7882 17.8885 -0.237301 0.924047 0.299708
22.1107 19.7205 6.7348 0.965405 -0.224314 -0.132953
20.387 20.7295 8.31214 0.592775 -0.28615 -0.752819
23.4059 18.8019 8.03705 -0.149503 -0.309546 0.939058
22.297 17.7281 9.38149 -0.818615 0.570893 0.0628575
20.684 20.2825 9.49802 -0.808046 -0.291834 -0.511756
20.0896 19.1717 9.49702 -0.935956 0.243556 -0.254297
22.0549 18.5813 10.4687 -0.590242 0.0163957 0.80706
11.3707 20.8781 9.65281 0.0608722 0.373454 0.925649
22.318 21.1937 8.10546 0.974148 -0.0801559 -0.211212
12.0803 12.2414 13.9312 -0.139973 0.843178 0.519093
23.0941 22.1025 9.83747 0.417748 0.5563 -0.718343
24.0061 24.0046 9.60222 0.597608 -0.017123 -0.801605
12.9679 17.6016 6.7341 0.194823 0.582357 0.789243
23.074 23.6386 9.26243 -0.715033 0.172932 0.677364
14.0274 20.7138 11.7066 0.587913 0.628543 0.509207
12.7514 19.6142 9.91224 0.401414 0.161054 -0.901625
13.7616 18.6494 7.01446 0.0894474 0.461615 0.882559
12.9223 21.2955 10.6115 0.123347 -0.992013 -0.0263697
19.1246 18.3545 8.41036 -0.290664 -0.94946 -0.118493
16.135 21.9929 7.00393 0.0160123 0.268664 -0.963101
16.7062 23.657 8.92906 -0.517714 -0.442966 -0.731951
16.2217 21.9136 9.76994 -0.12961 -0.9702 0.204726
17.3962 19.2011 12.7577 -0.282068 -0.342003 -0.896366
20.1541 23.0297 10.2391 -0.516876 -0.192794 -0.834068
19.5508 19.8114 7.74447 -0.19047 0.882961 0.42907
18.3467 20.2419 11.418 -0.858843 -0.411896 0.304517
17.8583 19.0243 11.4426 -0.436903 -0.265447 -0.859449
20.2833 21.9416 9.10761 -0.240618 0.148428 0.959204
18.5792 19.5575 5.79607 0.446349 -0.597339 -0.666302
20.205 21.7771 11.3603 -0.0938292 -0.681631 -0.725655
21.5611 21.6983 9.12865 -0.836469 -0.538358 0.102422
19.1046 23.3365 5.77913 0.84365 0.318263 -0.432392
21.9959 19.0085 9.2142 0.473747 -0.614821 -0.630523
20.1761 19.5511 13.3299 -0.0455363 -0.942346 -0.331528
21.6189 20.127 8.41886 0.0645636 0.615356 0.785601
13.2442 20.9979 8.36491 0.610393 -0.660728 0.436874
20.7621 11.7214 7.12081 0.474453 -0.65868 0.583982
11.9714 10.7589 11.8616 -0.396976 0.116118 -0.910454
23.5181 20.3429 13.4882 0.42485 0.0589185 -0.903344
12.7254 23.1403 9.28176 -0.300921 -0.633715 0.712638
11.9645 12.127 8.71789 -0.930138 0.226529 -0.289012
10.9963 23.4092 12.4299 -0.660947 -0.561817 -0.497505
15.4871 20.2466 8.9375 -0.0797471 0.603187 0.793603
14.1221 22.3591 7.86848 0.638846 0.223143 0.736263
14.6101 20.4016 10.3683 0.768125 -0.475688 -0.428608
13.6532 23.4867 9.62726 0.264871 0.694438 -0.669029
15.6594 21.7454 10.6561 -0.571983 0.456737 -0.681342
15.2315 22.5973 6.74872 -0.474312 -0.0320489 -0.879773
16.658 21.0442 8.10805 -0.183861 -0.167894 0.968507
17.2339 12.1097 10.739 -0.73885 -0.546745 0.393918
19.1497 21.4507 10.681 -0.547023 0.086879 0.832597
16.8581 24.046 10.5532 -0.691461 0.522725 -0.498638
18.7241 23.4134 11.2914 0.486991 0.286486 0.825086
18.7047 10.5619 10.2267 0.780929 -0.426778 0.456082
19.0789 21.3873 13.0325 -0.510292 -0.590979 -0.624777
19.9249 11.0122 12.2345 -0.837307 -0.0786063 0.541053
21.5162 18.7981 8.21764 -0.484466 0.540637 0.687752
18.7044 22.5802 8.78429 0.103136 -0.559977 -0.822064
20.8197 23.7603 8.43792 0.399664 -0.892524 0.208971
21.0083 11.7443 8.33896 0.61815 -0.561256 0.550347
20.9997 22.4256 10.3174 0.0327511 0.0266494 -0.999108
21.6481 23.9125 13.3324 0.351457 -0.269807 -0.896483
24.0425 22.9053 9.87004 0.351441 0.130425 -0.927081
22.6996 12.4223 9.98666 0.189454 -0.411596 -0.891457
11.3289 23.6059 10.5677 0.124237 0.510819 -0.850664
20.7328 11.9266 9.96396 -0.940928 -0.09024 -0.32636
10.981 12.5197 13.167 -0.834361 0.493196 0.24617
14.2738 13.9908 14.3261 -0.939496 -0.337707 -0.057455
12.1639 11.312 9.99053 -0.16454 -0.0493287 -0.985136
13.1732 12.2554 12.045 0.265173 0.335173 -0.90407
13.2234 11.0982 9.7976 0.243618 0.0705124 0.967305
17.182 21.6674 10.2566 0.681453 -0.590838 -0.431893
14.2234 10.8232 10.013 -0.199534 -0.747045 0.634121
15.2225 10.9131 13.7952 0.0346416 -0.721773 -0.691263
15.1562 11.418 11.524 0.697519 -0.0284694 -0.716001
15.8071 23.8236 9.34837 0.307344 0.935458 -0.174522
14.1423 10.7337 11.372 -0.438891 -0.623205 0.647294
14.4013 13.0219 10.8886 0.274109 -0.831455 -0.483267
18.5918 11.3964 14.7999 -0.0559489 0.0122618 -0.998358
17.2126 14.6187 10.7709 -0.369862 0.60362 -0.70629
20.6832 13.7998 10.4462 0.847925 -0.113673 -0.517785
16.8054 10.8359 13.4636 0.854456 0.103927 0.509022
18.9222 22.5765 13.7608 0.0755718 -0.42118 0.903823
18.5604 11.9573 10.2242 -0.67101 -0.539438 0.508677
21.4046 21.7273 13.0405 0.0887919 0.804793 0.586877
19.3636 12.8418 12.6326 -0.7404 0.122829 -0.660849
20.8952 22.9418 13.0209 -0.0907444 0.669055 0.737652
21.3333 23.6368 10.4773 -0.068068 0.417152 0.906284
22.0383 11.4038 14.0863 -0.638741 -0.0259797 0.768983
22.4897 23.6612 11.0214 -0.56449 0.357235 0.744133
23.9799 11.4234 13.1445 0.719025 0.297221 0.628222
11.086 11.5102 12.2411 -0.535245 0.316381 -0.783208
23.6153 13.3681 10.4026 0.591701 0.231981 0.772059
23.8832 12.4786 9.16746 -0.405647 -0.623133 -0.668698
11.7188 14.9161 16.0456 -0.0880878 -0.373819 -0.923309
13.4619 13.7498 10.6145 -0.122915 -0.864865 -0.486724
14.8175 13.3719 12.3657 0.332483 -0.940579 0.0690383
11.8279 14.5664 13.7174 -0.14549 -0.389345 -0.909529
13.6304 21.9195 11.2614 0.372938 0.7508 -0.545176
13.3842 13.4083 15.4504 0.562711 0.250333 0.787839
15.3786 13.3731 9.7567 0.147268 0.048921 -0.987886
11.034 13.7922 13.7718 0.174696 0.229643 0.957468
16.1731 14.4942 9.86942 -0.712023 -0.293627 0.637814
13.6453 12.5606 14.463 -0.821822 -0.567512 -0.0503858
17.5344 12.2345 9.55814 0.689056 -0.68232 -0.244214
15.9029 15.4829 12.8281 -0.0548283 -0.98166 0.182588
16.7981 14.8888 12.2576 0.180006 -0.470839 0.86366
15.4912 12.3744 10.8661 0.0436015 -0.621459 -0.782233
18.8611 12.431 13.6111 -0.425747 0.878332 0.217425
17.7272 12.0617 14.0903 0.815922 0.327307 0.476594
17.6205 12.1324 11.6747 0.188136 0.967932 0.166472
18.9785 15.5533 9.90051 0.786499 -0.300873 0.539346
19.7015 11.9681 11.8327 0.644478 0.153627 -0.749031
20.0032 13.8721 12.7874 -0.180887 -0.175828 0.967659
22.4373 13.8341 12.0749 -0.765687 -0.569913 -0.2982
22.3616 16.537 8.75702 0.110196 0.941106 -0.319652
20.5378 11.9673 12.4246 -0.561637 -0.464839 0.684462
23.772 13.8348 9.29809 -0.78546 -0.121297 -0.60691
21.6062 13.4255 13.698 -0.70807 -0.582108 -0.399734
23.0164 14.0749 13.3008 -0.758622 -0.583253 -0.290359
10.7735 14.4795 12.6825 -0.297551 -0.508385 -0.808089
23.0362 16.2714 11.8311 -0.946324 0.296397 0.128921
11.3683 15.3409 12.4389 0.978351 -0.151934 0.14052
23.0508 14.3879 15.8897 -0.137502 0.564118 -0.814164
15.028 14.272 9.08958 -0.036652 -0.402398 -0.914731
11.6671 17.6376 14.9399 0.517983 -0.847554 -0.115527
12.6689 16.2696 13.9962 -0.539598 0.840135 -0.0548344
14.5807 15.4467 9.68116 -0.405134 -0.744299 -0.530929
15.0437 13.868 13.48 0.856051 -0.23342 0.461186
14.5817 17.9426 15.6964 -0.462717 0.490659 -0.738341
15.4319 12.6924 15.1035 -0.956979 -0.288552 0.0304708
15.1289 15.2866 12.2449 -0.618817 -0.356269 0.700099
14.7941 14.4051 11.4955 -0.697628 0.708379 0.107308
16.7849 18.7276 15.5018 0.533155 0.66919 0.51762
19.2975 14.407 14.6053 -0.33905 -0.0696129 -0.938189
18.5401 17.2832 7.4784 0.732361 0.640994 -0.229725
15.9408 14.6663 11.4639 -0.234321 -0.413591 0.879793
18.0459 16.1614 14.3297 0.403042 0.571913 0.714474
20.7915 14.3623 9.4929 -0.350399 0.434839 0.82954
21.3305 16.7479 10.6171 -0.776116 -0.21267 -0.593645
21.3436 14.5555 10.6906 0.743329 -0.00825077 -0.668875
18.4832 14.8081 11.7924 0.191316 0.96831 0.16054
22.454 12.6952 12.1641 -0.436597 -0.290507 -0.851463
20.8466 17.0376 8.82042 0.489662 0.870396 -0.0513966
20.5258 14.4227 6.62755 0.477765 0.482993 -0.733798
19.5849 15.1154 11.8336 -0.286575 0.431312 0.855479
10.7425 16.1683 14.5278 0.27579 0.715616 0.641743
23.0056 15.5892 8.38884 -0.447766 -0.397735 -0.80082
23.768 16.7479 11.0966 0.867816 -0.459821 -0.188309
22.2651 17.6407 14.0217 0.881195 -0.299201 -0.366025
12.6022 16.2159 9.41578 -0.291785 0.571321 0.767108
13.7623 16.9669 7.74355 0.280413 -0.489525 -0.825671
12.0587 16.258 12.9418 -0.250239 0.779379 -0.574411
10.7405 21.7034 11.2139 -0.0904379 0.989858 0.109552
13.4693 16.8567 13.5629 0.167304 -0.0167711 -0.985763
14.0272 18.1193 10.7009 0.80848 0.184864 -0.558735
13.3207 16.0685 11.4884 -0.312392 -0.0304813 -0.949464
15.0669 17.8869 13.4013 -0.586442 0.595438 -0.549125
16.7002 15.6884 8.80643 0.816862 -0.164459 0.552893
15.4755 17.5792 10.0399 0.570619 0.774303 0.273585
15.1405 15.1392 7.8665 0.707342 0.434763 -0.557358
15.6202 18.5183 14.0503 0.136387 0.498315 -0.856202
17.9879 16.4797 12.7192 -0.0854076 0.320763 0.943301
16.7894 16.122 12.0976 -0.392552 0.12724 -0.910886
16.8688 15.2347 6.46787 -0.929448 0.365701 0.0488863
19.3057 18.2632 11.6324 -0.363277 -0.0978592 0.926528
19.1787 14.1511 12.2452 0.00492999 -0.643233 -0.765655
18.1729 16.1734 10.5911 -0.454106 -0.731851 -0.508117
23.7724 17.4101 8.80353 -0.681152 0.469205 -0.56203
22.4083 16.5849 16.0788 -0.803789 0.0422644 -0.593412
19.4225 14.4053 10.0703 0.444577 0.373236 -0.814276
21.5859 16.4732 13.3637 -0.792043 -0.567648 0.224598
22.1712 16.7219 9.73774 0.892049 -0.443413 0.0873739
22.521 19.0694 11.3626 -0.635847 -0.316594 0.703894
23.153 15.792 14.101 -0.136523 -0.988862 -0.0592673
22.5266 18.5611 13.05 0.768391 -0.59653 0.231791
21.7122 20.9165 11.0765 0.425458 0.783663 0.452611
11.1484 18.1732 10.5536 0.866806 0.478217 -0.141264
10.9199 16.3668 12.4967 -0.441826 -0.126135 0.888189
10.5763 20.0101 9.28901 0.0714186 0.467197 0.881264
14.8508 16.8966 7.70367 -0.176557 0.0909063 -0.980083
12.3898 20.681 13.6638 0.99481 0.0238202 -0.0989257
13.6818 19.6931 17.3754 0.443941 -0.619039 -0.647848
13.2034 20.0245 12.3226 0.813309 -0.448893 -0.370167
11.7018 18.7846 11.411 0.901951 -0.295414 0.314985
13.7522 18.8461 11.4845 -0.268116 0.537511 -0.799497
17.2873 21.7244 12.5729 -0.966887 0.127771 0.220915
14.5061 19.9696 13.932 -0.867373 0.115987 -0.483953
16.6898 19.2594 11.0738 0.583978 0.808943 -0.067683
16.8412 19.9018 14.0575 -0.831221 -0.234043 -0.504277
19.078 17.4086 13.4542 -0.742326 0.0657163 -0.666808
18.3233 17.9778 9.51733 0.843483 -0.372878 -0.386649
17.3428 17.8436 13.0823 -0.0212816 0.826766 0.562143
18.1009 18.6323 14.1435 -0.0382093 -0.872347 -0.487391
20.5582 17.2227 12.6797 -0.908657 0.407191 0.0924033
18.5338 20.0735 13.0632 -0.804135 -0.103679 -0.585336
18.6165 18.4045 10.645 0.28328 0.279508 -0.917403
22.1694 10.7951 17.0134 -0.00826352 0.323682 0.94613
21.6679 17.5526 15.4906 0.754643 0.0174822 0.655903
22.8549 19.4848 9.40126 -0.427474 -0.0586523 0.902123
20.1905 17.0331 11.6286 -0.913935 0.368886 -0.16925
21.0008 18.516 12.9087 0.150483 0.649887 0.744985
10.8378 17.8988 14.0716 -0.453694 -0.857602 -0.242242
22.4499 20.2198 10.7175 0.0844502 -0.158095 0.983806
23.7854 21.3437 10.0262 0.57713 0.744074 0.336563
22.9752 21.2001 12.9629 0.905636 0.421189 0.0492299
11.9293 20.0331 14.4053 0.776039 0.470788 0.419669
10.6681 10.7192 11.5883 -0.14562 -0.0805282 0.986058
23.2529 20.2154 7.81776 -0.957815 -0.109844 -0.265565
14.5356 21.6978 10.8024 -0.437781 -0.338622 -0.832876
12.2641 19.7579 13.2464 0.975559 -0.209761 -0.0654573
11.0621 19.6001 12.5495 0.950587 0.103977 -0.292528
11.8363 18.9303 13.6894 0.734669 0.083005 0.673329
13.6786 21.2766 14.2262 -0.812458 0.389742 0.433605
13.9369 22.6722 14.7606 0.841063 -0.0569092 0.537935
15.2976 20.959 11.7404 0.203675 -0.0771195 0.975996
16.94 20.6696 12.8194 0.670805 -0.396059 0.627023
15.8997 20.5677 14.1414 -0.592977 -0.285285 -0.752988
18.2869 18.7153 13.0051 -0.39872 -0.630688 -0.665774
18.6847 20.5334 10.2854 -0.972266 0.0343962 0.231335
18.444 21.0318 13.7453 -0.892678 0.207468 -0.400103
19.8632 20.7643 12.3705 -0.0552213 0.188478 0.980524
20.0396 18.2312 14.6337 0.796358 0.0624684 0.601591
17.5833 22.1435 11.6607 0.353843 -0.779823 -0.516402
20.1486 19.7953 10.4976 0.526854 0.825973 0.200481
20.8387 20.6373 11.5693 -0.241415 -0.963429 -0.116292
20.5721 18.6081 11.0596 0.369926 0.648781 -0.665009
19.853 19.2182 11.7241 -0.231551 0.770244 -0.594229
21.6276 19.8039 11.5603 0.0043262 -0.425679 -0.904864
21.357 18.9298 14.7413 0.359689 -0.322863 -0.875433
21.1936 17.9131 10.2291 0.878611 -0.444229 0.175222
23.2088 21.9599 12.2282 -0.973974 -0.20146 0.103864
23.444 22.5816 13.8937 0.0181186 -0.995782 -0.0899415
22.7299 23.3191 15.0846 -0.121224 -0.429894 -0.894704
21.834 11.4042 12.7949 0.728629 -0.620026 -0.290977
11.2404 23.5327 7.80945 -0.557173 0.805749 0.200817
22.7298 21.3823 9.25814 -0.600164 -0.282486 0.748335
13.8417 12.1028 9.79515 -0.137376 0.309352 -0.940973
12.6763 23.488 14.137 0.717239 0.168929 -0.676041
14.948 23.1407 10.2535 0.315298 -0.593186 0.740755
13.4493 20.5593 9.69485 0.409035 -0.721946 0.558108
12.6227 20.2831 11.4823 -0.212834 0.96673 -0.141897
13.8785 22.7547 13.5346 0.442304 0.892013 0.0931713
18.0856 23.6245 12.6087 0.115325 0.479049 0.870179
14.6794 22.5635 12.7728 0.3395 0.592971 0.730154
14.8269 22.0506 13.7716 -0.224019 0.872339 0.434557
19.2175 19.4866 12.522 0.132449 -0.882753 0.450781
23.3747 11.2224 11.0141 -0.586255 -0.40486 0.701708
18.1381 22.8206 14.4274 0.337344 -0.177565 0.924484
18.4349 12.3699 17.027 0.345985 0.398711 -0.849308
19.3959 22.14 12.1732 0.131597 0.936368 0.325417
20.8366 22.7189 14.2016 0.430307 0.800022 0.418092
20.1399 22.1754 12.9338 -0.392134 0.798328 0.45706
20.9019 13.0095 16.4167 0.733623 -0.618901 0.280641
20.8008 19.7182 12.3974 0.110382 -0.895811 -0.43051
20.9854 23.8556 12.4517 -0.207361 0.757686 0.618799
23.0447 20.9075 11.9984 0.994892 0.100481 -0.0096856
22.8568 22.3631 11.3352 -0.584722 0.698419 0.412687
22.2743 19.6308 14.6381 0.937323 -0.214948 0.274268
23.2809 23.4691 11.6516 -0.579838 -0.0925847 0.809454
11.6711 23.5222 13.7308 -0.0655583 0.992395 0.104181
11.1106 11.1507 14.6329 0.890421 0.455065 -0.00810645
11.9003 12.3389 12.0089 -0.493169 0.811733 -0.312847
12.1203 12.965 12.9383 -0.707115 0.502271 -0.497707
13.4464 11.0748 12.2699 -0.415963 -0.68073 0.602977
10.6958 12.2831 14.3125 0.623731 0.678647 -0.387811
14.5068 10.7928 14.8988 0.394407 -0.223414 0.891364
14.8318 12.3452 14.0671 -0.835152 -0.548841 -0.0359844
12.5987 22.3032 13.1273 0.589554 0.797938 -0.125385
11.919 13.134 15.3409 0.573834 -0.776424 -0.260539
16.3791 10.7965 15.4974 -0.809286 0.00848115 -0.587354
12.7573 23.7493 10.2213 -0.586626 0.198802 -0.785078
15.7632 21.8985 16.2409 -0.113032 -0.270989 0.955923
15.8958 23.1608 12.5727 0.247037 0.863872 -0.438973
17.232 12.2546 17.1139 0.146186 -0.688472 0.710377
16.7987 23.5364 11.6783 0.626909 0.555946 0.54581
17.3695 11.1481 15.0395 -0.636937 0.153539 -0.755471
14.7404 23.7399 12.3603 -0.746577 -0.577614 0.330129
19.4189 11.6148 16.5217 0.783735 0.161202 -0.599812
18.1087 12.3485 12.7408 -0.41846 0.426464 0.801885
18.2152 13.5312 15.7974 0.404165 0.838707 -0.364995
18.2759 23.8876 14.9098 -0.403067 -0.154492 -0.902036
23.6618 20.1695 15.0658 -0.550095 0.0454594 0.833864
21.0739 13.4535 12.5292 0.784855 0.581962 0.21289
22.6779 23.8256 13.5573 0.585498 0.112285 -0.80286
21.2283 12.3242 14.1601 -0.103213 -0.876597 -0.470026
23.6513 22.6698 15.1747 0.211904 0.772603 -0.598482
23.6754 13.9726 14.334 0.0724446 0.98079 0.181115
20.8881 14.5342 14.8688 0.847618 -0.514378 -0.130231
23.0674 15.1302 12.883 0.909708 0.344592 0.231705
23.2446 12.155 13.388 -0.241458 -0.153728 0.958157
12.6894 15.1478 15.813 0.0255187 0.0690492 -0.997287
11.4219 11.998 10.4673 -0.13615 0.364938 -0.921023
10.5976 14.5997 16.2203 -0.13963 -0.986909 0.0807151
12.8123 11.8317 15.7974 0.640657 0.652454 -0.404799
14.0501 16.6735 15.0496 -0.305541 0.925941 0.221985
15.4708 23.2988 15.149 -0.512648 0.394467 -0.762619
22.5535 12.8875 16.8957 0.735736 0.281247 -0.616111
15.8469 11.7351 13.273 -0.0335368 0.262669 0.964303
16.1908 15.97 13.7855 -0.637796 0.565011 0.52343
15.9804 12.4894 12.429 -0.0537006 0.436225 0.898234
13.277 11.3806 14.9812 -0.924639 -0.341788 0.168
14.6761 22.917 11.695 -0.992297 0.037243 -0.118148
17.8787 14.9246 12.8816 0.280562 -0.67463 0.682758
15.6085 23.9382 11.2507 0.926242 0.367463 0.0839434
18.1828 14.4668 14.6576 -0.280063 0.945045 0.168684
17.5166 23.256 15.357 -0.286749 -0.586992 -0.75711
18.3525 13.7953 12.7317 -0.750013 0.391629 -0.533017
21.771 14.5556 11.6539 0.75486 0.198773 -0.625041
20.7694 12.401 15.1112 -0.184129 -0.890129 -0.416853
20.7775 23.6607 15.6316 0.203495 -0.860277 -0.467455
20.1775 16.1417 10.8828 -0.820476 0.151218 -0.551318
22.7611 13.9075 11.0436 0.677308 0.472446 0.563958
20.5847 15.9392 12.7184 -0.833826 -0.155499 0.529674
20.2471 23.6609 14.582 -0.430171 -0.766974 -0.476135
11.9036 12.7113 10.901 -0.678181 0.632548 -0.374104
12.5729 13.8374 12.4578 0.0182326 -0.846566 -0.531972
11.1452 15.3424 15.0214 0.178035 0.530879 0.828535
11.2445 23.9452 15.4044 -0.122627 -0.443243 -0.887975
10.646 17.968 9.62697 0.968154 -0.0460812 -0.246078
10.6699 12.677 11.2923 0.0450813 0.258191 0.965042
11.775 15.8104 14.3252 0.461949 0.0386066 0.886066
15.5605 15.2248 14.6881 -0.694641 0.616782 -0.370207
13.0116 17.9527 12.5265 -0.76601 -0.209772 -0.607639
13.5671 15.6444 15.4543 -0.58705 0.592329 -0.551832
12.7171 16.9129 11.5171 -0.720765 -0.404988 -0.562568
15.5689 13.7463 14.9197 0.925609 0.19486 -0.324465
14.675 18.9373 14.2141 -0.384304 0.174855 -0.906497
14.9643 15.545 15.7738 0.68882 -0.720678 -0.0784264
16.1055 15.9712 14.8941 -0.821287 0.358597 0.443729
16.6693 14.7794 13.9149 -0.994914 -0.0999963 -0.0121507
16.9459 18.0332 14.3852 -0.532378 -0.697208 -0.480077
17.7345 17.4019 8.905 0.689279 -0.622188 -0.371182
16.9746 16.7162 13.742 0.373093 -0.0616284 0.925745
17.2323 13.945 15.1916 0.00923168 0.911152 -0.411967
18.6818 15.4185 13.7658 0.205485 -0.233356 0.950432
19.5319 12.2592 14.7029 0.152512 0.627346 -0.76366
19.356 16.6049 14.7604 0.136168 -0.990244 -0.0295903
22.1474 15.4089 13.6384 0.205452 0.952149 0.226279
20.4879 15.0255 12.3218 -0.581746 -0.250073 0.773973
22.5672 16.0714 12.8077 0.678756 0.534443 0.503648
21.3077 15.5772 14.3023 0.016277 -0.958554 -0.284447
22.3968 13.706 15.5553 0.4112 0.357397 -0.838559
23.0342 15.8586 10.837 0.438008 -0.88691 0.146764
23.5866 15.6266 17.3254 -0.0482285 -0.254641 0.965832
11.4279 17.2078 16.169 -0.521013 -0.742642 0.420747
12.4971 16.6244 15.7041 0.991493 0.0855902 0.098064
11.259 16.9665 13.4781 0.284696 -0.331529 0.899465
11.4338 17.1937 10.7354 0.158467 -0.0953631 -0.982748
23.353 18.7658 12.4343 0.729414 -0.657556 0.188613
12.2282 15.5019 10.557 -0.5436 0.701071 -0.461517
11.551 18.0039 12.7667 0.189512 -0.0348778 0.981259
14.4811 17.0775 13.5589 -0.302103 0.487159 -0.819396
16.0139 19.2106 14.8796 0.584936 -0.25399 -0.770285
14.6969 17.5983 14.6048 -0.460408 0.55571 -0.692251
15.5683 19.9809 12.4933 0.877183 -0.0438113 0.478154
15.0148 17.4698 10.9017 -0.346744 -0.928263 -0.134525
13.694 19.0376 15.8525 -0.0396168 0.911326 -0.409775
16.3303 18.1417 13.1302 0.318166 0.946624 0.0517079
20.6697 17.5708 13.7585 0.766913 -0.583383 0.267413
15.7281 16.7331 11.518 -0.413766 -0.630826 -0.656396
15.9771 18.5331 12.0848 0.519048 0.784764 0.338725
20.3352 13.5611 14.8744 0.0877357 -0.620723 -0.779105
18.896 19.3634 10.8675 -0.0210308 -0.333413 0.942546
20.1497 14.7228 14.0136 0.570273 -0.820303 0.0434917
20.8307 17.0628 17.2522 0.257452 -0.949736 -0.178103
23.525 15.8652 15.1576 0.261225 -0.943431 0.204202
18.9615 16.515 12.9959 0.0705558 0.216342 -0.973765
11.775 15.4589 8.35722 0.604686 0.761788 -0.232452
12.7881 17.6324 15.5473 -0.0292761 0.252961 0.967033
13.5385 17.0065 16.6548 0.994067 -0.00864251 0.108427
21.1007 14.6582 13.1252 -0.375454 -0.907551 0.188112
20.1481 16.2329 14.0661 -0.365682 0.545708 -0.753976
11.676 19.2203 15.0653 -0.601132 0.779609 0.175644
11.8168 18.8139 16.0232 -0.936153 0.151598 -0.317231
23.6164 18.4522 14.5717 -0.583536 -0.812087 -0.000706116
12.6898 18.9468 12.509 0.992408 0.109869 0.0552684
23.1207 18.0516 15.5126 -0.188666 -0.982037 -0.00306493
14.1557 20.496 15.9355 0.382754 -0.70469 0.597421
14.2869 20.6924 12.9005 0.0322502 -0.983551 -0.177726
13.2683 18.9058 13.7847 0.662549 0.459733 0.591333
13.5623 20.2247 14.4762 0.789463 0.457988 0.40865
12.9599 20.6214 15.8234 0.354432 -0.779674 0.516224
15.3536 20.2834 16.5504 -0.416749 0.125309 0.900343
15.0926 19.6689 11.2981 0.926343 -0.144981 0.347663
13.5414 18.2692 17.1416 -0.852158 0.515779 0.0883098
20.6732 15.8302 15.9748 0.83328 0.355088 0.423742
18.8426 20.3263 14.7914 -0.482744 -0.346999 -0.804084
17.9288 20.0248 15.5575 -0.653775 -0.549209 -0.520526
19.1127 19.2547 14.6254 -0.342868 0.362542 0.866606
19.0183 19.7602 16.6292 0.587974 0.765347 -0.261783
17.9273 17.6957 14.9229 -0.401617 0.492741 0.771952
19.6179 17.3482 16.1944 -0.563337 -0.637113 -0.526059
22.1224 19.9195 13.1617 -0.910344 -0.0428174 0.411632
20.3394 16.7651 15.6227 -0.0584691 -0.139748 0.988459
20.2596 19.3418 14.2759 -0.508398 0.838417 0.196442
