11.4172 19.3973 7.80556 -0.466675 0.660023 -0.588714
12.4237 15.6692 11.8154 0.018758 -0.835664 0.54892
21.1602 22.2022 13.8437 -0.853438 0.496464 0.158644
20.9723 12.8676 17.448 0.618704 -0.246389 0.745988
11.8175 18.1405 20.5902 0.570162 -0.173374 -0.80303
20.7895 24.2524 14.8448 0.900449 0.156461 -0.405848
19.3691 12.9802 14.6764 0.970233 -0.210524 -0.119701
16.6995 16.9273 10.5338 -0.738959 -0.209843 -0.640239
9.84617 12.5779 12.907 -0.608558 -0.352616 -0.710858
11.7397 13.6436 19.0789 -0.708579 0.0131014 -0.70551
10.6924 11.27 11.0519 -0.450029 -0.623964 0.638861
19.5703 16.2716 13.2565 0.0747498 0.981717 0.175055
10.1698 15.0594 15.1594 0.710651 -0.351907 0.60921
9.41088 15.1688 11.9952 -0.5308 0.665561 -0.52467
12.8704 21.3155 11.4467 0.200186 -0.636591 0.744767
13.3953 18.1615 19.5367 -0.624945 0.694263 0.356991
11.6947 23.5724 10.826 -0.525289 0.0638633 -0.848524
13.0585 21.47 12.7635 0.383307 -0.729603 0.566352
20.7954 16.5672 13.1381 0.441458 -0.10205 -0.89146
16.3537 24.2678 12.5212 0.764826 -0.21381 0.607723
11.5835 15.9348 12.4305 0.352872 -0.722841 0.594123
22.1107 15.136 20.5903 0.673416 0.342347 0.655217
21.9771 13.2828 10.8139 -0.813394 -0.564597 0.14007
20.5494 21.6759 10.4223 -0.718048 0.325075 -0.615413
19.8378 19.3251 12.3771 -0.171699 -0.977885 0.119418
13.8719 17.2274 18.2983 -0.95745 -0.288297 -0.013182
10.6788 15.2053 12.4887 -0.576646 0.582242 -0.573126
15.7275 20.4186 8.53534 -0.66308 -0.680347 -0.312174
19.856 23.0392 19.8054 0.576605 -0.795636 0.185715
16.9043 14.0544 8.03296 0.732071 -0.282304 0.619981
12.2137 20.1919 12.0367 0.54973 -0.659541 0.512642
20.7954 14.453 12.3 -0.367343 -0.312694 -0.875946
12.3752 14.8481 7.35685 -0.607491 0.205854 -0.767189
18.2147 11.5129 8.47167 -0.811572 0.0928391 -0.57683
15.8389 23.8782 7.76918 -0.694286 -0.0309409 -0.719034
10.1659 13.9075 9.10104 -0.288589 0.545205 0.787063
16.2496 22.1942 9.02009 -0.158155 -0.0518179 0.986054
19.2915 15.8213 10.4769 -0.611616 -0.275511 0.741633
10.9541 18.903 18.7371 -0.431219 0.549126 0.715899
9.5457 15.2831 17.2136 0.594443 0.0634489 -0.80163
9.5988 22.9498 18.5235 0.376676 -0.65013 0.659884
15.6585 20.8391 17.8006 -0.850846 0.478916 0.216102
15.0005 22.8445 7.35549 0.312656 -0.306675 0.898998
21.5455 21.2343 8.59726 -0.125755 -0.777614 0.616038
13.9704 24.3354 8.48261 0.495683 -0.195873 0.846128
20.9033 15.5802 17.0675 0.115717 0.853445 0.508175
13.8304 13.46 18.0442 -0.591374 0.310083 0.744396
13.3323 17.5386 7.91972 0.351173 -0.386184 0.852959
18.0944 21.1101 7.64066 0.741886 0.129371 0.657927
17.2397 18.8853 8.19021 0.845158 0.0738572 0.529389
16.7608 16.297 12.8224 0.547273 0.828251 0.120388
12.6267 13.8479 8.59152 -0.562744 0.00875892 0.826585
18.2709 24.3938 20.1047 -0.956162 -0.292747 -0.00727159
12.6498 18.5657 7.86333 0.411452 -0.435337 0.800743
20.8502 15.4173 20.0491 -0.552861 -0.680529 -0.480859
17.8661 22.4986 15.87 0.47899 -0.846497 -0.232403
12.3237 21.0435 10.3685 0.021377 -0.737244 0.675288
22.6205 20.675 12.5761 -0.150981 -0.00773469 0.988506
18.9112 13.3794 19.32 -0.795713 0.22002 -0.564298
15.3343 24.2057 10.126 -0.204368 0.861768 -0.464316
18.5491 23.3631 7.79205 0.778757 0.203829 0.593288
17.7423 12.556 12.9611 -0.900056 0.0395615 0.433974
13.9516 16.9204 12.9338 0.741982 0.475093 0.473022
12.1506 18.4692 9.68241 -0.297489 0.593325 0.747975
22.1062 13.7081 18.1991 -0.170311 0.89892 0.403654
18.1477 19.4757 16.5807 -0.964156 -0.159958 0.211698
12.2241 17.547 10.2548 -0.727411 0.143734 -0.67098
15.7911 17.2365 18.9548 -0.985582 -0.134411 0.102767
20.2012 16.6262 20.4365 0.16394 0.971654 0.170331
15.2226 18.7438 12.5594 0.0319845 -0.246499 -0.968615
20.2093 24.2849 19.9538 -0.0437372 0.451945 0.890973
13.8236 20.2971 18.9539 -0.879001 0.369838 -0.30096
12.3656 16.5186 7.96299 0.373036 0.612529 0.696888
22.5482 17.9098 17.7463 -0.149732 0.0627012 -0.986737
17.0605 11.659 15.7078 -0.480388 0.210898 0.851322
11.3241 16.626 19.0914 -0.838444 0.0753455 0.539754
18.2516 14.4034 9.29151 0.435223 -0.830274 -0.348175
12.8242 13.6022 15.9104 -0.279191 -0.0663974 0.957937
21.8576 15.8019 17.5801 0.396156 0.432483 -0.80995
22.2085 17.3371 7.37343 0.117268 0.921469 0.370328
17.0545 18.6646 10.4057 0.699505 0.167489 0.694723
22.7205 20.8791 17.0693 -0.805858 0.558037 -0.197958
20.6908 19.0124 16.2403 0.741075 -0.601566 -0.298206
20.6444 22.617 11.1179 -0.680261 0.151885 -0.71706
10.2533 18.7044 7.91943 0.101462 0.900588 -0.422666
16.6643 14.9345 14.4421 -0.571097 -0.813841 -0.107295
18.882 22.8214 9.01829 -0.797904 0.135546 -0.587347
12.1387 11.6804 9.68178 0.109257 0.108492 0.988075
16.3913 21.9966 15.7078 -0.950668 0.148824 0.272178
19.6813 22.2784 19.1211 -0.852037 0.51684 0.0831255
18.9457 21.196 17.0307 0.823302 -0.197695 -0.532063
18.4569 12.0927 11.8004 0.978178 -0.102626 -0.180652
11.6028 12.5696 13.5522 0.717949 -0.444123 0.536006
12.4655 23.5462 7.76431 -0.434541 0.477758 -0.763493
13.2864 23.5443 18.1541 0.383636 -0.0528326 -0.921972
12.2191 16.9145 13.7314 0.935533 0.289079 -0.203008
17.6708 18.1226 15.192 0.484146 0.712741 -0.507546
11.1207 17.062 9.04094 0.242169 -0.570175 0.785019
16.4852 13.0807 7.77032 0.521547 -0.00910017 0.853174
22.2449 14.3186 16.3715 -0.938098 -0.218995 0.268352
17.9765 14.9313 13.3869 0.234821 -0.759629 -0.606484
21.9755 21.7713 19.6721 -0.988237 -0.135169 -0.0715272
12.1941 12.5166 16.622 0.360047 0.212592 0.908389
15.1195 15.4712 12.3519 -0.402009 0.425958 -0.810524
14.9164 18.4948 15.3337 -0.068922 -0.432541 0.898976
11.8427 21.3274 14.4076 -0.371548 0.54802 -0.749418
14.1297 22.5775 16.3264 -0.629552 0.191187 0.753068
16.3478 23.9644 17.5417 0.0570438 -0.965255 0.255009
13.0593 20.6391 7.35037 0.746181 0.0637355 0.662685
16.171 20.6718 7.64331 0.979373 -0.14391 0.141841
22.1556 19.542 20.7189 -0.0707328 0.982523 0.17218
13.7643 11.9826 18.5788 -0.547857 0.829045 -0.111964
18.3927 11.8488 13.5693 0.703903 0.00636453 -0.710268
10.3593 23.8989 16.8267 -0.749438 0.602633 -0.274181
10.531 18.7572 9.78041 0.72618 0.590586 0.351952
19.0583 22.8066 18.1062 -0.434553 -0.584925 -0.684855
10.626 15.6982 18.7996 -0.733083 0.0579903 -0.677663
17.9373 14.5562 17.8697 -0.258302 -0.346213 -0.901896
13.6464 20.8028 16.7448 -0.207913 -0.270179 0.940093
12.0594 23.2274 14.9088 0.176366 -0.633326 0.753521
14.0312 19.474 8.53185 -0.448225 -0.807344 0.383784
11.3276 13.5865 15.1788 0.603549 0.397311 0.691283
18.8615 14.9521 13.8058 0.191347 -0.59989 -0.776864
11.0048 12.8768 15.8059 0.689915 0.407912 0.598017
21.6607 20.6018 16.3264 0.880016 -0.461177 -0.11352
10.0816 12.7165 9.48375 0.666039 -0.0357158 0.745061
13.9891 14.0443 14.7712 -0.266897 0.115109 0.956826
19.6896 21.8331 8.44933 -0.612914 -0.0377989 -0.789245
15.2807 13.1255 12.5341 -0.715461 0.296947 0.632406
10.4765 21.4683 13.7898 -0.45648 -0.291554 0.840608
17.1686 15.7845 18.1549 0.105138 -0.8575 0.503627
13.2342 23.9911 16.0107 0.1541 0.542547 -0.82577
11.6069 16.6486 20.3824 -0.359258 0.680865 0.638245
22.1178 11.5525 13.759 -0.912923 -0.408102 0.00496825
9.99084 15.2625 20.6701 -0.0152079 0.886071 0.463299
12.7183 16.9306 15.6205 0.145637 0.982231 -0.118377
16.5681 19.5941 19.7139 -0.922666 0.256648 -0.287784
21.5742 23.1619 13.6113 -0.606147 0.705566 0.3671
11.5109 24.371 9.5095 -0.69006 0.250094 -0.679169
10.3383 15.1741 10.1674 0.40514 -0.266812 0.874456
17.5373 14.7432 15.1792 0.302745 -0.869063 -0.391247
14.1454 18.5388 10.2211 -0.80083 -0.123709 -0.585976
15.6697 23.3792 16.8876 0.280022 -0.924978 -0.256911
22.7885 22.9502 13.907 -0.659706 0.583859 0.473176
16.8442 15.0321 10.8774 0.432446 -0.793159 0.428824
22.0273 11.8893 10.6345 0.897962 -0.304968 0.317268
18.0598 24.6071 9.60244 -0.771734 0.166387 -0.613793
10.1844 21.9233 10.9663 0.930617 -0.272441 0.244392
15.3633 24.109 13.3551 -0.98611 0.0207437 -0.164795
15.4334 11.4721 13.9169 0.941088 -0.102533 -0.322243
15.9418 11.3824 8.9243 -0.228721 -0.135038 -0.964081
11.0623 11.6122 17.7352 -0.443969 -0.323485 -0.835613
9.89353 24.3719 18.9523 0.54807 -0.523232 0.65257
18.3671 22.5259 12.7083 0.712694 -0.293695 -0.637033
10.4989 24.4651 14.086 -0.579058 0.701982 0.414624
10.9819 17.1203 10.4254 -0.463513 0.540898 -0.701844
11.5662 19.7387 12.8428 -0.84243 0.429138 -0.32581
17.8096 22.1771 11.7384 -0.535027 -0.113212 0.837215
9.52388 13.2599 20.1116 -0.994095 -0.0176806 0.107065
9.66765 23.7724 8.18185 0.175687 0.982003 -0.0693085
18.0412 21.4364 10.3844 0.16507 -0.150344 0.974756
12.3064 22.3913 13.9777 0.505886 -0.390303 0.769248
13.7998 23.2833 9.52099 -0.557544 0.44578 -0.700303
14.6539 23.3049 17.3125 -0.348969 0.678043 0.646899
13.0979 16.8408 10.144 -0.0215058 -0.69918 0.714622
10.5574 24.4452 15.8305 -0.705152 0.180655 -0.685656
17.5107 20.4151 9.99335 0.373824 -0.756993 0.535927
10.2634 14.9082 19.4032 -0.782671 0.145271 -0.605246
14.1194 24.4677 10.3297 0.476987 -0.878687 -0.0198306
11.309 13.9933 16.649 -0.717854 -0.0526511 -0.6942
10.883 14.5692 14.2427 -0.47534 0.0256539 -0.879428
17.0791 12.6809 18.6892 0.56679 -0.324605 0.75722
11.7189 11.4318 14.2308 -0.361566 -0.441565 -0.821152
14.8732 21.4243 11.3801 -0.406648 0.799925 -0.441313
15.9837 17.2882 20.1667 0.429121 0.625976 -0.65116
9.82073 14.3982 17.5586 0.394478 -0.022027 -0.918641
15.5445 15.4789 14.7893 -0.0674069 0.601014 0.796391
10.4013 11.7206 18.5686 0.425725 -0.0383999 0.904037
21.1381 11.841 19.335 0.869543 0.0882427 -0.48591
18.6649 16.5555 11.9377 0.107339 0.11665 0.987356
17.9617 16.4672 15.3629 -0.0266195 0.824308 0.565515
21.7733 23.3338 19.2249 0.72034 -0.691456 0.0547719
10.3418 17.2267 17.0705 -0.389619 0.285631 0.875564
13.4224 14.9895 14.6527 0.28161 -0.240002 -0.929029
18.3856 17.3225 13.3669 -0.73354 -0.667162 0.129664
18.0724 17.4981 14.3846 -0.557439 -0.803814 0.207715
22.1978 21.9002 18.7146 -0.97856 0.202639 -0.0368443
19.8418 21.8721 18.1138 0.960895 0.276824 0.00697261
9.67834 21.0349 15.8358 0.384723 -0.729196 0.565917
21.4113 16.6501 7.94969 -0.499854 -0.805793 -0.317559
15.6811 11.8467 12.0701 0.462075 0.165205 -0.871318
15.5067 20.6736 18.911 -0.936583 0.124699 -0.327508
15.8262 15.2911 9.84371 -0.30467 0.855819 -0.418031
16.5405 17.5272 17.8905 0.942801 0.309145 -0.12472
10.8853 19.0083 17.527 0.960851 0.272981 0.0473921
22.2762 12.9183 16.2031 -0.784797 0.374264 0.493984
20.5386 15.602 13.6844 -0.16005 -0.447434 -0.879879
14.2899 19.563 13.5547 0.418189 0.000542352 -0.90836
20.1758 17.0407 9.70033 0.374297 0.257052 0.890969
22.5063 21.4667 7.93547 0.258324 0.916549 -0.305299
13.8816 22.1095 14.774 -0.0216416 -0.273825 0.961536
10.7308 11.9318 13.6088 -0.294447 0.543939 0.785768
21.9466 19.9941 14.8392 0.302467 0.682564 0.665297
18.4226 20.1673 8.32702 -0.88847 -0.366634 -0.276045
20.4981 16.822 16.8756 0.0982568 0.608105 0.787753
20.8436 13.3978 13.7602 -0.954036 -0.298519 -0.026493
13.0257 11.2782 18.6646 0.628848 -0.43588 -0.643863
20.585 17.652 19.6633 0.816954 0.391625 0.423338
21.2493 17.7557 7.41126 0.11423 0.890807 0.43979
21.1812 14.3277 17.6234 0.500857 -0.823775 -0.265589
15.7485 20.8734 9.70077 -0.843305 0.490332 0.220025
12.4149 21.4177 13.4904 -0.548763 0.455426 -0.701032
19.6932 19.4375 19.3302 -0.665152 0.570252 -0.482064
10.5339 20.2416 8.13856 0.00532862 -0.836085 0.548573
14.8244 14.3031 13.0923 -0.567622 0.110499 -0.81584
21.9482 15.2248 15.505 -0.710494 -0.572629 0.409016
17.881 14.9382 11.9001 0.852572 -0.46079 0.246563
17.127 22.6552 18.7924 0.222322 0.910343 -0.349069
13.006 16.0143 8.70715 0.635397 0.522863 0.56823
13.365 15.1499 9.26765 0.759119 0.411268 0.504576
21.9507 14.3576 14.8964 -0.854049 -0.2763 -0.440748
14.7597 22.0588 8.77206 0.479443 -0.0406064 0.876633
19.3737 16.078 18.5324 -0.177934 -0.456465 -0.871768
12.9671 19.9975 14.8675 -0.467104 -0.193418 0.862788
15.157 18.1018 19.7426 -0.617582 -0.0852423 -0.781874
18.5997 15.0929 15.3366 -0.00812996 0.892362 0.451247
15.8704 18.9801 8.70199 0.961437 0.0388957 0.272262
10.4787 15.9087 19.9714 -0.747824 0.117455 -0.653425
14.6045 17.4858 14.7102 0.581852 0.0354383 0.812522
22.7634 19.1006 18.2689 0.643693 0.555269 -0.526626
12.7571 14.9938 19.0134 0.113484 0.463209 -0.878953
14.2476 15.9153 18.9759 0.496346 0.723588 -0.479646
15.2924 23.154 15.8705 -0.786208 0.389028 0.480141
19.411 23.5658 10.4232 0.765343 0.300671 0.569076
13.7981 12.4967 17.1112 0.626994 -0.474101 -0.618148
18.1087 14.4666 16.1493 0.0452047 -0.79579 -0.603883
22.4382 12.6792 10.0304 -0.84487 -0.193011 -0.498941
15.5393 23.1025 12.9203 0.666224 0.30352 -0.681191
19.3401 21.9804 16.2313 0.908418 0.0537636 -0.414591
10.0502 18.329 13.6072 0.213126 0.102515 0.971632
18.3901 15.8542 7.68951 0.137343 0.397139 -0.907424
10.6208 24.3275 18.2177 0.76858 0.229091 0.597329
9.57496 11.1369 12.111 0.15766 0.856121 -0.492138
22.5206 17.013 9.25778 0.723742 0.517769 0.456194
10.027 17.9002 19.7721 0.343958 0.930737 0.124185
17.5365 16.0369 11.0309 -0.501416 0.160522 -0.850185
19.1102 20.3565 15.408 -0.666815 0.0113839 0.745136
21.5246 16.6444 13.8848 0.0741618 0.984484 0.159034
21.3529 16.9354 10.0648 0.0958142 -0.971009 -0.219002
19.0074 17.4559 11.6912 -0.28433 -0.0191439 -0.958535
17.9342 18.6002 9.65059 0.438319 0.533732 0.723192
18.4701 11.5478 19.0538 0.906474 -0.15993 0.390804
10.2882 24.42 12.9726 0.653436 -0.751004 -0.0949388
22.6149 15.4685 16.2572 0.709614 0.27939 -0.64683
10.098 19.3272 14.8753 0.359838 -0.432843 0.826537
16.9863 24.5577 11.7217 0.233795 -0.96824 0.0886124
22.4323 19.0399 17.1456 0.830707 0.0691267 -0.552402
16.5035 12.6046 15.3866 -0.80779 0.265213 0.526439
11.4414 18.2962 14.7249 -0.482654 0.46775 -0.740442
16.8854 12.1513 9.61555 0.04171 -0.113849 -0.992622
19.825 12.3368 12.9084 -0.0281921 -0.124356 0.991837
22.6206 20.2201 18.2535 -0.804043 -0.589551 -0.077099
17.6666 20.5427 19.0247 0.561258 -0.585597 -0.584863
19.9666 18.8158 11.4407 -0.108563 -0.962238 0.249625
21.1746 16.3373 18.3957 -0.79275 -0.606783 0.0579847
10.1274 16.2578 17.2885 0.671787 0.0127294 0.740635
21.7902 22.6309 14.591 0.752739 -0.616345 -0.231309
15.2241 22.0233 17.3661 -0.448322 0.42203 0.787971
22.7134 14.2653 20.7269 -0.491539 -0.0791526 -0.867251
13.5099 19.8843 12.9562 -0.63717 -0.239541 0.732553
14.5297 17.6213 10.4753 -0.509518 -0.210858 -0.834224
14.7431 14.122 15.8257 -0.451288 -0.0881743 0.888011
16.1491 13.2128 9.07757 -0.738553 0.183616 -0.64871
18.4794 24.4159 12.0111 0.731135 -0.353285 0.583636
15.3541 15.4208 8.36235 -0.0231716 0.486822 -0.873194
14.2209 24.4763 15.8118 -0.522732 0.606591 0.598998
13.7843 11.7983 9.38837 0.866427 -0.407184 -0.288973
15.2357 19.9452 17.1818 0.972845 0.00956274 -0.23126
11.6798 14.3991 18.0518 0.759879 -0.179613 0.624759
20.8509 11.258 10.2225 -0.118692 0.590521 -0.798246
18.9113 17.052 8.46926 0.186358 -0.521115 0.832893
22.4957 16.0738 18.371 -0.391954 -0.693072 0.604998
18.4812 23.2204 17.222 0.548505 0.693021 0.467829
19.1784 14.4233 19.0455 -0.470827 -0.220549 -0.854213
12.9954 22.603 13.0617 -0.198675 0.708211 -0.67747
13.3571 16.1316 18.4471 -0.758073 0.169422 0.629779
20.7192 22.8276 19.0621 0.606373 -0.294514 0.73863
15.3247 18.9341 19.0905 0.834438 -0.272281 0.479141
11.321 20.6733 10.683 -0.301456 0.889935 -0.342258
14.3323 15.4168 10.7798 0.928078 -0.195695 0.316821
10.8887 22.7301 10.4931 -0.258004 0.187112 -0.947852
21.3383 13.6665 15.8164 -0.926158 -0.0326649 0.375719
14.966 15.4978 16.0109 -0.607038 0.708438 0.360028
11.7962 20.8 17.7848 0.147755 -0.0874271 0.985152
17.9848 18.0472 7.9679 0.423865 0.0786097 0.902308
9.49006 17.2857 13.7026 -0.886792 0.327928 -0.325672
10.2081 22.4155 7.30347 -0.230819 -0.862859 0.449663
19.2199 16.7517 20.676 -0.0143363 0.436656 -0.899514
15.7785 21.4795 12.1907 -0.313459 0.948874 0.0371775
20.8099 22.5704 16.4871 0.876289 -0.371484 0.306784
15.0559 15.2397 19.2233 0.47246 0.87463 -0.108649
10.2647 15.2797 8.32622 0.230334 -0.958971 -0.16529
19.3414 15.7841 11.817 -0.405303 -0.662757 0.629669
17.881 22.589 17.999 -0.434608 -0.69937 -0.567448
20.7185 20.1224 7.42654 0.739042 -0.625537 0.250039
16.8746 16.1745 19.0282 0.718214 0.695068 0.0323894
11.8278 21.4598 15.6923 0.8716 0.484142 -0.0769407
12.2764 18.0189 17.7371 0.477047 0.845827 -0.238752
14.0283 19.4745 15.8084 0.390275 -0.11729 -0.913197
18.3944 23.9485 8.88323 -0.830236 0.247432 -0.499485
20.18 11.3803 15.9439 0.865597 0.496195 -0.0673228
9.54615 19.5747 8.81263 0.364309 -0.931264 -0.0052278
9.8575 22.4809 14.6511 -0.82475 0.284621 0.48865
17.7912 13.5073 7.60132 0.755659 0.229462 0.613454
22.0338 19.737 9.9285 -0.0925879 0.193656 -0.976691
14.9784 20.1964 10.9052 0.340029 -0.857318 0.386506
16.5193 17.5505 16.4905 -0.174539 -0.632327 0.754784
9.40234 12.9533 11.4441 -0.808411 -0.575468 -0.123725
21.693 16.0126 19.4105 0.721512 0.616671 0.314861
12.4508 13.5342 13.4442 -0.441596 0.797438 -0.4112
17.1385 17.6786 9.83967 0.77265 0.205373 0.600695
22.1793 12.4933 15.1289 0.788804 -0.115796 -0.603639
15.7461 13.7822 16.1801 -0.780007 -0.350311 0.518527
16.8697 15.0919 19.5146 0.965461 0.257663 -0.038674
11.4252 23.733 17.772 -0.152319 -0.848868 0.506183
15.1876 11.2552 15.0836 -0.497835 0.574007 0.650135
17.0494 13.2424 12.4461 -0.873356 0.208036 0.44042
15.7865 21.0119 10.939 -0.468579 0.759194 -0.451728
15.705 19.1281 17.6528 0.932767 0.223484 -0.282845
19.8595 19.6357 7.88534 0.805454 -0.545814 0.230933
17.2575 21.043 13.325 0.51291 -0.362658 0.778076
21.9767 19.3738 16.2862 0.789516 -0.237722 -0.56582
20.1521 21.0609 11.3125 0.391417 -0.859325 0.32917
17.9731 19.7347 13.3624 -0.52837 0.612154 -0.588296
13.8688 22.8717 20.263 0.135206 -0.1586 0.978042
18.0243 24.0085 15.7002 -0.970109 0.230411 0.0761536
21.3868 24.3298 12.8221 -0.663031 0.344716 -0.664501
12.3521 17.1825 19.4779 0.924999 -0.183914 -0.332494
15.6444 19.6929 18.4706 0.773429 -0.49328 0.398098
11.535 17.8214 12.6141 -0.945235 0.165215 -0.281488
18.3574 23.5941 12.8972 0.778367 -0.520349 0.351257
17.1377 21.8783 14.5978 -0.778723 0.617507 0.110789
16.2002 12.1281 7.82011 -0.0404097 0.183085 0.982266
21.4713 16.5604 16.4996 -0.251757 -0.888874 -0.38278
18.6124 13.3472 13.1129 -0.987934 0.151659 0.0314029
18.3338 13.9394 13.975 -0.930518 0.364741 -0.0331685
9.67023 14.1942 14.5614 0.839734 -0.0878611 0.535842
11.0067 15.7572 13.5671 0.648988 -0.724302 0.232811
11.1398 14.3314 9.61684 0.107958 0.159922 0.981208
13.6412 13.3091 20.5045 -0.573588 -0.337043 0.746591
18.5415 17.0113 16.6086 -0.0586108 -0.993245 0.100142
16.419 12.0485 14.3444 0.749793 -0.08213 -0.656556
11.9234 20.7289 9.40352 -0.00495225 -0.706621 0.707575
15.2129 17.0837 7.99488 -0.196774 0.769765 -0.607241
19.8024 14.8567 11.4839 -0.0130949 -0.0964828 0.995249
17.6571 23.4696 9.82428 -0.424449 0.268702 -0.864663
20.7718 14.4407 18.7488 -0.862391 -0.0632874 -0.502271
16.7727 24.0012 9.97349 -0.142097 0.345905 -0.927447
17.0829 17.1965 20.1509 0.215815 0.430873 -0.876226
15.341 19.0734 20.1889 -0.947404 -0.0159426 -0.319643
22.1033 15.7088 12.8891 -0.31599 0.287967 -0.904005
11.6886 20.1493 16.1432 0.178489 -0.272688 0.945401
22.1499 23.8863 20.2026 -0.902339 0.215391 0.373351
14.7832 17.2846 17.4399 -0.0396613 0.993297 -0.10857
22.8551 13.3699 12.4658 0.856783 0.370874 0.358295
12.7336 20.133 17.2064 0.278597 -0.00582731 -0.96039
15.9673 16.3721 11.0803 -0.550244 -0.603232 -0.577358
21.4522 22.1373 10.0261 0.875094 -0.444562 0.191247
10.4554 22.6066 8.41544 0.0610213 0.771926 -0.632777
15.6396 17.8376 10.0921 0.0763549 0.571112 0.817313
12.0281 21.8133 11.7659 0.125018 -0.72903 0.672968
10.7097 12.6899 11.2027 0.594187 0.760707 0.261278
13.6719 17.5327 16.5862 -0.695832 -0.705088 -0.136631
20.5059 23.5228 9.91963 -0.367799 -0.00263617 -0.929902
13.3719 23.6456 20.7325 -0.254684 0.205953 -0.944838
21.6272 13.3037 14.7217 -0.952729 -0.0939556 0.288927
13.117 18.6619 12.136 -0.499978 -0.158408 0.851428
13.7872 13.069 14.4115 0.121222 -0.051476 -0.99129
14.8899 19.9543 7.25816 0.968946 -0.0107735 -0.247038
13.4589 17.8304 12.7788 0.0639081 0.305172 0.95015
22.6375 24.5558 7.43509 -0.721559 -0.574787 0.385969
12.3711 12.5269 11.8061 0.332014 -0.718938 0.610651
15.3715 14.3922 11.9757 -0.763738 0.272383 -0.585245
21.5707 11.1455 11.5854 0.587399 -0.601899 0.540999
19.2563 14.5153 15.8929 0.25096 -0.581591 -0.773803
18.554 21.1838 20.2146 -0.688346 0.283251 -0.667794
10.2888 13.7323 10.4965 -0.669606 -0.288817 -0.684261
20.6852 18.8194 13.3139 0.731964 0.659267 0.172035
13.3243 17.685 17.5028 -0.793069 -0.543588 -0.274869
14.9544 13.3555 14.3567 0.496687 -0.0821855 -0.86403
22.1214 11.9514 20.4166 0.896327 0.427465 0.117777
19.2477 12.2279 20.1658 0.899312 0.356828 0.252809
18.8875 21.5013 14.5566 0.499637 -0.780348 -0.376059
19.1567 13.1293 11.6302 0.313752 -0.606892 -0.730234
22.4792 23.1545 9.26598 -0.0929323 0.718676 -0.689107
12.9237 12.4778 15.0291 -0.659731 0.520664 0.541908
19.7137 21.4365 13.6902 -0.0963324 -0.794587 -0.599459
13.4398 12.0726 8.20668 -0.668644 0.146146 0.729079
22.6244 18.8994 14.2254 -0.0235822 0.498466 0.866588
10.5665 17.6725 20.5776 0.25436 0.963706 0.0810641
18.2876 14.5801 19.8002 0.478299 0.402047 0.780762
16.7736 17.8689 7.67391 -0.167718 0.490568 -0.85511
16.4981 14.9323 13.4318 -0.511515 -0.851121 -0.118092
19.7937 19.8417 9.13698 0.876799 0.364281 0.313884
19.2028 12.9235 15.752 -0.792817 -0.558992 0.242837
20.0645 16.8926 12.4645 0.128143 0.991287 0.0304945
20.2535 20.3688 15.7283 0.807372 0.10373 -0.580854
18.5343 20.0979 10.9598 -0.0709386 -0.677974 0.731655
19.1402 24.4952 14.124 0.0218873 -0.126232 0.991759
21.4245 23.4237 12.2353 -0.80681 0.0197494 -0.590481
15.6388 11.8884 15.9698 0.576261 -0.547363 -0.606892
13.5028 13.8952 13.3996 0.522621 -0.295731 -0.799631
17.7038 12.9813 10.7059 0.478015 0.225922 -0.8488
11.4503 15.5682 18.1974 0.660407 0.132194 0.73918
9.51489 20.2203 9.85006 0.0497829 -0.994101 -0.0963583
9.54746 20.2075 15.1914 -0.269617 0.555472 -0.786611
17.7979 19.6662 17.6991 0.94197 -0.118005 -0.314272
21.2663 20.6344 20.1265 0.625822 -0.764635 -0.153882
17.5905 22.6125 9.21347 -0.596113 0.145671 -0.789575
10.5327 12.2623 12.174 0.0965732 -0.994445 -0.0418718
15.7743 16.2647 18.2671 -0.869764 -0.492522 -0.0305333
15.6462 14.0656 19.096 -0.632594 -0.634441 0.444195
18.445 12.179 14.8794 0.674524 -0.263468 -0.689639
11.9419 22.62 7.91259 -0.0432756 0.345675 -0.937356
9.48742 24.0578 13.8671 0.440637 -0.520986 -0.731036
18.8887 14.3877 17.1973 -0.161438 -0.567745 -0.807219
21.2436 20.5558 12.1015 0.766257 -0.0766618 -0.637944
22.0148 16.8564 12.9156 -0.564702 0.474035 -0.675576
20.9518 24.465 7.87518 0.80942 0.573651 -0.125553
16.3477 18.3215 17.1219 -0.80234 -0.319594 0.504093
10.627 20.2492 15.1782 -0.11672 0.236502 -0.964595
12.7312 22.8334 10.9455 0.421449 -0.512297 0.748286
14.7253 14.9531 17.2105 0.595561 -0.320582 -0.736569
15.7309 21.3665 15.0099 0.116613 -0.990833 0.0682035
17.8099 12.0676 10.1248 -0.270828 -0.108976 0.95644
11.8165 16.7597 16.2292 0.478621 -0.590838 0.649487
12.0979 23.895 8.69362 0.619089 -0.328324 0.713394
13.5556 24.4113 17.0981 -0.93226 0.281874 0.226799
10.6311 23.6264 8.91962 -0.893794 0.41573 0.168225
17.9848 19.0819 7.5559 0.824688 0.213961 0.523555
20.4113 21.5657 17.1904 -0.913942 0.404839 -0.0285349
16.2664 15.4981 15.853 -0.160493 0.822005 0.546397
21.4367 14.2725 10.2952 -0.995474 -0.0551434 0.0774008
14.1929 13.3061 9.7436 0.119318 0.681989 0.721564
15.7074 12.4619 18.661 -0.301073 0.281442 0.911123
19.7675 19.4527 13.4161 0.759298 0.636379 -0.135971
18.9298 12.5559 9.25356 0.018574 0.413242 0.910432
18.0524 20.8477 8.97614 0.861968 0.00680189 0.506918
22.2444 24.1366 18.7546 -0.64644 0.64577 -0.406321
20.7513 15.6183 12.0515 -0.500673 0.0835511 -0.861595
19.2854 14.7059 8.58698 0.0973587 -0.790486 0.604693
19.6869 18.7462 8.55956 -0.684611 -0.314356 -0.657639
18.6128 20.8653 13.4814 -0.398614 0.793816 0.459306
12.727 18.2961 11.102 0.0945318 0.435352 -0.895283
11.5051 15.1605 16.971 0.794555 0.331965 0.508411
13.7543 21.2348 10.7985 -0.374404 0.423354 -0.82498
16.4883 24.5454 7.28845 -0.152577 -0.287611 -0.945516
21.5688 13.0682 8.58469 0.785728 0.0385383 0.617371
11.2463 15.5913 9.71681 -0.469198 0.488662 -0.73557
21.3516 20.4444 14.0362 -0.666821 -0.741045 -0.0787583
21.1415 24.5609 16.3907 0.31874 -0.348259 -0.881544
12.6969 22.8115 16.4107 0.728578 -0.185564 -0.659348
14.4818 21.0788 19.5216 0.646526 -0.710312 0.278317
9.70874 11.7578 16.046 -0.484469 -0.141979 -0.86321
9.55298 23.1323 16.8231 0.0137691 -0.580265 0.814311
12.2825 15.7132 10.6439 0.356966 -0.886258 0.295164
20.5016 14.606 13.9513 0.0932512 -0.606297 -0.789752
13.1757 14.4535 11.9604 0.0553498 0.813557 -0.578845
17.5569 16.5374 16.5048 -0.17404 0.895762 0.409047
21.6989 22.1559 15.8107 0.601267 -0.751505 0.27151
14.9877 12.1452 17.63 -0.624109 0.52843 0.575543
16.0924 20.7758 20.1249 0.89543 -0.435758 -0.0912165
18.0594 20.6361 12.1999 -0.726383 0.683382 -0.0731888
21.3702 23.5778 8.80668 -0.330069 -0.908914 0.254811
9.59412 15.9646 12.6582 0.622083 -0.5418 0.565213
19.9294 11.4395 10.4287 -0.17476 -0.740218 -0.649259
16.196 16.9897 13.627 -0.780402 0.498187 -0.377866
19.684 13.5032 10.484 0.100512 -0.404401 -0.909042
13.3387 20.8274 19.8061 -0.8567 0.12254 -0.501048
21.316 21.9954 20.6667 0.872358 -0.486165 -0.051341
13.6126 22.504 18.2457 -0.615333 0.0730468 0.784876
14.6668 16.551 15.4972 -0.122605 0.589766 0.798213
13.4738 23.4452 10.5156 -0.490674 0.656715 -0.572682
12.2728 20.244 13.9008 -0.273224 -0.229686 0.934127
18.0465 22.1105 7.31906 0.687344 0.367767 0.626344
19.469 13.9046 7.97202 -0.0542845 0.663795 -0.745942
19.2615 21.3675 10.4703 0.324452 -0.91506 0.239576
12.6262 19.5451 10.6012 -0.201647 -0.377113 0.903949
11.3889 22.2113 20.2215 -0.564484 0.741234 -0.363222
12.502 12.1544 20.705 -0.275913 -0.0350158 0.960545
14.49 13.7511 7.41804 0.714118 -0.623648 -0.317959
14.1832 18.9983 12.1843 -0.32338 -0.140812 0.935733
12.4166 23.4836 13.5279 0.779986 -0.429282 0.455344
18.4875 16.0887 13.5989 -0.0527637 -0.530676 -0.845931
22.3266 11.932 16.4875 -0.486215 -0.306783 -0.818217
14.7781 16.0873 19.9089 0.427475 0.89721 -0.110815
16.4742 11.7056 18.8527 -0.478157 -0.362832 -0.799824
19.9077 12.3931 8.08492 -0.35421 -0.619072 -0.700917
13.1275 14.8378 13.1179 -0.672488 -0.173634 0.719452
12.3216 24.135 18.0297 0.315406 -0.755618 -0.574074
18.9879 22.707 15.6278 -0.531751 0.568605 0.627637
17.41 15.4623 12.7395 -0.472781 -0.879941 -0.0467141
19.7976 12.3439 17.5281 0.664574 -0.322947 -0.67383
16.9689 11.7991 17.6856 -0.160203 0.911507 -0.3788
19.1391 20.8747 11.5646 0.207309 -0.967498 0.144814
9.47427 16.0296 10.5693 0.671449 -0.438775 0.597188
14.0781 23.2011 15.0919 -0.19048 0.196702 0.961783
17.7708 14.7546 8.44605 -0.788102 0.192523 0.584662
20.4752 14.6826 15.4378 0.058539 0.744226 0.665358
22.5959 21.6928 9.18046 0.487848 0.829583 -0.271656
19.7952 22.8129 8.11587 -0.421162 0.0752517 -0.903858
10.2753 19.0345 10.7449 0.962832 0.0425615 0.266726
20.9963 16.7985 9.07536 0.192948 0.980625 -0.0338399
22.271 17.7479 19.8793 0.613747 0.786614 -0.0674782
13.9009 17.9742 11.2303 -0.568612 -0.0772312 -0.818972
14.5772 11.2514 12.2124 -0.110562 0.202315 0.973059
11.1566 14.7051 18.8202 -0.702977 0.172841 -0.68989
16.4054 20.3932 12.9585 0.438381 -0.7775 -0.450907
22.8452 17.2782 8.22167 0.057164 0.796703 0.601661
14.5658 15.9285 8.71794 0.239622 -0.0803382 0.967536
20.4645 16.8493 8.08077 0.455272 0.860815 0.227433
13.778 15.2181 8.1296 0.779335 -0.358735 0.513757
12.4263 24.3516 19.7108 -0.359756 -0.423664 -0.831315
19.5333 21.7419 20.075 0.63648 -0.658767 -0.401148
19.7618 17.7311 10.5759 0.0572188 -0.596614 0.800486
16.369 17.3897 12.6559 -0.506726 -0.708326 -0.491429
10.0632 19.657 12.9783 0.326719 -0.404406 0.854231
14.6354 22.1875 19.9569 0.167175 -0.421727 0.891178
12.0846 17.56 7.88794 -0.404289 0.352068 0.844155
19.8407 12.3502 16.2601 -0.741525 -0.477796 0.471012
10.0453 20.8496 8.8698 0.233919 -0.864938 0.444031
11.038 19.0371 16.4123 -0.720229 0.477512 0.503243
11.0772 12.0702 16.6006 -0.47491 -0.255561 -0.84211
12.5533 21.1319 8.09926 -0.0616829 0.719186 -0.692074
10.478 22.7418 16.5801 0.0432434 -0.73252 0.67937
11.2481 15.5536 15.3348 -0.487858 -0.103015 -0.866823
20.7071 13.1245 10.0089 0.155361 -0.402283 -0.902237
20.6949 16.5376 11.0069 0.154447 0.42126 0.893692
14.0672 16.6884 10.7336 -0.0583108 -0.459592 -0.886214
21.5716 23.4462 18.2154 -0.687491 0.726116 -0.0105358
11.0821 21.7728 8.08307 -0.0179533 -0.807492 0.589606
19.9344 14.8106 17.1815 0.105698 -0.383291 -0.91756
12.184 13.7154 12.1633 0.0131852 -0.843681 0.536682
15.6538 17.9333 14.557 0.259705 -0.20112 0.944513
16.7414 22.3258 13.7097 -0.895989 0.327032 0.300422
18.9839 16.9871 15.4154 0.0955445 -0.948539 -0.301901
17.8227 24.0214 17.5549 -0.507671 -0.836518 0.206173
18.2149 15.718 18.2444 0.32335 -0.268417 -0.907412
14.9374 14.5672 10.2327 0.349986 -0.458134 0.817082
12.0195 12.805 8.89374 0.352603 0.32156 -0.878789
20.5084 14.7521 8.23986 -0.12412 -0.982682 -0.137587
16.8096 21.2106 18.333 -0.121755 -0.959848 0.252722
14.2 21.8029 13.2761 -0.445697 -0.644089 0.621694
19.4895 22.1849 13.1027 -0.920164 -0.0304731 0.390346
15.9467 12.422 13.0933 -0.66127 -0.00333238 0.750141
13.5754 18.8124 17.0731 -0.532743 -0.423472 -0.732705
10.9336 18.8365 12.7721 0.882991 -0.21356 0.417995
22.7892 17.129 16.6864 0.584923 0.341834 -0.735537
22.0129 13.733 7.93449 0.601462 -0.668416 -0.437566
22.8542 11.7491 9.81471 -0.897525 -0.238692 -0.370776
21.6362 23.2831 10.1953 0.0878061 0.723121 -0.685118
9.56103 13.5604 13.6135 -0.872906 -0.190678 -0.449085
19.6109 13.6279 17.5731 -0.832848 -0.240874 0.49834
21.0944 12.0332 14.9231 0.893424 -0.332184 -0.302403
12.8075 22.7974 20.4355 0.27134 -0.382733 0.883114
16.0793 19.5778 9.51014 -0.944039 0.176204 -0.278823
11.3031 12.1785 8.47481 -0.206153 -0.248862 0.946345
19.9277 16.0065 17.1834 0.132797 0.573623 0.808283
11.7978 15.6923 8.83443 -0.157003 0.893171 -0.421421
17.3027 20.9403 15.4282 0.919497 -0.144993 -0.365379
12.6044 22.6076 17.8801 0.455576 -0.566966 -0.686295
17.513 18.7153 17.5796 0.862292 -0.152382 -0.482941
18.6442 23.3519 11.8934 0.796183 -0.248173 0.551818
20.7293 17.6468 13.3427 0.612741 0.260731 -0.746034
10.1403 23.1141 11.334 -0.643789 -0.648514 0.406158
17.4176 11.59 12.6993 -0.97987 -0.0039024 0.199598
17.9395 12.61 18.0392 -0.39134 0.0828825 -0.916506
11.6027 19.3871 13.8569 -0.75076 0.635193 -0.181353
10.673 20.3924 17.994 0.219769 0.936197 -0.274293
10.976 14.0971 12.2801 -0.570793 0.623637 -0.534109
11.3845 20.8346 13.1528 -0.0779711 0.242738 -0.966953
20.3605 23.1256 13.2614 0.741048 -0.484469 -0.464906
14.681 18.3026 9.27943 -0.881309 -0.400753 -0.250382
16.1889 14.4067 8.88855 -0.135857 0.527142 -0.838847
10.1472 20.8196 12.9861 -0.449551 -0.38035 0.808231
20.3648 15.9987 19.3659 -0.530137 -0.768142 -0.359043
11.1868 21.833 19.2951 -0.526252 0.783168 -0.331221
10.6108 11.7083 7.63266 0.0642844 -0.937742 0.341332
16.2701 13.513 14.9546 -0.910312 -0.0893913 0.404156
18.17 13.7852 11.5949 0.554521 -0.249836 -0.793781
19.5676 16.0418 14.2047 -0.178128 0.911251 0.371338
19.681 18.1803 14.1641 -0.643736 -0.76504 -0.0178109
21.7426 20.8235 19.1141 -0.979833 -0.193258 0.0507792
16.3472 13.0827 19.3334 0.226498 -0.516004 0.826098
14.5555 12.881 8.19391 0.380347 0.200774 0.902788
19.4237 19.0558 20.5443 0.959739 -0.199513 0.197725
13.0479 24.1898 11.0542 0.039132 -0.805819 0.590867
12.5534 19.4541 8.39049 0.276322 -0.517395 0.809906
13.5761 24.1744 12.1377 -0.166283 -0.617597 0.768716
19.1601 17.3045 9.75855 0.0734867 -0.557195 0.827124
11.726 12.7501 14.6719 -0.809342 -0.551338 0.202463
22.638 17.3888 11.1348 0.23254 -0.911704 0.338705
19.3833 18.259 19.7925 0.90683 -0.0256238 0.420716
9.60059 18.5104 20.6231 0.00436383 0.995555 -0.094076
22.2971 17.2692 15.7313 -0.141277 -0.965285 0.219694
16.8891 15.7934 20.2888 0.637726 0.637892 -0.43174
17.6923 11.6664 20.5305 0.866616 0.175889 0.466946
17.9069 16.8526 17.947 0.114071 -0.704487 -0.70049
18.3861 19.8315 9.53819 0.826204 0.341758 0.447872
9.5492 16.6412 15.2971 -0.52404 0.122493 -0.842839
11.1573 23.1236 12.147 0.958041 -0.255664 -0.12959
13.6158 14.6099 18.6892 0.177756 -0.328629 0.927581
13.3924 14.8938 20.4284 0.340758 0.938752 -0.0512719
21.6577 16.3095 14.9639 -0.70453 0.33536 0.625437
15.8603 15.9268 19.9414 -0.494844 -0.797505 0.34513
15.2579 13.9158 17.4475 0.921382 -0.308239 -0.236736
18.9072 24.401 16.8021 -0.887259 -0.395789 -0.236901
16.4849 22.4466 12.2912 0.204002 0.56295 -0.800918
22.5363 11.2527 19.6489 -0.971637 -0.175652 -0.15833
12.8918 24.6127 8.60746 0.417202 -0.0343282 0.908165
13.5584 16.1511 11.6421 -0.553179 0.832823 -0.0199733
10.7061 12.6753 17.9176 -0.675363 -0.172226 -0.717094
11.32 13.328 7.78557 0.213315 0.296395 0.930939
21.7723 18.6999 12.7297 -0.0823562 -0.306321 0.948359
11.6516 12.0909 12.6136 -0.304169 0.841257 -0.446954
15.928 18.2566 18.5159 0.989768 -0.057424 0.130622
10.2396 16.2175 14.5789 0.544158 0.310337 0.779476
11.5827 14.6012 8.11881 -0.521807 0.767709 0.371941
14.8491 23.0236 11.4777 0.075458 0.878379 -0.471971
14.7078 20.3838 15.6215 -0.385057 -0.127719 0.914013
21.0035 23.5051 16.1174 -0.953464 0.266548 -0.140924
18.127 17.2474 20.294 0.00109312 -0.453922 0.891041
15.6794 17.9335 8.6386 -0.973092 -0.218618 -0.0727864
11.8611 12.8225 19.9222 0.547608 0.412276 0.728117
13.5868 15.7938 13.4092 0.512974 0.0919101 -0.853469
14.2389 11.4092 17.7256 0.898031 -0.439039 0.0280204
21.217 15.5705 10.857 -0.578515 -0.81512 0.0299896
10.2662 16.6763 11.0647 -0.473787 0.680876 -0.55851
17.1234 13.49 15.9725 -0.466462 0.39901 0.789433
10.1369 18.2615 18.6593 0.652075 -0.583891 -0.4836
21.1887 18.3966 17.0852 -0.759488 -0.0585183 0.647884
16.3081 15.8867 8.10408 0.0287866 -0.478362 0.877691
9.40055 14.6389 13.2972 0.533367 0.513519 0.672174
17.6966 18.4685 19.9033 0.808182 -0.11516 0.577564
17.2844 14.0936 9.6349 -0.356147 0.904475 0.2347
14.9294 20.8794 16.8441 -0.631805 -0.112204 0.766963
22.03 11.7295 12.3838 0.540998 -0.603671 0.585578
22.7113 13.5151 19.1437 0.335046 0.811199 0.479271
14.9212 22.0403 14.2545 -0.0629482 -0.894912 -0.441781
20.9533 22.6022 8.10847 0.231052 0.886195 -0.401588
11.6795 19.7375 18.7173 0.235691 -0.256861 0.937269
18.9357 21.3992 12.5851 -0.951084 0.20961 0.226941
11.9989 24.1628 12.3391 0.809556 0.158066 0.565362
10.4787 17.8827 10.9915 0.672422 -0.359991 0.646727
11.8696 18.1624 18.9525 -0.441494 -0.801421 -0.403493
17.4399 13.4266 19.66 -0.831447 0.555603 -0.000825914
22.3422 18.1197 9.84985 -0.0812623 -0.880244 0.467512
21.6619 12.4734 13.9477 -0.972123 -0.225481 0.0643023
22.0343 18.765 8.57859 0.120536 0.884304 -0.451085
9.42689 23.9157 11.3095 0.2909 0.596203 -0.748277
13.974 14.9038 16.2928 0.171901 0.35695 -0.91817
19.4581 19.5137 18.0899 0.753683 0.644434 0.1291
15.1324 16.3996 12.7696 -0.785199 0.225002 -0.576921
17.3294 15.9729 8.5266 -0.135095 -0.326561 0.935472
18.8975 18.5644 10.9903 -0.146215 -0.412956 -0.898938
15.0147 18.7234 7.60097 -0.841785 0.448543 -0.300345
17.7498 24.3838 10.6174 0.816573 -0.498263 0.291449
13.8842 14.0566 9.0729 -0.0401048 -0.497162 -0.86673
13.6705 14.3469 11.0464 -0.45987 0.539029 -0.705668
17.0492 13.7611 17.9677 0.199523 -0.394194 -0.897108
21.4603 12.6567 12.9643 -0.916422 0.393928 -0.0706453
18.1212 13.4001 16.9627 -0.0129421 0.290112 0.956905
13.0857 19.4995 18.2053 0.835049 0.535216 -0.127422
20.8743 19.5346 20.1453 0.527159 -0.774354 0.349972
14.5897 23.4726 12.6133 -0.586716 -0.406238 0.700525
20.5223 22.5391 15.0519 0.668121 -0.636526 -0.385291
16.9627 15.3019 16.5807 -0.280298 0.799546 0.531187
16.8315 19.465 13.5762 -0.632673 -0.434407 -0.641104
15.3893 23.4805 18.1583 -0.360774 0.776294 0.516923
9.82753 18.6724 11.5532 0.964768 -0.152721 0.214239
11.5844 12.0799 11.3056 -0.14457 -0.631485 0.761792
11.0918 21.017 20.3137 -0.627799 0.765703 -0.139881
22.2799 24.1478 16.2546 -0.0334006 0.460488 -0.887037
10.1285 22.4005 12.3875 0.782818 -0.422534 -0.456794
9.79605 13.3976 15.4025 -0.0339185 0.363475 0.930986
22.6218 17.529 12.3285 -0.520931 0.649366 -0.554035
11.7655 22.4278 10.1196 0.0285453 -0.783478 0.620763
18.0265 12.8174 14.0537 0.95474 -0.0544882 -0.292407
16.9093 23.1299 12.8844 0.746005 -0.167554 -0.644517
13.1531 18.1543 18.4767 -0.670131 -0.728557 0.141878
21.9466 21.5952 12.7333 0.280988 0.866029 -0.413569
12.192 21.7112 16.6759 -0.933819 -0.0356271 0.355968
16.8906 23.4817 7.48291 -0.561153 0.0256152 -0.827315
20.8788 21.6103 11.9449 0.958496 -0.272385 -0.0842176
18.9979 15.318 9.56965 0.0915026 -0.585533 0.805468
22.7119 15.612 19.8884 -0.237468 -0.846367 -0.47673
19.885 12.117 9.46315 0.191471 0.453203 0.870601
16.4589 13.4724 13.8079 -0.613551 -0.638864 0.464121
16.4713 19.9064 10.607 0.86509 -0.314235 0.390994
14.9219 13.265 10.9918 0.0509873 -0.367835 -0.928492
9.48305 19.839 7.81754 -0.129466 -0.980694 0.146556
11.4334 18.9025 9.11989 -0.673154 -0.723748 -0.15183
17.6972 16.8322 10.0563 0.431478 0.168193 0.886306
14.9354 11.8807 8.48654 0.528242 0.511755 0.677545
11.1561 23.5219 19.1608 -0.745041 -0.0467092 -0.665381
10.7501 18.0347 16.2758 0.00274265 -0.0115014 0.99993
11.3671 22.318 15.3744 0.0121822 -0.0116766 -0.999858
18.5451 19.888 14.6455 -0.625761 -0.173788 0.760409
15.1632 11.906 7.34633 0.23727 0.89139 0.386169
16.9171 21.6131 7.81475 -0.313879 -0.15025 -0.937499
10.7829 16.5011 7.8798 -0.643587 0.764563 -0.0352145
16.4381 23.6834 16.3217 -0.28027 0.950498 0.134173
22.1238 19.8034 12.354 0.710729 -0.255628 -0.655376
21.8297 14.922 11.9995 0.08344 -0.056288 0.994922
13.6545 12.3474 15.8278 -0.505968 0.484893 0.713355
10.4039 20.734 11.2873 0.709144 -0.453569 0.539805
16.2697 15.0422 11.9112 -0.586538 0.804599 -0.0927046
20.6192 23.41 20.469 0.904355 -0.237762 -0.354416
11.6693 17.5291 16.894 -0.573612 -0.467928 0.672319
13.1366 13.4687 11.0498 0.180719 0.297562 -0.937442
12.3791 16.2734 9.4945 -0.250648 0.899142 -0.358774
16.7273 14.7479 17.6639 0.800207 0.508293 -0.318289
19.2002 18.9154 14.7483 0.56905 0.738436 -0.361795
15.2476 24.4312 16.1472 -0.449909 0.604164 0.657699
16.2102 12.7578 16.693 0.868258 -0.144296 -0.474664
18.2174 16.1154 9.47908 0.0368032 -0.329013 0.943608
21.1682 19.7216 10.8235 0.0982288 -0.0213385 0.994935
18.1737 18.6983 15.868 0.624123 0.667184 -0.406616
15.1138 17.0585 11.7473 -0.202821 -0.654209 -0.728611
15.3604 21.6612 18.9877 0.87372 -0.159925 0.459388
12.2599 18.8984 16.6694 0.670057 0.512859 -0.536656
19.6977 17.4085 18.2777 -0.740913 -0.638295 -0.208871
18.3684 18.1635 11.943 0.560023 0.35587 0.748152
10.6802 23.1135 14.7691 0.693592 0.00263993 -0.720364
19.3242 21.1653 19.1023 0.630164 -0.741876 -0.229158
20.3646 18.9554 10.4638 0.327757 -0.920766 0.211577
17.2026 20.1088 11.7938 0.550692 -0.829945 0.0890497
15.2815 24.0478 8.61213 -0.572363 0.185958 -0.798636
22.5706 19.3227 13.1399 -0.163964 0.639997 0.750679
19.9518 21.2396 15.0954 -0.828393 0.042022 0.558569
16.5236 19.8099 8.34706 -0.698867 -0.320593 -0.639379
9.97652 13.5528 18.3309 0.522806 0.564043 0.639163
13.9542 16.9793 20.5158 -0.780029 0.423031 -0.461084
21.4939 21.3531 15.2903 -0.878487 0.0260044 0.477058
17.6613 20.6836 17.2355 -0.87733 0.404367 0.258417
21.4027 23.3458 17.1661 0.748869 -0.660888 0.0492177
20.0041 24.6146 13.127 0.0782949 -0.37641 0.923139
22.7829 14.9075 10.8271 -0.714795 0.543645 -0.439908
11.8869 13.2305 17.7353 -0.632397 -0.145267 -0.760902
14.8034 12.0721 18.8627 0.469495 -0.740836 -0.48035
14.5467 15.0711 14.02 -0.16785 0.0882608 -0.981854
18.8073 12.1032 10.4711 -0.401347 0.583719 0.705828
20.564 19.1149 15.0441 0.0216176 -0.929005 0.369435
22.3447 21.8093 17.7011 -0.949685 0.303201 -0.0785346
12.2614 24.1508 15.7316 -0.0424136 -0.225796 0.973251
14.0478 20.4217 14.6722 0.360179 0.112995 -0.926015
9.99417 24.0537 20.5836 -0.577587 -0.763319 0.289373
10.4657 21.7452 15.1908 0.583495 -0.675135 -0.451361
22.2551 21.4256 11.0503 -0.203511 0.82888 0.521097
16.4769 18.4618 14.0757 0.485356 0.0854286 0.870133
13.7631 21.4904 17.7254 -0.0889219 -0.274601 0.957438
13.9707 12.82 11.1084 0.288244 0.137312 0.947661
12.1353 24.6195 11.2517 0.693834 0.124221 0.70934
21.3124 21.0725 18.1923 -0.957476 0.125539 0.259768
21.5943 12.0998 17.206 0.504976 -0.248323 0.826641
11.5745 18.3083 11.0943 0.360954 0.09154 0.92808
21.381 21.0168 9.98896 -0.317999 0.627117 -0.711056
16.3773 21.9285 11.2672 -0.908318 0.39275 -0.143898
17.3995 11.321 16.7955 0.422702 0.892548 -0.157102
20.5918 20.3398 8.36692 -0.732503 0.60371 -0.3146
15.2151 14.7974 18.2613 0.804837 0.542347 -0.241033
13.3798 16.159 19.6711 0.777951 0.61829 -0.111843
10.0183 12.2639 19.7569 -0.897393 -0.0669002 -0.436131
13.8339 11.2819 20.2922 0.38613 -0.910733 -0.146522
13.7746 18.5848 7.85063 0.49444 -0.865846 0.0764216
16.5079 16.2529 15.0006 -0.266883 -0.389563 -0.881484
22.1276 14.021 11.5875 -0.937683 -0.0052283 -0.347453
14.7302 16.8908 9.32106 -0.392163 0.0864274 -0.915827
10.4061 13.3103 16.8667 0.227737 0.610312 0.758719
13.974 21.4086 12.22 -0.158912 0.684567 -0.711418
13.8798 23.0401 11.9931 -0.201459 -0.764711 0.612071
19.9662 15.1078 9.16948 0.149467 -0.859705 0.488432
15.7207 21.7026 7.77515 -0.0739909 -0.129954 0.988755
12.7223 11.8179 13.3682 -0.0957863 -0.889928 0.445929
14.6613 11.733 19.8142 0.0387845 -0.926716 -0.373756
13.9902 23.9003 18.9805 0.524942 -0.657304 -0.540728
12.9822 21.0375 15.5036 -0.50397 -0.309491 0.806368
16.2792 16.7712 8.65819 -0.206 0.582784 -0.786083
12.8251 14.6237 16.8079 0.246545 -0.0957237 -0.964392
15.0666 14.6377 7.68881 -0.679582 0.684405 -0.264116
16.2716 20.066 15.8107 0.879245 -0.080312 -0.469552
10.6156 14.1284 7.35678 0.543634 0.839317 -0.00305142
19.2825 23.3815 14.7403 0.94415 0.100706 -0.31375
13.7991 21.6121 20.4974 0.461897 -0.589292 0.662862
15.2794 19.9 13.649 -0.341924 -0.129072 0.930821
11.1381 18.3533 19.6552 0.35562 0.824181 0.440749
16.8568 22.5472 17.0825 0.622343 0.746535 -0.235317
22.5687 16.005 8.62247 -0.452317 -0.0010367 -0.891857
17.1899 22.4086 10.5072 0.240275 0.562245 0.791295
21.2198 17.4061 18.8946 0.845598 0.499297 0.188854
20.7955 18.7168 12.2001 0.00701519 -0.926438 -0.376383
10.2852 23.979 10.1011 0.317312 0.912115 -0.259539
19.0524 13.3684 20.5716 -0.867916 0.362464 -0.339619
20.2287 24.4075 8.89269 0.940174 0.115312 0.320587
12.9381 13.144 9.31108 0.486867 -0.188458 -0.852903
17.4886 16.7546 12.0226 0.694512 0.636525 0.335395
19.135 19.1417 9.9589 -0.211681 -0.491038 -0.845028
21.8597 20.123 17.3313 -0.890176 0.22409 0.396699
19.3883 11.1843 11.2269 -0.936187 0.210992 -0.281135
11.4755 15.3181 11.5016 0.140848 -0.63153 0.762451
16.26 14.0118 11.3357 0.339078 -0.854545 0.39342
17.6133 23.4736 19.4889 -0.898178 -0.392239 0.198556
9.4277 22.0671 16.4823 0.493317 -0.658725 0.568084
15.4334 17.1954 16.6111 0.147364 0.985087 -0.0888107
11.6389 11.5492 20.5052 0.0193375 0.100443 -0.994755
17.3166 14.4035 20.4987 0.948808 -0.130697 0.287543
19.98 23.8081 12.1589 0.628676 0.0934813 0.772028
17.8869 21.6802 18.5924 -0.238787 -0.859976 -0.451023
16.6759 19.1293 16.036 0.763799 0.0273434 -0.644875
14.5002 12.3189 13.2329 0.239835 0.076702 -0.967779
13.2233 16.4654 17.3862 0.889194 0.22749 -0.396967
20.6777 13.7454 19.5154 0.888345 0.0324248 0.45803
12.4384 17.3515 14.665 -0.0256443 0.998657 0.0450281
21.3824 15.2659 14.6751 0.439995 -0.452155 -0.775861
20.9832 14.9895 9.67643 -0.639198 0.409462 0.650974
20.6671 21.3046 7.66329 -0.752841 0.631939 -0.184075
13.1916 18.955 14.5181 -0.0018835 -0.11793 -0.99302
9.97252 20.7495 20.315 -0.345064 0.936773 0.0581954
11.7119 22.0631 18.0545 0.341777 -0.4474 0.826451
21.6033 18.9428 15.227 0.284436 -0.865646 -0.41201
15.0606 19.3892 16.0322 0.333522 0.219523 -0.916828
19.9149 11.8122 18.8494 -0.763898 0.642159 0.0639708
16.2287 19.2416 11.8526 0.862134 -0.469899 -0.189528
20.7499 11.9897 12.5475 -0.0786353 0.26473 -0.961111
18.2217 14.8745 10.86 -0.725049 0.424624 -0.542216
15.5155 22.9327 9.37155 0.258913 0.22326 -0.939744
19.5839 14.9771 14.9036 -0.0481816 -0.644728 -0.762892
22.6971 22.7879 20.211 -0.865229 -0.0808257 0.494819
12.1881 17.111 11.8955 0.451289 -0.317568 0.833959
17.8386 18.9425 12.6962 -0.921235 -0.371667 -0.114843
16.9657 17.8574 11.5292 0.392595 -0.00827565 0.919674
22.6956 11.6781 8.37401 -0.335903 -0.733852 0.59045
20.7383 12.7431 19.7747 -0.770739 0.078997 -0.632234
10.457 22.3861 18.1073 -0.0118429 -0.928418 0.371348
10.6932 21.0915 16.6188 -0.0641369 0.875205 -0.479481
16.8083 20.5785 16.5124 -0.807417 0.406748 0.427358
12.4 15.7862 13.5022 0.552949 -0.0549366 -0.831402
11.4398 13.9555 20.1359 -0.864537 0.00604636 -0.502533
20.5418 13.57 20.5714 -0.853737 0.402794 -0.329985
14.6387 24.0039 14.3728 0.66588 -0.654791 -0.357566
13.5487 19.7467 20.1698 0.971076 0.101049 -0.216334
22.7569 20.1283 19.8489 0.541428 -0.810781 -0.222462
9.74658 18.2864 16.1651 0.0527411 -0.159413 0.985802
10.1587 11.9332 8.7263 0.228609 0.727345 -0.647076
13.6167 20.355 9.28499 -0.337046 -0.17199 -0.925645
14.6787 21.5226 15.8671 -0.0853925 0.280934 0.955921
16.9555 21.0087 10.6477 0.710566 -0.407838 0.573379
13.2941 20.0641 11.3434 -0.0956409 0.555703 -0.825862
20.257 19.019 18.5721 0.726829 0.64848 -0.22626
10.3189 16.5116 9.7084 -0.249168 0.554679 -0.793881
10.0718 20.4979 19.1995 0.149429 0.924515 0.350632
16.1784 20.0564 14.3451 -0.514161 0.706959 -0.485641
14.6767 16.1462 13.7623 0.823241 -0.562245 -0.0784552
20.2719 20.4367 17.1104 0.460817 -0.414935 -0.784523
19.2438 11.5421 17.9465 -0.975948 0.215917 0.0301041
20.0203 17.1709 15.1617 -0.205912 0.976221 -0.0677643
22.7589 13.7598 8.7059 0.451381 -0.592266 -0.66744
19.8644 18.0769 7.6148 -0.740817 -0.297707 -0.60213
11.4482 16.8699 14.8314 -0.525453 0.75598 -0.390377
13.8739 22.2844 9.19004 0.33293 -0.34933 0.875857
18.9591 20.5274 17.9248 0.447252 -0.480784 -0.754196
18.653 17.2092 18.93 0.177871 0.878006 -0.444373
18.8369 24.2481 18.5302 0.995741 0.00141904 0.0921851
13.4605 15.6423 16.7663 -0.949094 -0.155651 -0.273848
11.5738 11.4677 15.8064 0.482798 -0.0620428 0.873531
11.5117 20.2539 8.42549 0.353147 0.441704 -0.824733
12.869 21.4813 9.10509 0.113225 -0.776372 0.620022
13.2316 16.4517 7.48623 0.555077 -0.0123477 0.831708
12.8215 11.687 16.0648 -0.00966057 -0.177605 -0.984054
11.1873 23.9068 20.5177 -0.0961 0.531164 -0.841801
11.0091 16.1316 16.6634 0.498476 0.180653 0.847872
18.3776 11.404 15.5832 -0.0134297 -0.22627 -0.973972
16.0581 23.8825 11.2011 -0.302794 -0.867076 0.395595
17.6 19.0443 18.733 0.47363 -0.823095 -0.313352
21.4143 18.7021 19.4573 -0.874595 -0.353462 -0.331887
19.5505 22.7957 11.4553 0.758145 -0.103602 0.643803
17.9505 17.2876 8.95248 0.38579 0.281623 0.878552
21.3505 13.2464 18.8373 0.508182 -0.458592 0.729003
15.3327 14.0465 20.1863 0.948181 -0.313959 0.0488021
18.364 19.5114 19.3864 0.483658 -0.711035 -0.510396
18.3313 12.6757 7.33668 -0.732058 -0.116764 -0.671161
18.3334 22.7436 14.1421 0.988953 -0.053405 -0.138273
15.9959 22.5266 18.6618 0.108063 0.710301 0.695553
11.7402 13.8913 14.2213 -0.701366 -0.25454 -0.665804
11.0735 20.3066 19.3958 0.0378795 0.664709 -0.746142
17.5603 21.3729 16.4168 0.94487 -0.31219 -0.098784
21.3838 11.9189 8.65042 0.904782 0.282539 0.318654
21.6093 19.7454 19.1141 0.98595 -0.164866 -0.0268758
9.54063 21.6138 12.7712 -0.00590858 -0.0588007 -0.998252
16.1516 12.9459 10.8839 -0.775741 -0.381726 0.502505
10.9939 17.0308 12.9588 -0.902093 0.429212 0.0447757
18.1746 14.0063 10.2866 0.932708 0.0754477 -0.352651
11.1871 13.2812 9.6376 -0.231939 -0.329809 -0.915112
19.6146 18.7956 15.8772 0.256787 0.841822 -0.474759
9.73632 17.6472 14.7693 -0.801971 0.363771 -0.473829
13.6405 17.0189 14.9905 0.449454 0.497335 0.742058
13.5807 12.1395 12.6327 -0.0160688 0.952372 -0.304514
19.6656 16.9432 16.1576 0.500975 0.855794 -0.128999
15.6056 11.9093 10.4982 -0.156512 -0.808429 0.567403
10.6946 22.8502 13.3689 -0.54122 0.474008 0.694548
13.4737 12.7139 19.5214 0.301039 -0.953579 0.0079046
20.0222 13.6224 12.2366 -0.208334 0.535425 0.818484
19.8332 11.6035 14.8744 0.638304 -0.229589 -0.734749
19.5549 17.3245 17.1439 0.457706 0.862249 -0.216866
14.6543 12.7005 15.6046 0.299319 -0.407359 -0.862825
13.6517 24.5304 13.7805 0.119404 -0.987066 0.106978
16.5418 21.0782 14.3623 -0.640866 0.691108 -0.334157
9.99682 20.0107 10.7087 -0.904786 0.0252524 0.425117
15.2358 13.8878 9.41667 0.417074 -0.223385 0.880993
11.0634 19.37 11.869 -0.921665 0.289545 -0.258259
