4.03465 11.3513 4.19911 0.313914 -0.923891 -0.218823
4.67453 12.6264 4.51339 -0.201282 -0.37654 -0.90427
6.74886 13.8053 5.69211 0.824486 -0.346473 0.447414
9.42654 12.4572 6.13297 -0.433065 0.535133 0.725319
7.63568 0.0542361 2.58979 0.603995 -0.708606 0.364784
10.9495 11.6494 4.83988 -0.579779 0.807517 0.108505
9.47437 12.7361 3.44893 0.400998 -0.530559 0.746798
7.4925 0.784846 4.90124 0.326127 -0.722501 0.609618
10.5153 0.916067 4.45617 0.42398 0.79126 -0.440624
11.9743 0.195753 1.87947 0.541414 -0.835239 -0.0961582
10.5199 1.03373 5.49958 0.268146 -0.93991 0.211346
13.848 1.57871 3.18795 0.719076 0.681803 -0.134437
12.2707 0.833819 2.81436 -0.709443 0.478437 0.517483
13.795 13.0102 2.66701 -0.429867 0.449731 0.782915
1.6077 3.19186 2.96347 0.948257 -0.0554869 0.312618
11.6246 12.4925 3.76969 -0.24581 -0.473824 -0.845617
13.9126 13.7166 4.9434 0.0166634 -0.00125188 -0.99986
12.6482 12.6846 3.9423 -0.182053 0.208445 -0.960941
12.7643 2.41762 3.86242 0.604527 -0.061254 -0.794226
0.831069 2.60458 3.84217 0.274613 0.953567 -0.123686
1.997 1.31592 3.3055 -0.0633367 0.2586 0.963906
2.71451 2.04284 3.66113 0.131173 -0.469359 0.87321
3.39393 13.2653 3.01121 0.273148 0.558501 0.783241
3.18849 13.7466 4.93268 -0.942187 0.169566 0.289016
3.18639 0.0314267 2.60529 0.795343 0.411008 0.445535
5.40041 9.2704 4.63403 -0.0968778 0.881549 -0.462046
3.67647 1.71904 3.55624 0.0957796 0.99357 -0.0603665
6.91647 13.8109 8.39847 -0.0887522 -0.166076 0.982111
9.4844 13.1893 5.40335 -0.214211 -0.573315 -0.790838
9.34379 10.4789 4.42816 -0.057285 -0.09957 0.99338
9.52852 3.43444 5.68791 -0.591948 -0.653566 0.471645
8.74902 0.369424 2.47258 -0.748337 0.551793 0.368125
9.17862 14.0523 3.27577 0.966454 -0.0804028 -0.243932
9.63686 0.638912 3.90021 0.828091 0.301083 -0.472878
9.13955 1.01744 3.1873 0.670402 -0.224262 -0.707296
13.2802 1.32344 6.10151 -0.932424 -0.251745 0.25925
13.3178 1.98337 2.04215 -0.450032 -0.392422 0.802169
11.2848 0.311271 3.83559 -0.947079 -0.320688 0.0141879
9.65699 1.46153 4.53608 -0.366962 -0.301455 0.880036
9.65876 0.0346005 11.7601 -0.31015 0.604398 -0.733832
13.0428 2.41294 6.0065 -0.192884 0.320854 -0.92728
12.0264 2.01461 2.80958 -0.227899 0.482543 0.845703
10.5192 2.64248 4.06726 0.815733 0.0375684 0.577207
13.8009 2.49386 4.16096 -0.280881 -0.393799 0.87523
1.44587 4.70219 2.8428 0.545947 -0.797758 -0.255978
0.971173 5.24844 5.25445 0.987042 -0.160344 -0.00621464
1.46113 2.13203 3.17811 -0.4793 -0.519529 -0.707363
13.3773 0.476986 4.59274 -0.509089 -0.292532 -0.809477
0.650842 2.54217 1.94157 -0.512587 -0.799505 0.313124
3.65158 1.37915 2.58238 0.801816 0.521917 -0.291023
1.81398 3.16736 5.43504 0.951485 0.164003 -0.260343
2.75301 2.42515 5.07457 -0.861733 -0.126461 -0.49135
3.16562 1.60833 1.80665 -0.824454 0.294046 0.483541
3.77471 13.6334 2.01152 -0.65837 0.0890095 -0.747413
4.17087 3.23322 2.33058 -0.179271 0.832359 -0.524444
5.05502 13.9389 8.43667 0.107448 -0.151636 -0.982579
7.94982 2.45504 2.26252 -0.0804448 0.742886 -0.664566
7.23173 1.92474 1.80776 0.520082 0.365435 -0.771992
7.79337 1.24953 5.71666 -0.80139 0.521088 -0.293671
9.04381 13.3847 4.03332 -0.892695 -0.219162 -0.393782
5.6767 0.0311452 6.18469 -0.769199 -0.29633 -0.566147
12.5616 2.59701 1.93758 0.0676265 0.28133 0.957225
11.5169 2.54675 2.1547 0.239029 0.783073 0.574162
7.98483 3.21511 5.92648 -0.643115 0.220138 0.733446
11.1667 5.12428 6.2333 -0.56864 -0.267275 -0.777954
1.54024 13.921 2.39156 0.0336555 0.684293 -0.72843
12.7462 4.50408 6.00294 0.580327 0.416827 -0.699626
11.6745 2.88364 1.14194 0.435576 0.6551 0.617347
10.9056 2.28798 2.91592 0.211588 -0.94354 -0.254878
13.7097 3.79193 2.88969 -0.952198 -0.20401 -0.227375
12.836 6.29159 4.51147 -0.68475 0.24264 -0.687199
0.387766 3.19076 4.50911 0.209226 -0.768052 0.605244
0.957237 7.70274 4.10565 0.837029 0.465712 0.287219
2.64732 4.1154 3.29007 0.763201 0.258039 -0.592402
13.3437 7.3552 1.97777 -0.866027 -0.132022 0.482252
1.06404 5.59625 4.29921 0.493126 -0.694278 -0.524218
0.830493 6.39733 1.70584 -0.972114 0.174433 0.156737
1.62295 2.70648 0.896828 -0.996023 -0.0227536 -0.0861398
1.99758 5.10433 6.24298 -0.67241 -0.642486 0.367528
3.6375 4.42756 3.89751 -0.185666 -0.962558 -0.19751
3.62707 0.575088 1.8802 -0.993807 0.0538052 -0.0972294
2.88098 3.41332 2.12181 -0.616248 0.0725636 -0.784202
7.86388 2.23834 5.98699 0.936446 -0.303676 -0.175643
8.02212 1.98424 4.95815 -0.488181 0.864713 0.118111
3.79798 3.9153 5.49742 0.567557 -0.430907 0.701569
6.21523 2.17821 4.28229 0.119952 -0.204375 -0.971516
7.46822 5.11475 2.60232 0.214907 0.975403 -0.049039
7.03951 0.708046 3.31166 -0.827283 -0.0529151 -0.559287
8.20143 3.95244 2.89226 -0.383889 0.609674 0.69349
9.10093 4.3311 2.94584 -0.239495 0.157366 0.95806
9.13783 5.76427 5.98849 0.34914 0.835459 -0.424393
10.0476 8.14823 5.09617 0.202685 0.968821 0.142497
9.14663 7.73044 5.55194 -0.284338 0.718846 -0.63436
12.5651 5.36805 6.43094 0.0418455 -0.359648 0.932149
10.3524 7.82687 4.08283 -0.739777 0.297225 -0.603645
13.4254 4.58002 6.74629 -0.149957 -0.891279 0.427943
9.25749 2.24239 2.08656 0.682065 -0.191891 0.705667
13.9042 4.17025 4.83527 0.725228 -0.347066 0.594634
10.9614 4.68677 3.51183 -0.165973 0.826244 0.538306
1.34751 6.15141 5.44749 0.690869 -0.0718723 -0.719399
2.41521 5.04271 3.38014 -0.0227481 0.0246505 -0.999437
13.6891 8.53619 2.42976 0.189993 -0.242169 -0.95145
1.6095 4.90002 8.35091 0.433471 -0.0969026 -0.895943
2.19562 6.85224 5.48691 -0.0899353 0.570107 -0.816633
2.76963 5.99904 2.56471 -0.591788 0.620684 -0.514332
3.72863 5.67117 2.08991 -0.406337 -0.912028 -0.0556333
5.83581 7.0992 6.11262 -0.814247 0.347541 -0.464992
9.92624 4.78515 3.45209 -0.270788 0.941076 -0.202607
6.83061 4.73408 13.7299 -0.29217 0.824117 -0.485251
8.32734 4.68989 2.24825 -0.488151 -0.643967 -0.58908
7.84437 8.44912 3.97297 0.638051 0.749564 0.176194
8.60623 3.57765 3.77192 0.893186 -0.256634 -0.369268
7.17 0.187154 1.43969 0.144137 0.928508 -0.342194
7.88188 3.02724 3.16525 -0.928847 0.348503 0.125656
7.64288 6.06243 3.63377 -0.525484 0.807861 0.266883
8.52039 3.96904 4.85727 0.940615 0.0147908 -0.339154
5.98851 4.65218 3.71493 0.457695 0.140121 -0.877999
5.54486 3.65166 3.61851 -0.696931 0.669315 0.257496
8.24762 6.36844 4.33656 -0.649504 0.159008 0.743546
11.9769 4.6093 8.15071 0.107053 -0.000706316 0.994253
11.451 9.24551 6.2788 0.470264 -0.0531491 0.880924
10.0309 2.72198 1.41688 0.658237 -0.65664 -0.368168
11.0977 8.30728 5.97964 0.0422695 -0.00663207 -0.999084
11.9286 8.22095 3.04999 -0.222213 0.93004 -0.292656
12.3917 10.2512 3.88927 -0.502398 -0.822182 -0.267605
11.7547 10.465 2.83377 -0.590794 -0.671775 0.446857
1.22493 9.15639 4.26596 0.769126 0.57571 -0.277495
5.05781 6.59154 6.89054 -0.248005 0.0918856 -0.964391
10.5881 9.54092 6.80713 0.253087 0.742468 0.620233
2.24432 6.0102 3.4082 0.791325 -0.0711485 0.607242
2.60152 6.89334 3.13287 0.966217 -0.231623 -0.113028
4.39796 6.71829 4.36121 0.728638 0.389331 0.563479
2.84738 6.99495 4.0746 0.921714 0.383781 -0.0561664
4.35555 5.11781 2.74748 0.30905 -0.860809 -0.404346
4.06084 10.5032 10.2389 -0.546586 -0.2088 -0.810954
6.14344 4.38769 0.85822 0.949262 -0.284668 0.133665
7.03163 5.9047 1.65949 0.610891 0.321522 -0.723488
5.00783 5.23305 3.6076 -0.445122 0.0962345 0.890284
7.06011 8.12374 4.7826 -0.142686 0.977686 0.154179
8.11929 7.32858 4.07122 -0.0978258 -0.508659 -0.855393
6.62021 5.27347 0.973223 0.758195 -0.123175 -0.640288
6.1517 7.7555 3.12785 0.753003 -0.656462 0.0452033
8.09544 9.39884 6.4108 0.848837 0.331512 -0.411794
9.06471 6.00305 4.84469 0.82506 0.304302 -0.476106
9.56735 5.05789 4.33625 -0.926825 0.345787 -0.146381
9.63715 9.42042 3.26171 -0.965832 0.122456 0.228414
10.5316 11.0397 5.61913 -0.987639 0.144156 -0.061549
10.9935 10.1668 6.1526 -0.85657 -0.277314 -0.435183
12.8812 13.8609 5.22671 -0.199624 0.448712 0.871096
10.1542 7.67917 7.81421 -0.261674 0.455391 0.850967
13.551 11.7021 7.89748 -0.772267 0.260836 -0.579282
10.4966 5.94166 11.5877 -0.293903 0.434187 -0.85153
10.3481 7.68664 6.0793 0.382208 -0.502172 -0.775719
11.0824 7.74791 3.4333 0.408156 -0.770519 0.4896
13.2888 10.0691 6.89828 -0.989748 -0.142821 -0.000657367
3.21148 8.34831 2.31625 -0.333237 0.60308 0.724739
1.14753 11.1986 5.40264 -0.117849 -0.0082208 -0.992997
1.18024 9.80581 5.17998 0.235869 0.673147 -0.700885
12.6471 10.5767 9.09362 -0.110244 0.724765 0.680119
1.27753 11.035 10.6642 0.307568 -0.896627 0.318532
1.73824 12.0691 4.94494 -0.710777 0.0421204 -0.702155
4.1951 8.19273 3.5515 -0.552704 0.16069 0.817739
3.92571 9.01339 3.05337 0.14934 -0.308155 -0.939541
6.78454 10.5744 5.81696 -0.089837 -0.472954 -0.876495
4.51911 10.6952 5.03744 0.983802 -0.1616 -0.0775827
6.27577 9.68672 3.55222 0.0462064 -0.426452 0.903329
6.56881 9.45752 8.1044 -0.269784 -0.717324 0.642389
7.69443 10.3234 6.24956 -0.135456 -0.0131026 0.990697
7.0141 10.6045 10.1717 0.653643 -0.293318 0.69765
9.55297 9.6466 6.6899 -0.182005 -0.932481 0.312014
8.09778 11.2765 6.88984 -0.776 0.279112 -0.565615
12.3744 7.02553 4.97371 0.931872 0.250863 0.262072
8.78609 11.2823 4.148 0.598345 0.579747 0.553061
7.99856 11.7126 4.67457 0.497109 0.863257 -0.08758
7.83561 12.3557 10.3532 -0.830127 -0.0241444 0.557052
13.5979 10.905 6.29251 0.793522 -0.320331 -0.517409
7.57394 0.428047 6.44922 -0.865475 0.228865 -0.445615
8.88329 13.9213 5.1311 -0.651811 -0.6207 -0.435746
10.8922 13.3562 6.88942 -0.515991 0.63812 -0.571451
13.9763 11.6169 7.03706 -0.400357 0.82078 -0.407473
12.3494 13.1136 8.71455 -0.888451 -0.303943 0.343909
0.357644 10.0013 4.56478 0.209239 0.120673 -0.97039
1.00066 12.3878 8.43186 -0.761909 -0.315265 0.565776
12.979 11.3554 8.61559 0.370871 0.438252 0.818774
12.7385 12.5744 9.40442 0.541681 0.823995 0.166174
0.363872 11.8199 5.98735 0.445425 0.530585 0.721163
0.338029 12.8037 3.60838 0.729534 -0.0934543 -0.67753
4.25066 10.1522 5.87138 0.874443 0.122569 0.46939
3.69585 12.6881 6.79301 0.531435 0.275176 0.801159
2.28297 11.1125 6.7163 0.205166 -0.648868 -0.732719
2.41817 13.358 3.17899 -0.0675298 -0.977598 -0.199353
3.30373 10.5077 3.3179 0.671216 0.740083 -0.0417893
4.604 11.1899 6.147 0.679279 0.0989105 -0.727184
3.76456 9.91302 2.66634 0.745549 0.181403 0.641288
8.37065 12.7176 8.11214 0.575227 0.714666 -0.397953
5.44622 10.9746 8.02437 -0.866446 -0.00585486 -0.499236
7.73231 12.4436 5.43293 0.121446 -0.943429 0.308533
4.42628 12.0499 6.75659 0.0401045 -0.28299 0.958284
5.79151 12.3475 4.75191 -0.563807 -0.257377 0.78478
7.31466 8.85108 7.75262 -0.683767 -0.664293 0.301956
6.0207 13.1867 6.01678 0.438069 0.0604294 0.896908
8.13805 0.192583 1.71391 -0.165263 0.972535 0.163902
6.87183 12.5501 9.63383 0.205828 -0.431326 -0.878404
9.96466 0.830639 9.34411 0.573839 0.208866 -0.791886
11.2009 1.38249 6.09993 -0.660215 0.637506 0.397117
12.9099 0.657821 7.9209 -0.375857 0.579026 -0.723506
10.8415 0.878287 9.84432 -0.288908 -0.941762 0.172093
12.2875 12.875 5.71636 -0.958822 -0.144457 -0.244525
12.4166 0.596134 4.85525 0.467383 0.809607 0.355092
1.16704 13.3148 9.08304 -0.251084 -0.821425 0.512072
12.4265 0.103092 9.01032 -0.364527 -0.0212389 -0.930951
0.438439 12.9343 4.88059 0.633921 0.311597 -0.70785
12.8695 1.44371 4.20796 0.986112 -0.0249309 0.1642
14.033 11.9287 4.48905 -0.767393 -0.0688736 -0.637467
0.584984 0.942408 7.56301 0.429529 0.178189 0.885299
3.20042 11.6348 6.79388 -0.0995967 0.223524 0.969597
1.33276 0.784665 4.15568 0.275023 -0.867282 -0.41495
2.5612 12.4564 6.88973 -0.489217 -0.562489 -0.666538
1.15974 0.320441 6.94732 -0.0285074 0.536236 -0.843586
8.0155 12.1085 7.38094 0.975826 0.119268 -0.183133
3.25083 0.654195 5.00587 -0.655939 0.00752656 0.754776
8.10163 0.867484 9.65832 -0.813953 0.576564 0.071101
3.67679 1.33888 5.51002 0.0834091 -0.531953 0.842656
6.20484 0.460314 8.24763 0.43482 0.237172 0.868724
7.63219 1.52676 6.64686 0.967321 0.0934794 0.235696
6.73518 12.8457 5.41402 -0.278209 0.410861 -0.868213
5.94548 12.6911 9.30075 -0.0173403 0.98184 -0.188915
8.81049 13.0761 8.9386 -0.132894 0.991116 -0.00529336
10.1612 0.993662 6.47107 0.849794 -0.522027 0.0730563
10.6333 1.26161 7.32825 0.947188 0.0101969 -0.320518
10.2858 3.00644 6.16261 -0.493504 -0.820378 -0.288848
8.79293 2.05321 8.5375 0.250448 0.503564 0.826861
12.0265 2.0203 6.13456 0.338959 -0.0714525 -0.938084
11.3443 0.691223 4.88325 0.274713 0.961158 0.026595
11.2152 2.61448 5.95961 0.213862 0.456253 0.863768
12.0439 12.6347 10.4219 0.260016 -0.650367 0.713733
11.2305 3.57691 3.97159 -0.827439 0.224936 0.514537
13.43 3.26001 4.6592 -0.446999 0.150123 -0.881847
1.0983 3.20633 7.61494 -0.772762 0.532116 -0.345964
13.2915 0.174059 6.85794 0.230013 0.964587 0.129099
14.0317 5.75582 3.55285 0.329397 0.772777 0.542507
2.52034 2.30658 9.41716 0.491724 0.0913023 -0.865951
1.33723 4.05108 10.0884 0.397397 -0.829871 -0.391651
1.01638 13.548 6.05019 0.77307 0.619007 -0.13854
1.23494 2.4463 6.4669 -0.461525 -0.877368 -0.131226
1.93813 2.27923 5.78474 -0.777683 -0.461787 -0.42657
2.70742 1.38397 7.29766 0.178028 -0.622263 -0.762296
2.84385 1.67542 5.93409 -0.565083 -0.19286 -0.802176
3.5566 2.76011 1.78881 0.19965 0.546926 -0.813026
3.44214 2.90752 4.43301 0.893599 -0.437934 0.0984642
2.82974 4.35452 9.13561 -0.989624 -0.118008 0.0819663
5.5518 12.9901 8.30982 -0.580129 -0.494937 0.646906
5.73717 2.11371 7.34987 0.882716 0.144173 -0.447244
6.30007 0.780456 4.52322 -0.185823 -0.401101 -0.896988
6.72846 2.7377 10.014 0.35933 -0.610198 -0.706074
7.81254 0.195393 10.3049 -0.856313 0.148844 -0.494544
8.70278 3.92293 6.23231 -0.431216 -0.459869 0.776256
8.9693 0.901429 1.59019 -0.154788 0.598014 0.786397
9.03262 4.83928 7.91515 0.299652 -0.0716802 -0.951352
10.7994 3.3081 5.35094 -0.741478 -0.402971 -0.536493
12.0027 4.01517 5.08612 0.977551 -0.160142 0.136924
12.197 3.04245 6.05567 -0.262201 0.0656277 -0.962779
10.4904 3.2586 7.28284 -0.400278 0.890212 0.217484
0.271554 2.63191 6.86969 0.30867 0.817498 -0.486229
11.5981 5.87873 4.77812 0.14444 -0.119519 0.982269
0.245183 5.2747 7.06984 0.20635 -0.947335 -0.244901
13.9434 4.27541 5.98505 -0.705541 -0.703487 -0.0855476
0.655109 3.25719 10.1097 -0.46643 0.752528 -0.464914
0.411473 7.64921 4.99075 0.567697 0.754916 0.328362
0.48747 4.74376 4.40739 -0.673631 0.738907 -0.0154302
1.1615 6.7912 7.80397 0.985604 0.0425745 -0.163622
1.61709 1.27085 7.42793 0.481722 -0.873103 0.0750663
2.8962 5.0501 7.50132 -0.0747476 -0.747245 0.660331
1.81541 4.15252 5.19918 -0.682996 0.00600712 0.730398
2.80519 4.4821 6.34175 -0.762112 -0.614669 -0.203392
3.72845 4.95392 8.25858 -0.496558 0.858383 0.128878
5.25284 1.93676 5.14598 -0.163447 0.894355 0.416431
1.49994 2.04199 1.69917 0.466745 0.773837 0.428164
5.32494 6.79775 9.88591 -0.101649 -0.644133 0.758129
6.08255 1.53295 8.1519 0.769065 0.527291 0.361251
5.50604 3.00624 6.7587 -0.33378 -0.00120694 0.94265
5.40963 4.97548 7.18673 0.684856 0.276567 0.674153
5.54624 3.9595 6.7103 -0.438976 -0.136372 -0.88809
7.6722 1.73081 11.4459 0.620223 0.698983 -0.356015
7.86584 2.32308 3.88507 0.590248 0.620545 0.516267
9.01802 2.16503 4.28568 0.171423 0.195455 0.965615
11.0274 5.93252 8.84985 0.403603 -0.635835 0.657889
10.6095 2.18606 8.24027 0.646054 -0.600707 0.47092
10.938 4.95691 7.43281 0.55312 0.494652 0.670357
12.4298 5.11251 4.8205 -0.542204 -0.309172 0.781299
11.6138 6.83326 8.40758 -0.500055 0.818121 -0.28394
12.1364 6.76995 6.75212 0.758512 0.640875 0.118062
11.1466 6.84179 2.84504 -0.518497 -0.724105 0.454789
0.346755 7.47011 5.97426 -0.207244 -0.895298 -0.394324
13.9468 6.15567 10.0543 -0.688833 -0.57043 0.447346
1.20381 5.67155 7.4933 -0.00503614 -0.134639 -0.990882
3.09069 7.03863 5.95047 0.411689 -0.899896 0.143874
1.19794 7.0504 5.17068 -0.148135 -0.290563 -0.94532
4.24056 4.86059 5.55377 0.960344 -0.278818 -0.000785706
2.24835 7.45267 8.62091 0.456065 0.889769 0.0177554
5.88434 5.9374 6.27236 0.457802 -0.432226 0.776916
4.65821 3.74717 4.64216 0.492981 -0.868009 -0.0594228
3.33231 7.76173 6.69719 -0.907224 0.284303 0.310027
4.54643 6.1173 9.62171 0.587536 0.0454279 -0.807922
6.01002 5.60644 3.90375 -0.17887 0.240137 -0.954117
5.29513 2.1142 6.44639 -0.802922 0.232786 0.548751
6.19376 7.24001 5.02388 -0.128064 0.915168 -0.382186
6.32732 4.58048 6.54108 0.774806 -0.466135 0.427076
5.62021 6.87965 2.96149 0.726023 -0.397471 0.561165
6.95414 2.93809 1.90522 0.0735377 -0.381085 0.921611
7.00497 7.26021 8.55456 -0.197709 0.905259 0.376055
8.55468 3.42371 9.94568 -0.00526731 0.919228 -0.393689
8.15402 5.6734 6.62184 -0.0770591 0.582082 -0.80947
11.5669 7.39442 5.83505 0.528009 0.50485 -0.682886
8.02552 8.38432 6.94041 0.683223 0.592166 0.427255
11.8908 4.58473 4.20103 -0.73979 0.47635 0.475187
12.1404 11.7766 4.16229 -0.286163 0.205226 0.935945
10.2205 6.19821 9.47482 0.549042 0.538385 0.639292
8.51804 7.65136 6.37418 0.639901 0.0539852 0.766559
13.4325 6.80687 9.38961 0.585131 0.296836 -0.754659
9.91846 9.48537 7.64426 0.487822 -0.850082 -0.198471
10.3021 7.3621 2.9307 -0.185508 -0.43054 0.883302
10.8751 9.7893 9.22423 0.306699 -0.167958 0.93687
4.65238 5.77318 5.72736 -0.455693 0.0862582 0.885948
3.97456 6.42702 5.22961 -0.176801 -0.902082 -0.393686
1.36493 9.3801 6.8657 -0.725383 0.484762 -0.488698
2.9925 11.2525 9.6926 -0.700601 0.102054 0.706218
2.92954 6.84953 6.92753 -0.930978 0.313307 -0.187401
5.06859 8.13903 4.20113 -0.777379 -0.493103 0.390553
1.45751 9.76371 7.86238 -0.969152 0.0610693 -0.238779
1.08611 9.56012 9.29783 -0.547959 -0.613851 0.568267
5.15173 6.26622 3.73382 -0.407894 -0.0307792 -0.912511
5.38452 11.6117 6.62712 0.0555122 -0.930387 0.362352
7.12011 9.05941 3.66859 0.583925 0.754889 -0.29862
5.95105 9.11527 6.52179 0.858421 -0.480708 -0.178978
7.08337 5.44296 5.83638 -0.123407 -0.627882 -0.768462
8.38787 9.35951 5.06289 -0.895495 0.216707 -0.38875
8.50051 7.98508 3.45678 0.648138 0.240304 0.722614
6.87986 5.45341 3.43842 0.148835 -0.754112 0.639658
9.62135 6.73861 7.65036 -0.71842 0.520615 0.461339
7.32282 5.62874 4.48925 0.759879 -0.648383 0.04672
5.14634 8.78776 9.79872 -0.605861 0.669385 0.429948
8.50644 11.0904 9.01566 -0.41432 0.878205 0.238944
11.6709 7.95462 9.89379 -0.863341 -0.497221 0.0861028
9.32028 8.72153 8.26375 -0.384798 -0.793543 -0.471402
11.0793 6.98085 9.20358 0.903784 -0.105271 0.414839
11.7734 10.056 9.12411 0.382194 -0.66218 0.644551
12.6471 8.68402 13.2273 -0.557463 0.101916 0.823922
13.802 9.15709 4.40603 -0.547354 -0.089622 0.832088
10.6341 8.82709 8.63852 -0.548715 0.258689 0.794979
1.23398 11.1152 11.6475 0.928957 -0.347359 0.127986
12.2495 6.57672 11.4509 0.303653 -0.855749 -0.418913
1.90645 10.2137 7.02265 -0.772436 0.519125 0.365859
2.58918 9.06556 4.17416 -0.654027 -0.554503 -0.514563
4.50842 13.1702 6.42073 0.772484 -0.0962043 0.627705
13.5345 8.73577 7.85048 0.586369 0.682508 0.436295
0.487897 12.1665 7.60465 0.705817 -0.650296 -0.280957
0.894659 10.5061 9.81582 0.0166807 0.738522 -0.674023
4.03185 13.9202 6.83112 0.919863 0.39083 -0.0332344
5.6752 10.2429 12.0154 0.482328 0.653482 0.58337
5.64994 8.57926 7.67615 0.744408 0.555856 -0.369976
5.96731 9.75934 5.6728 0.215412 -0.940366 -0.263267
5.88033 10.0408 8.4956 0.28085 0.0851989 0.955963
8.43414 7.86848 11.9678 -0.383038 -0.805342 -0.452444
6.51963 11.8714 12.5664 -0.54713 -0.187887 -0.815688
8.34768 8.57294 5.96665 -0.972993 -0.0110518 -0.230568
6.52906 8.0252 11.179 0.764955 0.613949 -0.194709
6.21768 9.09083 11.1887 0.516963 0.00313711 -0.856002
7.54022 9.45738 8.66471 0.358113 0.672527 -0.64766
8.86088 9.03514 9.24717 0.5707 -0.797452 0.195888
10.4036 12.2898 8.81887 0.779661 0.022271 -0.625805
13.6678 9.03734 11.1818 0.767745 0.199133 -0.609027
10.281 11.7715 6.35262 -0.762988 -0.213938 0.609984
13.0267 10.2372 5.86007 0.59433 -0.803917 0.0221109
10.8546 11.235 9.19181 0.671333 0.681804 -0.290612
13.9316 9.28858 12.3355 0.027155 0.688904 -0.724343
10.865 11.754 7.39508 0.306308 0.557061 -0.771919
13.6344 10.6715 8.96771 -0.10747 0.0895673 0.990166
0.035779 12.4027 10.3441 -0.118703 -0.295316 0.947997
0.295885 10.8818 10.5857 0.3129 -0.587681 0.74614
0.43207 0.905062 11.0879 -0.491395 0.516533 0.701231
13.8904 9.99084 10.1792 0.416154 -0.0337362 -0.908668
2.19596 11.5104 12.8324 -0.705038 0.312132 -0.636785
2.6273 11.9272 9.07754 -0.0218686 0.493551 0.869442
3.66404 9.89002 7.27674 -0.818613 -0.508527 0.26697
4.55538 9.58612 5.09276 0.620024 -0.44814 0.644003
2.91251 10.5871 7.23175 -0.536987 -0.074695 0.840277
7.84804 13.4905 8.44476 -0.130278 -0.674274 0.726899
8.19747 11.3801 8.0146 -0.868315 -0.431504 -0.244607
4.79148 10.201 8.4726 0.390035 0.683136 0.617412
5.76833 11.7993 7.5024 0.7026 -0.704269 -0.101779
7.68492 10.7377 9.41349 0.645737 -0.613926 0.454002
8.95284 11.258 11.18 0.612455 0.519645 0.595707
8.68138 10.5189 6.41971 0.1563 -0.515377 0.842589
7.43716 11.5021 10.0853 -0.969771 0.235266 0.0647653
7.02534 10.0599 9.18683 0.191412 -0.43595 0.87938
7.68816 0.217171 9.03652 0.480029 -0.659988 0.577917
9.73062 13.1717 8.66959 -0.211207 -0.608517 -0.764917
7.08239 0.0667813 10.9993 0.573131 0.475583 0.667339
10.1728 13.3714 7.63492 -0.675534 0.166485 -0.718287
8.14838 1.25364 8.7095 0.322461 -0.834943 -0.445971
12.017 13.3447 6.76939 -0.00905929 0.990781 0.135168
10.2509 0.802044 11.9822 -0.59874 0.724665 -0.341132
10.898 11.0514 6.73279 -0.851428 -0.379143 0.362382
11.627 0.579254 9.37323 -0.550383 -0.770592 -0.321352
12.3605 13.0897 7.68429 -0.877071 0.397855 0.26918
12.0957 13.238 11.1643 0.828347 -0.423122 0.367163
0.36674 12.7984 11.7228 -0.599833 0.441676 -0.667175
1.04821 2.00939 8.32099 0.95084 -0.184033 0.249068
1.19867 1.0374 9.8614 -0.284415 -0.421522 -0.861062
3.7245 13.4832 12.4182 -0.331305 -0.67103 0.663292
1.18849 11.0296 8.31214 -0.65087 -0.758123 0.0402087
14.0021 13.8168 7.48068 0.118157 -0.838711 -0.531605
3.60388 10.3804 8.17172 0.147661 0.877021 -0.457199
4.17617 3.15417 7.59433 0.323144 0.653816 -0.68418
4.3891 0.214859 12.8202 -0.346334 0.933531 -0.0925899
5.29864 1.21806 6.91287 -0.991004 0.0770379 -0.109439
7.57375 13.0167 7.60188 0.6581 0.195243 -0.727175
4.69562 12.7048 10.9889 0.958545 0.223906 0.176232
7.56915 9.62142 0.288342 0.977397 -0.0347729 0.208531
5.06575 11.6929 10.3109 -0.575365 -0.319357 -0.752972
7.12478 12.3224 4.61461 0.220873 0.664185 -0.714194
5.87492 13.8201 11.5047 -0.296169 -0.694909 0.655275
7.51211 11.4252 11.0725 -0.883344 -0.467935 0.0271964
5.52123 11.8146 8.54294 0.923608 0.29652 -0.242947
9.90461 1.85669 8.94821 -0.343329 0.038565 -0.938423
8.20926 3.0382 8.54982 0.450491 0.861621 0.233811
9.31609 0.398007 12.7424 -0.942764 0.174123 -0.284388
10.36 0.268614 7.31958 -0.965127 0.193366 -0.176466
10.1814 0.115034 8.29316 -0.971394 -0.22482 -0.0764821
11.0551 2.65969 9.07536 -0.880182 0.0766111 0.468413
10.4123 0.435877 11.0519 0.182264 -0.913505 0.363715
12.7788 1.79429 8.05039 0.94453 -0.320105 0.0734556
11.6336 0.617167 10.4986 0.502234 -0.822478 -0.267003
13.8921 3.17231 8.71726 0.0587945 0.0993323 -0.993316
0.154109 14.0521 11.3512 0.887349 -0.405406 -0.219677
2.0583 1.85786 6.6731 -0.167867 -0.798435 -0.578206
0.42524 13.3722 8.31549 0.42612 -0.256845 -0.86744
1.17279 3.62707 10.9835 0.809166 -0.527245 -0.259352
4.03491 0.933945 9.16129 -0.0161634 -0.975463 0.219571
2.18442 0.936724 9.75484 0.30017 -0.207052 0.931143
3.34365 1.3807 8.36834 -0.456699 -0.557959 0.692898
1.67787 4.39335 13.1384 0.607087 0.790807 0.0779151
4.5513 1.87397 9.86853 0.691454 -0.170572 -0.701995
6.04826 2.87765 8.02636 -0.607846 -0.641644 0.467778
3.87833 0.158428 5.60996 0.839044 0.293732 -0.457959
6.33381 3.81891 8.7848 -0.419001 0.906087 -0.0586872
7.22186 1.11841 12.9905 -0.168941 0.734868 -0.656831
7.58552 3.10209 10.4585 0.0107851 0.179561 -0.983688
5.40893 13.9307 10.4563 0.670784 0.147077 -0.726923
8.37279 0.158566 13.453 -0.386803 -0.510443 -0.768005
9.09757 1.22645 9.02784 -0.262805 0.433942 0.861759
7.44451 2.07092 10.4293 -0.749992 0.0354848 0.660495
11.011 3.14266 8.12786 -0.705072 0.383276 0.596635
11.9192 3.6063 8.30412 -0.474618 -0.0538405 0.878544
8.94049 2.28527 13.0676 -0.311032 -0.124348 0.94223
11.6291 4.10414 9.95953 0.978455 -0.199354 -0.0537065
10.9468 1.7259 11.8676 0.133525 -0.89657 -0.422296
11.1109 4.13493 7.98498 -0.213598 0.299048 0.930025
1.56287 3.04003 8.81342 0.90182 0.412307 -0.129321
13.266 7.16511 7.75209 -0.00175595 0.757091 0.653308
12.9426 2.94781 8.42627 0.417847 -0.308765 -0.85444
13.6656 4.84883 7.67379 0.516536 -0.804727 0.292582
1.5789 4.45153 11.5886 -0.430763 0.211771 0.877266
0.638676 6.95844 6.87324 0.885174 -0.447766 -0.126378
1.37139 3.92189 8.3373 0.89456 -0.0375911 -0.445364
13.8799 5.04959 9.76044 0.860823 0.449741 0.238151
2.12297 6.22959 10.8267 0.754464 -0.331347 0.566562
2.30589 5.64554 8.12909 0.244287 -0.326785 0.912981
3.38667 2.76055 7.14699 0.645607 -0.0496848 -0.762052
0.64622 7.87915 9.49468 0.218086 -0.649989 0.727978
3.70569 3.01302 9.86444 0.202485 0.903512 0.37771
4.36831 7.09786 9.94538 -0.081588 0.28358 -0.955472
4.69721 2.79458 9.46184 -0.04109 0.158509 0.986502
2.98912 4.18613 10.105 0.494802 0.867524 0.0507259
3.86189 4.6815 11.1099 0.373666 -0.920395 0.115097
7.22821 2.13884 7.52984 0.172682 0.98095 -0.0889861
6.20674 1.5988 9.53246 0.11526 -0.865613 0.487268
4.78783 5.08829 9.85502 -0.765643 -0.634715 -0.104532
7.61563 13.3097 10.769 -0.182876 0.0243502 -0.982834
9.43178 2.82801 10.5949 0.0764099 -0.907574 -0.412881
9.35499 4.885 9.67997 0.735831 -0.63616 -0.232062
8.60031 7.23845 9.71595 -0.406666 -0.287943 0.867013
11.9818 3.68304 11.3902 0.749007 0.0698682 0.658867
8.78252 6.42852 9.13 0.827632 0.154616 -0.539555
9.58344 3.12115 6.83535 -0.0048656 0.966023 -0.258409
6.46137 7.79676 5.7917 -0.779223 0.582758 0.230661
12.3013 6.97681 7.76919 -0.0391586 0.990148 0.134441
9.96061 4.69075 8.37186 -0.464482 -0.845183 0.264426
13.3853 5.81884 9.23855 -0.979114 -0.0771434 0.18811
13.8074 7.44781 10.076 0.297611 -0.655921 0.693683
0.815284 4.72943 7.80308 -0.518875 0.689432 0.505423
5.90646 7.90142 6.921 0.910626 0.384867 0.150459
12.8946 6.51219 6.04339 0.934904 -0.0542475 0.350731
1.30701 7.67075 8.2994 0.621523 0.507008 -0.597204
2.01227 8.15414 11.2278 0.881423 0.15495 -0.446189
4.08761 9.48274 11.7413 0.456229 0.362897 -0.812503
4.30936 6.79708 8.09 0.789069 0.549376 0.274875
3.22205 7.19993 8.83366 0.374124 0.572115 0.729873
3.32439 3.7004 6.9812 -0.139983 -0.1652 -0.976275
3.54447 7.51802 7.64504 0.987846 0.0625981 -0.142276
4.15297 5.3337 9.07256 0.871745 -0.193219 -0.450252
1.58465 8.00825 9.17782 0.0325533 -0.901975 0.43056
4.81729 7.905 10.1767 0.728747 -0.542019 0.418501
6.66933 6.99207 7.49007 0.624632 0.779772 0.0423162
6.38085 3.84077 5.8974 -0.167656 0.609815 -0.774608
7.26212 5.54518 9.91665 0.835732 -0.547776 0.038639
9.06618 4.74835 10.7158 0.974504 -0.223632 -0.018167
9.22817 5.98681 6.96719 -0.63329 0.652747 -0.415771
8.64934 6.03284 7.84854 0.946306 -0.0959598 0.308703
11.5049 6.39009 12.1634 0.659688 -0.521165 0.541479
10.0491 5.60884 6.26837 0.0600651 0.981374 0.182473
9.32987 6.655 9.9515 0.468184 0.678611 -0.565943
7.44941 5.12909 8.06796 -0.822485 -0.372692 -0.429672
11.3281 7.99948 8.96521 0.96208 -0.0111636 -0.272539
11.3259 5.59102 13.7491 0.159867 -0.2301 -0.959946
11.703 11.003 10.0714 -0.0880169 0.94736 -0.307835
13.6439 8.1738 10.7328 0.967543 -0.231303 0.101786
11.9343 8.26464 12.7426 -0.665274 0.528161 0.52769
0.552101 7.86114 7.67592 -0.535942 0.0198927 0.84402
2.81114 8.87033 5.32636 -0.0846157 -0.802424 -0.590725
3.65018 8.55987 8.06441 -0.0779438 -0.103529 0.991568
3.28836 8.49736 6.10086 0.543904 -0.462744 -0.700026
0.269933 8.54733 11.7273 -0.621718 -0.779271 0.0787624
3.30063 11.2534 10.7653 0.774484 0.564875 -0.284765
4.34338 5.24785 7.52154 0.373257 0.717868 0.58766
0.428478 8.96546 7.28426 -0.744577 0.2038 -0.635665
3.84466 8.23234 11.7459 0.895768 0.411042 0.169245
6.73676 9.76607 6.32163 0.54136 -0.472091 -0.695744
5.74119 8.36857 2.1735 -0.0736277 -0.985456 -0.153153
4.76646 10.1623 12.4442 0.00536797 0.997202 -0.0745598
6.02667 6.74192 8.62448 -0.0565451 -0.759781 0.647716
10.1835 5.79306 5.27503 -0.76664 -0.640568 -0.0440043
7.77449 7.2338 9.16926 0.487726 -0.356251 -0.797
8.17527 8.06494 10.9761 0.790103 0.583494 0.18781
8.55991 6.61767 13.3215 -0.916209 0.291764 0.274654
8.32007 8.90123 8.2296 -0.39772 -0.914562 0.073445
8.41813 8.19869 9.79716 0.713533 -0.0981144 0.693718
7.51325 8.93699 13.5976 -0.70688 0.58452 -0.398317
10.1805 8.21663 11.2404 0.345119 -0.672575 0.654626
13.1172 9.2035 10.3909 0.714416 -0.366989 -0.595758
11.5108 8.9529 9.11428 0.475124 0.270159 -0.837419
8.4695 9.96276 12.5117 -0.367276 0.716322 0.593288
12.3046 10.9561 0.131848 0.0244596 -0.961717 -0.272953
0.631686 10.5447 12.6945 0.278017 -0.909928 -0.307794
11.9751 9.31823 12.4541 -0.119135 0.348611 0.929665
12.9826 9.59737 12.8546 -0.0246684 -0.0498542 0.998452
13.7245 13.1815 1.07497 0.437378 -0.305809 -0.845684
0.713619 10.2414 13.6795 -0.783499 0.52159 0.337747
0.151035 5.9632 11.9785 -0.358099 -0.927746 0.105131
4.786 8.14851 13.6638 -0.452116 0.676938 -0.580815
1.98139 12.5293 0.581102 -0.359127 -0.932353 -0.0417834
1.85833 9.55776 9.94921 0.0710658 -0.994898 -0.0716029
2.25398 9.76988 12.4294 0.737515 -0.359964 0.5714
2.79054 13.7129 8.34339 0.93869 0.263639 0.222162
3.75746 9.95627 0.15437 -0.539343 -0.750993 0.380945
3.63352 12.1284 8.90525 0.148563 0.0282431 -0.9885
2.70065 10.2433 0.406438 0.423329 0.228874 -0.87659
9.94654 10.8492 14.039 0.871226 0.0563867 0.487633
7.58273 7.97285 1.54777 0.771599 -0.0463556 0.634418
5.82424 9.50925 10.1 -0.56064 0.501546 0.658889
6.88814 8.62867 0.225483 -0.764525 -0.202986 -0.611799
8.31796 7.32128 1.21183 0.239663 0.802406 -0.546539
9.3108 7.27965 0.873313 0.340914 0.92197 -0.183706
6.62688 10.1015 11.6144 0.21474 0.0322521 0.976139
6.96539 9.15946 11.8837 0.424449 0.375211 -0.824051
7.7108 12.4903 1.40417 -0.37483 0.780757 -0.499921
8.85527 11.7433 13.4893 -0.954423 0.133977 0.266695
10.3366 12.0149 11.0714 -0.202705 0.714788 0.66932
12.828 12.2922 8.40222 -0.912718 -0.32476 -0.247945
9.58992 13.3868 11.07 -0.315043 -0.683325 0.658646
11.9008 11.1147 13.234 0.547497 0.820126 0.166251
8.5434 12.7256 13.1134 -0.532399 0.584945 0.611875
13.3265 11.0826 11.2367 -0.77784 0.322016 -0.539695
13.051 9.87962 9.70899 0.401081 -0.586275 -0.703858
0.351061 0.00981196 0.632657 0.38926 0.39049 0.834263
3.22005 13.2139 0.207874 -0.631605 -0.0541399 -0.773397
2.36531 12.4995 12.6369 -0.940834 0.287941 0.178663
2.86523 11.5692 11.7749 -0.0156974 0.688831 -0.724752
2.5706 13.503 12.3376 0.0581367 0.514757 0.855363
4.13832 12.9352 9.02777 0.285984 -0.377053 0.880934
2.05776 11.1528 9.30369 -0.547933 0.716412 0.431885
3.28643 0.237355 10.4999 0.0912799 0.0439574 0.994855
7.5992 10.7128 0.311661 0.902772 0.30876 -0.299449
6.76042 11.3906 0.143902 -0.666118 0.152886 0.730008
5.24873 9.6174 9.24154 -0.285251 0.779684 0.557426
6.75536 12.299 0.890161 0.0894359 0.173231 -0.980812
8.97122 10.5102 1.73946 -0.133451 0.852353 0.505653
7.35398 11.4744 12.1797 -0.0393344 0.832352 -0.55285
5.76871 8.4315 10.571 -0.758494 0.307848 0.574383
7.82441 12.2425 12.7236 0.508771 -0.85891 0.0585278
6.20331 8.97938 0.86409 0.482188 0.854729 0.192182
10.0175 10.4273 11.5817 -0.247152 0.608824 -0.753823
9.69525 12.5205 10.4613 -0.779853 -0.625959 -0.00199256
6.72585 13.2248 13.3926 -0.414888 -0.41954 -0.807375
9.27271 12.6047 13.7597 0.538641 0.122441 -0.833591
9.13154 13.5218 12.906 0.42084 0.126495 0.898272
10.059 9.9526 10.6656 -0.672855 -0.503614 0.541885
11.1439 13.9235 1.35006 -0.283629 0.956269 -0.0714386
10.9482 11.6849 11.7284 0.704043 -0.138322 -0.696556
12.4289 1.07797 8.66322 -0.900722 -0.0210822 -0.433884
11.0153 13.3295 13.1145 -0.332588 -0.610226 -0.719034
11.7519 2.86348 11.9483 -0.405557 -0.507694 -0.760112
1.72213 12.5708 11.6715 -0.271955 0.87245 0.406043
1.71018 13.0588 10.1314 0.0960205 -0.929302 0.35662
0.789241 13.0606 10.4833 -0.232658 0.687523 -0.687883
13.6899 0.497109 10.5348 -0.076315 0.963368 0.257095
2.12355 13.1341 9.16191 0.364505 0.911139 0.192255
5.47057 12.8663 10.1256 0.708521 -0.560539 0.428711
2.99918 12.8708 8.81343 0.400988 0.463113 0.790402
2.29481 1.66599 13.4603 0.400239 -0.768053 -0.499903
2.99611 0.579522 7.84951 -0.813176 -0.0386716 0.580732
4.13486 3.61381 9.08849 0.868694 0.378683 0.319327
4.8605 12.1946 13.8436 -0.0125852 -0.971745 0.235699
5.57661 10.8877 10.623 0.120625 -0.162567 -0.979296
8.21501 11.0943 11.8597 -0.337732 -0.935461 -0.104162
4.32756 12.7962 11.8971 0.529542 0.827905 0.184821
9.60829 11.1439 8.92758 -0.158235 0.0890241 0.98338
5.15018 1.1802 12.4067 -0.333273 -0.817603 -0.469526
8.04309 12.0647 3.11371 -0.642965 -0.291795 -0.708133
6.82591 13.5007 11.9143 -0.410762 -0.820564 -0.397427
7.9208 1.19191 10.6562 0.973349 0.226186 0.0378433
7.81408 2.17598 12.8526 -0.653679 0.65361 0.381442
9.10158 13.3048 0.966728 0.303499 -0.186393 0.934423
10.6598 2.64523 10.5252 -0.628471 -0.407415 0.662599
9.311 1.32617 13.0175 -0.927739 -0.0226746 0.37254
11.2782 2.65116 13.6042 -0.752725 0.28067 -0.595508
11.9581 1.98936 10.6131 -0.0611375 -0.439482 0.896168
13.139 4.07492 8.52195 -0.318923 0.206677 -0.924972
12.4196 2.83008 11.0903 0.428389 -0.316211 0.84646
12.4578 0.781638 13.0026 0.554422 -0.657518 0.510183
13.4974 1.71122 9.81422 -0.702722 -0.695396 0.150355
12.8728 2.04739 8.98634 0.970434 0.168282 -0.173026
4.92372 1.40957 5.90514 -0.800211 0.588783 0.114001
3.99334 6.02646 11.7522 -0.619131 0.287183 0.730892
3.96084 13.6748 13.7365 0.555245 -0.456903 0.694941
2.03164 6.85915 13.3353 -0.332541 0.899322 -0.283965
4.43823 0.743356 8.15242 0.324693 0.866844 0.37836
2.77529 2.43499 11.1955 0.300656 -0.353469 -0.885813
5.96874 1.77852 10.5561 -0.412219 0.67795 -0.608654
3.13471 1.39293 11.2463 -0.97296 -0.0539034 0.224596
3.76155 1.0288 10.146 0.786743 -0.367413 0.496028
5.72945 1.75631 11.7621 -0.636569 -0.335574 -0.694384
5.38391 0.833773 9.9262 0.0745315 -0.00881245 0.99718
4.0768 4.96795 12.0415 0.918334 -0.392273 -0.05277
4.8827 11.8071 11.6723 0.73068 0.61184 0.302915
5.74248 2.61602 11.2263 -0.905049 -0.336778 -0.259743
9.43514 9.85027 13.4271 -0.00110881 -0.0159081 -0.999873
8.60506 1.00825 11.5912 -0.185461 -0.982212 -0.0293982
8.5512 3.90237 7.74624 -0.953672 0.276579 -0.11838
6.52306 4.92412 10.2265 0.693932 -0.146551 0.704969
8.58626 3.48615 0.201295 0.733234 0.367379 -0.572188
11.872 5.02828 10.5649 -0.672081 -0.632522 0.384997
8.9502 2.79151 7.90516 -0.695786 -0.196461 -0.690858
10.9437 4.57599 13.1934 0.747164 -0.29215 -0.596987
12.8077 1.85536 12.7445 -0.581058 0.74292 0.332327
9.31833 3.31482 12.7738 0.483526 -0.427821 0.763657
13.3095 5.06929 8.58763 -0.884116 0.310905 -0.348822
13.8661 2.94327 14.0444 -0.490682 -0.0815007 0.867519
0.652836 1.70391 9.20539 0.681474 0.566409 0.463437
13.9382 4.80085 10.7247 -0.213964 -0.92456 -0.31529
1.37879 3.51315 11.9663 0.90077 -0.00427436 -0.434274
12.82 4.99707 11.7659 0.135232 -0.269455 -0.953471
1.50776 6.26762 11.611 -0.761098 -0.131526 -0.635161
2.29806 7.95416 12.2423 0.57752 0.815966 -0.025882
1.85569 5.35907 11.4232 -0.447932 0.09665 -0.888828
2.18674 7.28312 0.190838 0.53887 -0.828797 0.15071
3.39153 3.16635 11.8804 -0.0372195 -0.463414 0.88536
3.55444 6.59472 9.57616 -0.301448 0.449636 0.840807
5.29472 3.56791 8.51564 -0.361535 0.489672 -0.793419
3.34626 4.60873 12.849 -0.922376 -0.198705 -0.331268
3.35903 3.66774 13.3683 -0.568654 -0.113545 -0.814702
5.76638 6.41264 12.9099 -0.0747637 -0.325482 0.942588
8.19078 3.79359 10.817 -0.541138 0.601885 -0.587285
4.14016 3.8566 12.7395 0.527667 -0.267892 0.806103
6.37602 3.71981 12.116 0.509139 0.85324 -0.112959
9.86399 3.56225 9.98367 -0.594501 -0.274998 -0.755609
10.9416 3.83892 11.8211 0.205667 0.944604 0.255781
8.22029 5.71671 11.5449 0.49151 0.823031 -0.284671
9.13149 5.22522 11.9307 -0.606054 -0.697219 -0.382863
7.61022 4.24911 8.74 0.354593 0.836684 0.417402
11.3729 7.09705 7.34424 -0.356399 -0.893245 0.274031
10.3005 4.34997 2.59448 -0.211959 -0.976008 0.0498096
11.5805 4.66317 0.0383385 -0.554817 -0.0734043 0.828728
11.3606 6.47843 13.216 -0.81137 -0.205387 -0.547261
13.0341 6.49178 8.48607 -0.675213 0.605963 0.420591
13.6709 7.13731 13.6162 -0.712322 -0.678449 -0.179735
0.435559 3.73927 0.0603703 0.00915938 -0.270593 0.96265
1.70539 8.92259 12.2984 0.0134998 -0.127379 0.991762
0.97999 5.49185 11.9736 -0.260637 -0.609034 -0.749097
0.16683 6.36093 13.9346 -0.124918 -0.59989 -0.790271
4.89418 6.8259 13.6616 -0.160379 -0.562824 0.810868
3.56005 8.93354 11.1452 -0.85512 0.260415 0.448279
4.75477 5.4625 13.842 0.843064 -0.0902036 -0.530195
2.85533 7.49044 13.4257 0.411235 -0.900468 -0.141575
1.60444 7.15559 11.2809 0.989453 -0.0893264 0.114034
2.72632 4.84985 11.0333 0.00269827 0.718137 -0.695897
1.77568 7.66225 10.4023 -0.712015 0.702074 -0.0112159
6.28695 2.23783 1.74919 0.297287 -0.230579 -0.926528
5.69172 9.26516 13.4427 0.36955 0.23135 -0.89995
8.95863 7.16354 12.5131 0.236392 -0.732502 -0.638405
6.85093 6.72467 9.37239 0.664788 -0.676105 -0.317709
5.88839 7.94832 12.5021 -0.587126 0.708741 0.391114
7.26431 5.89342 12.1541 -0.119967 -0.834682 0.537507
6.87429 4.99152 9.17296 -0.125 0.856197 -0.501299
7.81057 7.07719 6.96094 -0.37381 -0.368395 -0.851206
12.0631 6.24544 2.80596 0.819553 0.42233 0.387259
9.90092 4.7644 1.01339 -0.194821 0.749628 -0.632537
11.2552 8.1667 10.8251 -0.47885 -0.871907 0.102379
10.0207 5.42551 10.2536 0.522702 -0.325179 -0.788062
9.89802 7.50466 10.5056 0.375997 0.750684 -0.543231
12.9677 8.09651 1.32831 -0.684683 0.471088 0.556135
11.1198 8.63967 12.1485 -0.1733 0.888123 0.425682
12.8997 7.38162 10.4563 0.276117 -0.166702 0.946557
13.1793 7.97498 0.00815662 0.333798 0.897103 -0.289456
0.0327977 6.87993 12.7673 -0.877705 0.21034 -0.430571
13.2584 6.23322 11.8091 -0.17072 -0.257591 0.951053
1.77194 5.6673 9.62936 0.371393 -0.852961 0.366776
0.834684 8.14655 12.6596 0.115649 -0.957167 -0.265438
3.54556 6.75944 0.475001 0.469152 -0.506217 -0.72363
11.9879 7.45158 10.8207 0.324046 0.775149 0.542344
2.54394 7.10754 9.5216 -0.0282578 0.997638 0.0626021
1.91552 9.45842 0.0810395 -0.939205 0.0628406 0.337557
6.31182 6.96028 13.7208 0.657127 -0.675214 0.335068
3.48903 9.80792 10.753 0.226252 -0.489239 -0.842292
4.19353 7.76457 10.9439 0.813306 -0.061269 0.578601
2.6482 9.58073 9.35629 -0.353082 -0.577492 -0.736095
4.52018 10.1216 0.872135 0.18079 0.971395 -0.153969
7.71051 8.47292 11.752 0.483263 0.826129 -0.289772
7.95902 4.85258 5.97956 -0.58922 0.0645749 0.805388
7.48247 6.01692 13.1909 0.691093 -0.634583 0.34597
8.68286 7.33091 0.0317743 0.77081 0.449002 -0.45194
8.26897 9.01402 10.2432 -0.935259 -0.352751 0.0292662
10.4853 6.4324 2.13447 0.726537 -0.0514401 -0.685199
11.2413 10.119 1.23458 -0.739745 -0.665385 0.100202
11.0664 9.62148 11.4311 -0.438714 -0.450869 -0.777334
9.46468 7.79507 11.9571 0.413937 0.214231 0.884738
9.91354 8.91468 12.8244 -0.288853 -0.0679681 -0.954958
11.6609 9.17688 1.39298 0.769041 0.449776 0.454177
12.3518 5.44124 2.2595 -0.574309 -0.0433909 -0.817488
13.8365 10.1301 12.9376 -0.438067 0.713693 -0.54657
12.9468 7.68497 13.1418 -0.852802 -0.271783 0.44594
2.49422 11.5286 1.14699 0.0112057 0.354459 0.935004
13.865 0.830563 0.396119 -0.78625 -0.579382 -0.214774
11.821 11.0431 12.1333 -0.941226 -0.316951 0.11677
5.07198 8.78605 1.5601 -0.463709 -0.805611 0.368733
1.62188 12.2948 1.7301 0.67533 0.575483 0.461247
1.72704 10.4441 0.0385348 0.557324 0.00211578 -0.830292
5.4054 10.5857 2.55282 0.355493 -0.201105 -0.912788
3.51901 10.7176 0.79609 -0.152072 0.740342 -0.654804
2.67106 9.24614 10.4691 -0.383276 0.68005 0.625005
1.51111 8.94856 1.96604 0.00525084 0.867139 -0.498039
7.5138 11.7138 0.779203 0.45118 0.736095 -0.50458
7.40515 8.9671 1.73683 0.90614 0.407474 0.113471
6.87359 9.55915 2.30226 0.343 0.694602 -0.63236
6.88757 11.3887 4.17301 -0.799227 0.0731769 0.596558
7.22141 6.99624 1.54828 0.165457 -0.134884 0.97695
4.46041 8.9554 9.00586 -0.351009 0.935623 0.0374401
4.60002 9.8142 2.06229 -0.380884 0.811832 -0.442557
9.01635 8.14916 1.57797 0.369003 -0.877148 0.307325
8.3467 9.42205 13.3695 0.670831 -0.717284 -0.188389
9.98422 10.3775 1.79846 0.0278593 -0.194887 -0.98043
9.81722 12.6454 0.662588 -0.346462 -0.507034 0.789228
11.5548 9.59618 0.437051 -0.968301 0.181776 -0.171321
9.78991 11.7645 0.190605 0.958417 0.126285 -0.255908
11.5356 8.01553 0.25791 -0.593425 0.775961 -0.213848
13.543 12.343 13.6467 -0.189362 0.946944 0.259692
11.7325 12.5636 13.3849 0.132464 0.300834 -0.944432
11.424 11.8464 12.6011 0.645643 0.333244 -0.68709
12.7223 10.6326 13.0376 0.462872 0.460489 0.75743
12.3144 13.3216 13.5587 0.34513 -0.752472 0.560955
1.20979 13.5992 0.537179 -0.0862207 0.28504 -0.95463
1.16065 12.705 0.00339673 0.570838 0.508593 -0.644575
1.55203 0.452567 0.612066 0.779534 -0.279777 0.560403
3.28893 12.3794 1.0607 -0.708386 0.61704 0.342711
2.56749 13.5691 10.5748 -0.767918 0.597499 0.230861
1.83058 0.844716 12.5427 0.108256 0.984479 -0.138137
6.77906 10.7975 2.43261 -0.579053 0.288394 -0.762579
12.8935 0.175095 1.1634 0.0660645 -0.790897 -0.608373
4.23442 12.6527 1.94113 -0.183778 -0.00963629 0.982921
5.87819 12.1368 14.0237 -0.32977 0.685216 0.649408
8.24179 10.8683 1.18697 -0.424439 -0.90542 -0.00815471
6.77156 11.9984 3.14211 -0.503636 -0.863878 -0.00816136
11.009 9.14037 2.18539 -0.125336 0.989079 0.0775433
9.37465 9.73254 2.35402 -0.568459 0.660494 0.490511
7.23714 7.89174 13.592 -0.335032 0.175028 -0.925807
5.08296 13.0902 2.358 -0.0265107 0.447848 -0.893716
10.2283 6.6403 1.08422 -0.185494 0.876189 0.444842
9.37233 10.9308 0.938386 -0.56492 -0.574957 -0.591853
4.42131 11.5602 1.61463 -0.909167 0.328148 0.256388
3.64649 1.31682 0.421457 -0.686894 -0.499535 0.527864
10.8221 12.526 0.735347 0.260523 0.925565 -0.274694
10.3628 13.1476 1.3645 -0.35733 0.662497 -0.658341
10.2836 10.3737 13.125 0.419316 -0.77385 0.474689
11.9123 0.326659 0.850695 -0.0561906 -0.917041 -0.394813
13.9557 12.6104 12.7489 0.465478 0.533872 0.705911
12.0877 0.602585 11.504 -0.618742 0.0370454 0.78472
11.8168 10.553 11.2742 -0.928635 0.236116 -0.286157
11.8111 11.7912 1.7545 -0.309668 -0.307748 -0.899665
0.109222 13.5165 12.2915 0.90029 -0.00214473 0.435285
12.9456 2.30245 10.398 -0.0928864 -0.812577 0.575404
1.74887 0.607001 13.6161 0.376884 -0.865092 0.331021
13.6419 3.31877 12.062 -0.0409314 0.94579 -0.32219
0.0176195 0.985674 1.60648 0.273092 0.881078 -0.386163
2.26904 1.11782 0.20315 -0.815908 0.465612 0.342782
2.5144 0.438003 11.8926 -0.714314 -0.606445 -0.349257
0.843398 0.516181 11.9047 -0.80985 -0.163355 0.563435
4.27444 11.8647 13.0925 -0.570326 -0.661787 0.486586
4.70312 2.5843 0.654734 0.0361594 0.996053 -0.0810663
8.26594 12.6661 2.30325 -0.929208 0.354533 0.104304
5.58347 12.3198 13.0082 0.109218 0.902307 0.41703
6.16599 1.02009 12.6656 0.19455 0.186289 0.96304
5.33797 0.481004 13.1474 -0.38009 0.847413 0.370706
9.02201 10.4438 11.7961 0.161875 0.410446 0.897402
5.92532 0.45933 13.9457 -0.648422 0.344431 0.678908
5.94508 12.4526 2.59501 -0.354701 -0.747363 0.561814
5.29291 3.54849 11.0168 -0.389739 0.332888 0.858655
8.66698 12.9602 10.7394 0.438309 0.418904 -0.795239
7.41439 3.9056 11.3993 -0.60542 0.00891967 -0.795856
13.1151 12.4438 0.9331 0.772608 -0.61784 -0.14612
13.431 1.83387 0.454086 -0.929363 -0.335706 0.153577
10.9438 13.5643 2.28051 0.748985 -0.614943 0.246714
11.7825 0.69976 13.745 0.770133 0.0878365 0.631807
1.02557 2.65771 13.635 0.500477 0.845958 0.184057
12.8884 1.42451 13.6374 0.965864 -0.259038 -0.00258146
11.1383 12.5069 10.8965 0.154475 0.203052 0.966906
12.223 13.842 12.119 -0.900268 -0.392349 -0.188625
1.03924 2.70644 11.5061 0.831579 -0.514675 0.208772
1.21961 2.72085 12.659 0.818682 0.460345 0.343281
0.259993 1.16247 10.0078 0.272609 0.793466 0.544147
13.0412 13.0061 12.8541 -0.5011 -0.851108 -0.156568
3.06389 1.90858 13.9908 -0.436268 0.0234608 0.899511
6.24556 3.77607 4.40707 0.669897 0.229379 -0.706133
4.64163 0.278076 13.8665 0.751911 -0.620602 0.222448
5.48299 4.21961 1.70962 -0.764779 -0.559834 -0.318902
4.51939 1.71938 11.916 0.58673 0.809763 0.00565184
2.79791 2.89463 13.7263 0.25998 0.464396 0.846609
4.33602 2.48793 12.6108 0.00582968 -0.808239 0.588826
3.78398 2.59849 0.0936691 0.0692253 0.355924 -0.931947
4.00224 0.181131 0.664229 0.968819 0.0530056 0.242032
5.49159 2.22497 13.8616 0.726725 -0.533 0.433338
3.87237 13.5207 10.9019 -0.478542 -0.445987 0.756368
7.05848 2.7308 0.130661 -0.955412 -0.0447893 0.29186
7.20599 1.83692 13.738 -0.84957 0.23401 -0.472726
8.14416 3.16905 12.8454 0.303818 -0.407948 -0.860972
7.25497 3.61541 12.6327 -0.253089 -0.809236 -0.530173
6.47751 0.13616 0.604395 0.797918 0.532431 -0.282567
11.0006 0.767506 0.293414 0.577621 0.774936 0.25657
10.129 4.01802 12.7536 -0.871024 0.491238 0.00153362
10.2093 0.994428 13.6884 0.714197 0.623422 -0.318225
10.2141 1.1992 0.663077 0.201017 0.825374 -0.527589
13.2005 2.4081 13.6373 -0.67258 0.492758 0.552111
11.0046 3.37162 0.52159 -0.763635 -0.605382 -0.224442
0.651604 4.57065 1.02466 -0.565111 0.399664 -0.721747
13.2681 3.58864 13.5207 -0.398229 -0.53519 -0.744973
0.868596 1.39824 12.2108 0.158397 0.389386 -0.907353
1.21669 4.31387 0.20415 0.329047 -0.631019 0.702526
13.3128 3.19744 10.8745 0.591145 -0.800054 0.102283
2.20987 4.76143 0.417116 0.113647 -0.980511 0.160255
4.48555 5.37618 1.60787 0.609925 0.364442 0.703685
2.81901 4.35913 1.33448 -0.902977 0.241528 0.355381
4.67389 3.13857 3.49682 -0.446018 0.783474 -0.432708
4.67498 6.59854 12.2837 0.571875 -0.0863911 -0.815779
3.60401 2.19709 11.7772 -0.688969 -0.477652 0.545134
6.18306 6.14819 10.949 0.441154 0.83413 0.331074
4.93881 4.61397 10.8101 0.273555 0.740291 0.614115
5.60289 1.20484 2.11754 0.870541 0.109422 -0.479776
11.0186 3.56818 1.79014 -0.474175 -0.786128 0.396435
5.42316 3.88488 12.7611 0.178637 0.981498 -0.0689226
5.89803 4.33772 10.764 0.101664 0.290557 0.951442
8.08763 0.412767 0.733762 0.113922 0.971181 0.209353
9.76898 3.63879 0.534508 -0.616271 -0.748371 0.245256
9.92099 3.36033 11.9479 -0.10816 0.958669 -0.263165
10.8106 5.32923 10.829 -0.361738 -0.519842 0.773893
6.28692 6.42892 1.23548 -0.0132839 -0.443244 -0.896303
11.6405 5.1079 2.90983 -0.483329 -0.390611 -0.783464
12.5803 4.44633 2.41981 0.622504 0.193698 -0.758267
11.563 5.69324 11.3618 0.322031 -0.838281 0.439978
9.8233 1.62113 1.45547 0.6223 -0.461308 0.632407
12.8762 4.72784 13.8435 -0.457163 -0.762248 0.458237
11.1151 3.70147 13.6308 -0.986473 -0.126485 0.104271
13.3574 4.46265 12.9497 -0.925671 -0.367813 -0.0885779
0.816046 5.37375 1.75254 -0.934446 -0.118045 -0.33597
3.28645 5.89442 1.20513 -0.894952 -0.410603 0.174542
14.053 4.35529 1.79795 -0.286678 -0.495757 -0.819781
5.96287 3.22779 13.6779 -0.422784 0.42236 0.801789
1.07055 5.72392 13.9555 0.628121 0.0143105 -0.777984
3.27652 7.62439 12.5302 -0.3213 -0.824685 -0.465468
5.32343 6.67909 1.18528 0.0507909 0.998171 0.0327786
3.41288 8.38746 0.985161 -0.310182 -0.727482 -0.612011
0.834107 6.95816 2.52459 -0.787786 -0.417329 0.453023
5.35312 2.15492 1.38901 0.390696 -0.831677 -0.394551
6.08407 3.44566 1.92452 -0.393323 -0.362938 -0.844733
4.46856 5.66058 12.6739 0.931993 0.0420814 -0.360026
5.27081 3.17603 2.68016 -0.166126 -0.985008 0.0464993
2.82379 4.53727 13.7242 -0.51059 -0.855851 -0.0825641
5.84887 10.6007 13.4732 0.932622 -0.268636 0.240939
7.35033 5.74514 11.0267 -0.696697 -0.42683 0.576567
9.11283 4.39972 0.498593 -0.246988 -0.421607 0.872493
10.2436 5.66978 13.2932 0.259326 0.616745 0.74322
8.83478 6.25985 0.150436 -0.939566 -0.342266 0.00839037
9.01479 5.12755 1.37 -0.445517 0.100391 -0.889627
8.99994 8.60035 2.56432 0.991182 -0.113173 -0.0689269
9.62827 1.8191 13.7842 -0.51778 -0.442128 0.732411
10.8858 7.53201 13.7563 0.19317 -0.750962 0.63146
13.2669 3.29333 1.82662 0.592427 -0.533561 0.603609
10.0257 7.04367 12.8301 0.009462 0.164433 0.986343
12.5245 5.95747 1.04361 0.601965 -0.538782 0.589367
11.7526 7.2038 12.6808 -0.888795 0.442805 -0.118185
1.34922 6.73194 0.207206 -0.333258 0.69978 -0.63186
12.7107 6.34072 2.03546 -0.858796 0.404358 -0.314585
1.54446 7.32946 0.977297 -0.847576 0.392977 -0.356628
2.07723 12.0922 13.656 0.911346 0.133378 0.389434
13.2927 5.39868 0.517399 0.0818677 0.962941 -0.256986
13.0348 6.83077 1.19561 -0.75718 0.650809 0.055908
0.410959 7.85193 2.3822 0.528408 0.253955 -0.810118
1.13376 11.1229 13.6759 -0.453735 0.283783 0.844743
