16.7702 10.2936 15.4763 -0.687613 0.198932 -0.698294
16.039 9.49617 14.6975 0.10962 -0.0663113 0.991759
18.6188 9.34313 16.746 0.505453 -0.353186 0.78726
18.6299 6.94655 19.0243 0.686867 0.445855 -0.573957
18.3445 12.577 14.2457 0.0908347 -0.981437 0.168912
18.8936 9.46465 1.14508 0.947437 0.0296327 0.318566
3.18742 9.70444 16.1019 -0.85466 -0.401306 -0.329407
3.85217 10.2605 14.6255 -0.671299 -0.679827 0.295286
2.44322 10.5027 16.4354 0.868086 0.455033 -0.198422
3.49339 8.67058 15.5827 0.0375692 0.0898803 -0.995244
4.85932 9.34192 18.954 0.313908 0.357224 -0.879689
4.17998 11.0994 13.3047 0.749404 0.39997 -0.527653
4.58317 10.3153 15.6106 0.903668 -0.424711 0.0548082
8.96574 10.9011 15.8015 0.555074 0.711008 0.431695
6.91292 10.0985 16.2646 0.940145 0.339707 -0.0269387
8.27704 14.3123 14.4792 0.571832 -0.792536 0.211886
13.1248 8.62207 16.6781 -0.682662 0.67082 -0.289783
9.66821 12.2246 15.1479 -0.62762 0.355862 -0.692427
14.223 8.76978 16.0662 -0.101122 0.706491 0.70046
15.0868 13.1148 15.6835 -0.830344 -0.218657 0.51256
11.7788 9.95796 17.4741 0.0123414 0.408899 -0.912496
12.3225 13.1155 16.0048 0.96461 -0.255286 0.0660093
15.6449 10.7091 17.3375 -0.690297 -0.70347 -0.169171
17.3677 13.3168 10.8239 0.0853736 0.169263 -0.981866
15.5138 10.3366 16.1568 -0.932555 -0.356925 -0.0542703
16.1177 12.7949 16.2681 -0.673458 -0.497016 0.547202
0.454303 10.9883 17.609 -0.935561 -0.0685414 -0.34645
17.7221 11.3568 17.0699 -0.930215 -0.318427 -0.182494
17.6288 10.3653 14.619 -0.178141 -0.853705 0.48934
14.4048 12.0926 15.3851 -0.767339 0.0334351 0.640369
0.322131 9.78728 17.7392 -0.893294 0.266299 -0.362091
19.104 19.0279 14.5799 0.198112 0.951346 -0.235992
18.2075 17.6413 15.4917 0.0111708 -0.976093 0.217066
18.3469 15.9156 17.7498 -0.563846 -0.627305 -0.537184
2.13248 9.84303 17.4846 -0.614542 -0.752014 -0.238355
18.8669 15.1246 16.9802 0.346093 0.0949036 0.933388
3.6037 9.64733 13.7352 0.810705 0.513307 -0.281556
6.71344 15.2956 14.6462 0.297629 -0.954675 0.00345375
10.1033 14.1357 15.7678 -0.881264 0.216618 0.42006
4.54098 15.0258 15.4259 0.381557 0.456368 -0.80383
6.0514 13.1647 12.547 0.406996 0.911851 -0.0536868
9.65559 13.4908 14.1066 -0.533538 0.765005 -0.360701
8.48799 11.929 16.1782 0.662437 0.690538 -0.290404
6.38342 18.252 12.7014 -0.461628 -0.860078 0.217178
11.1767 12.8039 14.5148 0.445895 -0.890445 -0.0910253
8.34804 14.0535 15.6142 -0.792861 0.562378 -0.234738
10.4713 12.9783 15.3991 0.870644 -0.444768 0.210144
12.0032 14.6267 17.1902 0.527103 -0.590958 -0.610681
14.2369 11.7815 16.8026 -0.697848 -0.395666 0.59704
13.9264 13.2684 15.2541 0.576759 -0.510732 -0.637575
17.5079 12.8718 14.9691 -0.176126 0.721795 -0.669322
16.533 13.452 13.4246 -0.160171 0.228998 0.960159
17.0837 12.4254 12.9962 -0.682146 -0.106714 0.723387
18.2044 10.7179 16.3222 0.827392 -0.465747 0.31385
17.1451 11.7996 14.6402 -0.405009 -0.489431 0.772285
19.2651 16.5751 13.8994 -0.601052 -0.755918 0.259468
14.8828 11.1442 15.7357 0.935275 -0.0233218 -0.353153
17.5895 13.5699 12.7706 -0.0396597 -0.471784 0.880822
16.1988 9.16748 19.4774 0.958928 0.169493 0.227439
19.313 16.6126 19.2902 0.136458 -0.780252 -0.610399
0.106024 17.9975 17.578 -0.864883 0.170188 0.472243
19.3106 19.1023 17.6805 -0.0719807 -0.186221 0.979868
4.91983 16.6577 15.2868 0.0519601 -0.827757 0.558675
1.97776 16.1914 17.1493 0.424711 -0.872833 0.240382
18.6976 15.3682 18.9423 -0.43534 0.899949 -0.0239038
2.04345 16.952 16.0378 -0.33717 -0.938192 -0.0781864
5.31677 18.0907 13.3171 -0.0972426 -0.716805 0.69046
4.89101 0.222949 13.6186 -0.0577785 0.326515 0.943424
6.70481 16.9296 13.1068 -0.374945 -0.851032 -0.367642
5.79708 18.0058 14.6931 -0.0192401 0.997287 0.071053
5.83532 16.181 13.8608 -0.148725 -0.968295 0.200711
11.9904 15.1258 16.1939 -0.632985 -0.767099 -0.104354
12.793 16.9486 16.6818 -0.733976 -0.528243 0.426895
12.6958 16.2102 17.921 0.179972 0.698581 0.692527
13.9512 17.9817 0.949835 -0.0233537 -0.945658 -0.324324
14.1643 14.7041 15.4269 -0.164984 0.630719 0.75827
13.3525 14.6182 16.9929 -0.520223 0.386319 0.76166
13.6048 16.3998 17.1861 -0.380478 -0.812507 -0.441665
15.3427 12.8089 17.6241 -0.451714 -0.847618 0.278384
15.1382 19.0216 17.7943 -0.182256 0.970458 -0.158096
15.3798 13.1921 14.1059 0.477815 -0.422607 -0.770127
16.4687 18.2093 17.834 0.548475 -0.114138 -0.82834
0.329285 17.2111 14.7734 6.08457e-05 -0.996269 -0.0862973
18.3067 16.6826 14.6737 -0.394991 -0.831017 0.391655
0.363868 18.7981 13.8023 -0.402787 -0.88923 0.216871
15.8968 17.224 1.60922 -0.266605 -0.755655 0.598253
19.264 16.1598 17.1238 0.473952 0.0250467 0.880195
0.73235 15.9132 15.4762 -0.490011 0.796087 0.355156
2.65203 1.92186 16.7555 0.369875 0.894099 0.252546
19.1032 18.4589 15.7427 -0.238776 0.95368 0.182976
0.61031 19.1251 15.8522 0.0674797 -0.373975 0.924981
4.14489 3.71582 16.4078 0.929277 0.364263 -0.0612851
2.93583 0.355554 16.0185 0.327963 0.936668 0.122851
1.89728 2.54448 17.6656 0.216088 0.791299 0.571971
5.7532 0.792964 15.5471 -0.0981758 -0.172519 -0.980101
2.25405 0.0407481 17.0002 -0.328976 0.888558 0.319749
5.98135 0.0757114 12.9853 0.145469 0.061769 -0.987433
5.36056 4.43361 17.2061 0.998781 0.00505156 -0.0490978
6.74114 18.8611 13.637 0.528248 0.822903 -0.209246
7.57012 4.26939 17.728 -0.735663 0.67734 -0.00320914
13.7288 16.3236 16.0001 -0.636593 -0.682146 -0.359758
10.8313 0.801741 17.1617 -0.0918424 0.995617 0.0176341
12.5642 14.2775 15.4917 -0.520866 -0.646504 -0.557433
7.7807 3.74443 16.7394 -0.776332 0.62322 -0.0943681
14.7269 15.941 16.3866 0.228102 -0.188827 -0.955151
13.5974 3.78746 18.8424 -0.378616 -0.016794 -0.925401
16.6582 18.0546 19.2673 0.572609 0.579361 -0.580052
12.3073 3.19361 15.7774 -0.961272 0.121184 0.247529
14.1003 2.65869 15.9749 0.787071 0.614017 -0.0591851
14.0912 1.79505 17.3371 -0.176558 0.880864 -0.43921
15.7865 0.426346 2.42654 -0.0616301 0.288339 0.955543
10.5861 3.08273 16.9023 -0.994011 -0.0911062 0.0603471
19.0897 15.7419 15.2269 0.0980765 -0.993367 -0.0600319
16.1444 0.522223 19.0091 -0.0399877 -0.126437 0.991168
18.7681 17.8606 16.7269 -0.205981 0.817604 0.537676
0.994549 0.81885 16.874 -0.233214 0.971437 -0.0438422
17.8905 19.0034 16.1502 0.0511173 0.916751 -0.396175
2.09568 4.77059 19.1755 0.331611 -0.934395 -0.130155
3.41046 2.64585 1.37215 0.686538 0.678521 -0.261294
2.90163 4.63564 0.413517 0.768901 0.152085 -0.621016
3.96361 19.4514 17.4084 -0.711046 0.451514 0.539026
5.1388 3.89552 0.200002 -0.888276 -0.426077 0.171536
5.14068 2.74317 0.514293 0.916645 0.350329 -0.192434
2.34724 3.67319 17.1834 0.952184 0.304078 -0.0296858
10.7297 2.34627 18.0534 0.538766 -0.842416 -0.00815393
2.81539 3.56318 1.03337 0.837374 0.363249 -0.408479
10.235 2.76525 19.0889 -0.81287 0.579787 0.055579
9.99298 3.02215 2.02568 -0.0654382 0.0524118 -0.996479
10.64 18.8429 18.1912 0.514056 -0.434937 0.739308
12.4233 2.39913 0.713884 -0.745659 -0.597099 0.295745
12.6804 1.63705 19.3644 -0.965663 0.232906 0.115105
12.0323 5.14184 19.3541 0.498648 -0.74778 -0.438378
11.9901 3.11097 17.7824 -0.453657 -0.793739 -0.405184
14.0855 1.73468 6.09601 0.652537 -0.757477 0.0205815
14.777 0.529941 18.6905 -0.565709 0.821508 -0.0713959
14.0641 4.0047 15.9894 -0.67812 -0.658886 0.32561
14.5295 1.15655 0.337612 -0.306096 -0.947802 -0.0893075
15.9182 0.819716 6.70238 -0.863413 0.47909 0.158088
15.634 18.7982 3.38588 -0.737257 0.565501 -0.369675
12.9799 7.17805 17.0408 -0.500059 0.724138 -0.474937
17.6102 0.865569 14.7258 -0.112941 0.938453 -0.326419
18.8655 4.09547 3.54733 0.95232 0.00139678 -0.305097
0.666187 2.6259 0.346576 -0.872736 0.338508 0.351773
17.6587 18.494 17.6728 0.0307854 -0.763028 0.645631
17.2936 1.27634 15.8439 -0.320801 0.568171 -0.757805
17.8473 5.73777 3.67619 0.648731 0.153042 -0.745471
4.10207 1.47397 0.311425 0.754906 -0.444184 0.482512
0.675832 8.00342 17.3727 -0.921719 -0.0140214 0.387605
4.18459 5.1165 18.0148 0.844445 0.46057 0.273474
6.97407 8.43141 5.41135 0.572289 -0.658116 -0.489254
5.19755 4.37315 18.6296 -0.847938 -0.0407813 0.528525
6.64655 6.81676 0.237666 -0.84701 0.449354 -0.283998
8.11703 5.70221 17.6403 -0.0530715 0.905003 0.422081
7.88741 4.55473 0.792778 0.853355 0.0435787 0.519505
10.0764 4.02622 18.7797 -0.845664 0.487741 0.216704
7.89214 6.62343 19.0608 -0.470895 0.806827 0.356774
8.83004 9.26645 16.1641 0.867643 -0.353317 0.349804
10.9687 2.55844 0.510466 0.881435 0.239718 -0.40695
10.5837 6.23029 1.02666 0.23428 -0.78935 -0.567485
9.67551 7.30576 18.7562 0.447792 -0.191689 0.873349
12.4405 6.4431 17.8399 0.679701 -0.563461 0.469594
10.1143 8.59634 17.6663 -0.862124 0.192841 -0.468567
10.4418 6.63046 2.4778 -0.452194 0.883231 0.12419
13.0446 6.91131 19.2853 -0.492395 0.309549 0.813466
14.9196 5.67438 0.608923 -0.281871 -0.583655 0.761509
14.6501 5.80858 5.58429 -0.522179 0.287812 0.802804
16.7788 4.8239 3.95634 0.82878 -0.176378 -0.53105
15.401 7.44588 17.1331 0.125569 0.411892 -0.902539
14.7206 4.64657 4.96332 -0.763908 0.315857 0.562741
16.64 6.47498 5.82968 -0.990337 -0.13401 0.0356824
19.0744 4.80324 2.4988 -0.665702 0.125208 0.735638
2.33448 8.34599 17.8555 0.955463 0.189618 -0.226131
18.7657 6.71356 1.2241 -0.347051 -0.377679 0.858437
18.8033 8.24796 18.8998 0.278567 -0.386413 0.879253
18.0462 8.58294 5.74447 -0.0649143 0.847233 0.52724
2.42782 8.79556 16.5899 -0.515568 -0.55052 -0.656595
4.53355 8.47747 17.4242 -0.194746 0.00201318 -0.980852
6.3692 8.62167 6.88995 -0.898985 -0.0675374 -0.432741
6.46731 5.4691 18.5395 -0.586865 0.69549 -0.414587
4.85214 7.7114 0.560879 0.291597 0.658707 -0.693596
6.17448 8.47728 19.3861 0.5129 -0.815934 -0.266806
6.81431 5.66941 2.04831 0.0729809 -0.822313 -0.564336
5.22636 6.50455 18.7178 0.706015 -0.289548 0.646301
5.36515 10.4666 16.6746 0.571309 0.259443 -0.77865
9.49957 6.15285 0.464226 -0.377854 -0.114284 0.918785
6.36102 6.19221 1.08043 0.824015 0.372232 0.427132
10.7185 6.65201 18.6231 -0.239692 0.0726562 -0.968127
12.5146 8.99167 17.9662 -0.649019 -0.512091 0.562616
11.9228 6.81397 18.778 0.279679 0.959097 0.0437219
10.4694 7.7509 17.0758 0.644992 -0.407338 0.646577
14.6264 5.14033 18.3225 0.707542 -0.69034 0.151048
14.5001 10.7497 14.6996 -0.0815381 -0.796918 0.598559
14.2856 7.08457 6.16704 -0.780812 0.26454 0.565995
11.1622 10.7598 3.65271 0.195498 -0.210593 -0.957826
18.2995 5.97384 5.28429 0.952276 -0.107388 0.285725
17.4614 9.19559 16.6787 0.428072 -0.097764 0.898441
16.2244 5.96002 4.20166 0.591257 -0.234519 -0.771632
16.2745 7.05956 5.03761 0.753216 -0.424236 -0.502682
17.3583 6.41425 2.95997 0.332477 -0.486493 -0.80795
0.400958 7.97301 18.949 0.0501382 -0.699074 0.713289
18.2113 9.10803 19.2426 -0.828873 0.114386 -0.547618
0.660941 9.23749 3.26134 0.588393 -0.163845 0.791801
5.15829 10.6478 2.03052 0.18386 -0.131443 0.974124
0.74615 8.89174 16.4587 -0.875037 -0.457009 0.159541
4.18826 10.0149 1.55619 -0.0917779 -0.353897 -0.930771
5.76659 9.91816 1.26053 -0.26446 -0.215204 0.940079
7.43749 9.03581 4.54202 0.0454662 0.759839 0.648519
10.4211 13.3624 16.5289 0.567393 0.786897 0.242606
6.46952 10.6971 17.0043 0.575735 0.658527 -0.484635
5.44631 11.559 2.98302 -0.548442 0.104552 -0.829626
7.57688 6.94775 3.06152 -0.0524537 0.498422 0.865346
3.87855 11.0832 18.6525 -0.469299 -0.695526 -0.54406
11.9279 11.6243 0.291841 -0.79355 -0.023598 0.608047
7.22746 11.0797 4.6274 0.403873 -0.32537 0.854998
12.932 9.84823 0.444108 0.723673 0.533551 -0.437745
14.4857 13.0435 17.0884 0.554533 0.68146 -0.477605
13.3924 11.0288 18.5325 0.630162 0.595711 -0.49802
12.9583 12.1846 0.664362 -0.559767 -0.508356 0.654397
13.1953 9.61917 2.45528 0.385387 0.780062 -0.49293
12.8234 12.1055 17.6593 0.553366 0.232473 -0.799839
14.2774 10.6973 17.6399 0.673928 0.692188 -0.258256
15.245 14.4448 17.9258 0.0956841 -0.903668 0.417408
17.1922 7.40641 18.8185 -0.0298547 0.0586588 -0.997832
16.349 11.3998 14.0341 0.819368 0.065398 -0.569526
16.6915 9.98158 16.9591 0.934779 0.337508 0.110799
16.0598 15.7148 15.1458 0.501834 0.584505 -0.637586
15.8077 9.11082 17.9476 -0.72728 0.104591 -0.678324
19.3278 9.35346 18.6776 0.743231 -0.128342 0.656609
17.9885 10.2026 17.9719 -0.818223 -0.565202 -0.105154
18.8013 9.29388 4.2551 -0.604204 -0.266876 -0.750809
4.67502 9.04168 1.85729 0.314537 0.257628 -0.913616
2.17683 17.8474 17.1372 0.491005 -0.846701 -0.204967
4.60297 10.0889 3.66589 -0.174657 0.30116 0.937442
2.34001 18.1115 0.00876496 0.940594 -0.11625 0.319011
4.0151 10.8722 0.724231 0.247093 0.42452 0.87105
5.86159 15.2547 15.2505 0.33481 -0.819849 0.464488
9.21716 12.6638 16.9027 -0.328324 0.916273 -0.229451
8.98456 10.646 1.22236 0.716337 -0.671599 -0.189252
6.30457 10.6656 2.86034 0.0572343 0.0472734 0.997241
9.10863 14.6612 15.161 0.738425 -0.582803 -0.339217
11.5053 11.4661 15.5521 -0.72218 0.481779 -0.496331
9.50248 11.4169 2.55391 -0.529987 -0.0990103 0.842206
14.4994 14.3681 17.1089 0.310174 0.521255 -0.795038
13.3086 19.4872 0.559737 0.166284 0.984158 -0.0615068
17.4668 14.5627 14.9695 -0.759217 -0.616273 0.209279
15.4518 14.2997 15.3609 -0.734707 -0.209349 0.645274
14.4813 13.3568 19.1936 0.0301837 0.771155 -0.635931
14.6222 11.2274 18.7361 0.273391 0.950617 0.146918
17.8889 14.8526 13.8001 -0.934726 -0.296575 0.195783
13.3052 13.8028 18.9695 -0.252002 -0.460199 0.8513
16.2848 14.3688 15.978 -0.48579 -0.712393 0.506463
16.1839 12.3968 14.937 -0.595858 -0.400288 0.69622
18.5648 12.3347 12.7407 -0.615804 -0.467798 0.633995
17.7282 15.5469 16.2555 0.316371 0.889209 0.330479
19.135 8.50396 3.16981 -0.410171 -0.232532 -0.881867
0.740446 14.7993 16.1869 -0.913928 -0.311205 -0.26055
0.904198 16.8277 17.6011 0.505161 -0.168185 0.846479
2.39727 18.2884 18.4273 0.65737 -0.746869 -0.100251
0.355976 0.318565 18.6787 0.661506 -0.730277 0.170606
0.800782 17.4879 15.8747 -0.517886 0.577814 0.630813
4.75589 16.4548 13.9814 -0.414519 -0.36744 0.832563
1.11971 0.671373 17.9204 -0.620592 0.781185 0.067942
6.92124 11.6993 2.43169 -0.799246 0.479659 0.362123
4.35797 18.7327 14.2983 -0.945532 -0.0799478 0.315558
7.22902 16.3386 15.2168 0.483884 -0.868608 -0.106654
10.9039 10.5743 0.939835 -0.857229 0.261713 0.443469
6.81889 15.5293 16.0243 0.904941 -0.423471 -0.0418973
12.1762 14.6274 0.747711 -0.590301 -0.801997 -0.0913517
5.70455 17.3088 15.6288 0.410934 -0.887621 -0.207996
10.1726 13.5745 0.996084 0.734949 0.677669 0.024805
13.6084 18.0167 19.4029 0.385559 0.915953 -0.11124
14.1685 16.8928 18.8501 -0.293563 -0.640674 -0.709477
12.7097 16.5449 1.19921 0.343527 0.857911 -0.38207
14.1621 15.203 1.80793 -0.975436 0.0378714 -0.217004
13.8303 13.2672 0.907769 -0.174255 -0.788883 0.589321
14.9912 17.6761 1.2667 -0.479393 -0.278733 0.83216
16.2119 15.3588 17.6165 -0.0193612 0.996826 -0.0772273
14.0373 1.37293 1.36211 0.0382653 -0.975113 -0.21838
0.037251 14.864 1.45236 -0.00506262 -0.145089 0.989406
16.5938 19.4467 17.17 -0.43855 -0.172383 0.882019
18.2551 17.2468 17.5129 -0.965331 0.124246 -0.229563
16.8259 16.2567 4.48742 0.905161 -0.347449 0.244873
0.297203 10.6519 4.57676 0.216187 0.764711 0.607026
0.858931 17.2291 19.1475 0.597599 0.330806 0.730372
18.108 19.243 19.1111 -0.303361 0.312009 0.900346
1.58424 3.39689 19.1005 0.57749 -0.805491 -0.133006
3.19132 18.3252 17.3443 -0.570432 0.685564 0.452338
19.4092 0.767171 16.5427 0.0666284 -0.288435 -0.955178
1.65921 18.9382 16.1725 0.105106 0.966942 -0.232328
1.39812 2.03165 18.3749 0.510062 -0.801036 -0.313333
8.0808 12.3895 1.4025 -0.536959 0.0208999 0.84335
3.99199 3.31512 17.5529 -0.203447 -0.788954 -0.579794
6.57178 0.401989 14.328 0.0407013 0.554669 -0.831075
8.98399 0.283181 17.7654 -0.897267 0.110345 -0.427476
9.91457 1.80125 19.4257 0.949975 -0.183709 0.252584
11.6105 17.7079 17.9062 0.228104 -0.943632 0.239848
10.3483 19.1881 19.3516 0.609359 0.206227 0.765606
11.9658 18.7835 19.4496 0.609891 -0.731676 0.304441
11.2275 15.1404 1.52254 0.612544 0.532235 -0.584393
12.1635 17.2031 19.2587 -0.305755 0.831105 -0.464519
13.3663 15.9068 19.1797 0.0958967 0.33964 0.935654
11.9515 0.997662 0.622827 0.90497 0.317953 0.282728
15.9376 17.2715 18.6179 -0.632784 0.132807 0.762854
13.4047 0.902972 18.4002 -0.180653 0.71738 -0.672853
14.8485 18.6273 0.0933806 -0.251757 0.590943 0.766424
15.8952 18.89 0.273962 -0.420218 -0.1526 0.8945
15.2714 16.0978 3.67665 0.395868 0.579949 -0.712003
15.9051 1.28419 0.755325 -0.357763 0.253962 -0.898615
17.173 0.128715 18.4936 0.211523 0.244524 -0.946291
16.8835 0.369565 1.28901 -0.135462 -0.216689 0.966797
1.47124 15.6658 6.06834 0.750008 0.358728 0.5557
18.7409 1.07247 15.2498 0.155061 0.986886 0.0448508
0.807765 3.87784 2.08583 0.907142 0.0953807 -0.409873
18.6013 3.92047 1.96244 -0.671072 0.390264 0.630362
3.9723 18.6854 4.81998 0.0607615 -0.650076 -0.757436
6.7268 3.67519 19.0723 -0.971407 -0.114344 -0.20807
1.14066 2.04662 1.14747 0.909099 0.416393 -0.0125062
5.65717 4.71529 6.61176 -0.650112 0.698211 -0.29976
5.7874 0.660809 5.2002 0.859821 0.0290676 0.509768
4.55894 4.86024 0.408728 -0.180814 -0.655714 0.733039
8.41739 2.91245 19.2956 0.82853 -0.126655 0.545432
7.86459 1.02608 6.36362 0.796643 -0.531207 0.288407
8.68944 18.3753 7.506 -0.936198 -0.291599 -0.196224
10.8309 4.56087 2.27904 0.531319 -0.597635 -0.600444
11.7159 0.960459 19.0124 -0.865632 0.461549 -0.194047
11.2566 2.65558 1.66945 -0.487078 0.840936 -0.23576
11.4627 15.5129 3.27239 0.581063 0.723693 0.372335
13.3242 5.39179 17.4712 0.358133 -0.658215 0.662188
10.2673 0.825432 0.864764 0.533382 0.821184 0.202882
10.1504 3.68447 6.36395 -0.371084 -0.61813 0.692973
17.3077 18.0722 4.48442 -0.817145 0.526074 0.235628
14.9756 4.42514 0.0462287 -0.820937 0.149257 -0.551167
15.1075 0.639586 1.17387 0.207827 -0.487505 -0.848025
13.5166 4.01547 6.45793 -0.466615 -0.875733 0.12394
18.5499 15.0189 3.34388 -0.907915 0.280921 -0.311086
15.2899 4.13383 5.75651 -0.731336 -0.288761 0.617872
16.9492 18.0122 2.87925 0.515127 -0.8539 0.0741533
17.7964 4.77216 4.52476 -0.839111 -0.280815 0.46587
0.352263 16.7364 4.4263 -0.716548 0.67191 0.187338
17.214 3.71363 3.28523 0.899152 -0.266475 -0.347155
2.89424 2.79581 0.263387 0.971468 -0.11176 -0.209189
8.10369 5.58424 1.67471 0.444304 0.0508351 -0.894433
7.76965 1.45841 9.09763 0.412521 -0.703157 0.579135
1.28648 3.91914 0.776313 0.897043 -0.175544 -0.405584
3.65524 1.98793 18.2607 -0.383391 0.791363 0.476189
6.45084 9.92146 6.59848 0.81986 0.199574 -0.536656
6.30982 2.94399 6.31015 0.258635 -0.921137 0.290885
7.77762 5.45259 19.453 -0.875929 0.456309 -0.15662
5.50857 4.20614 1.21272 0.579092 0.815239 -0.00611385
7.2322 5.79493 6.18174 -0.200404 0.0828645 0.976203
9.44158 3.97339 0.413752 0.942683 -0.197978 0.268613
10.7956 4.61607 0.958933 -0.940582 -0.00195471 0.33956
13.7764 2.39946 19.0906 -0.957285 0.288564 0.0183275
8.51092 6.98991 3.79961 0.162262 0.000927125 -0.986747
11.5585 3.14804 8.81011 -0.267793 0.866739 -0.420774
11.5611 6.88487 1.18239 -0.437241 0.28372 0.853418
13.5479 5.69416 19.271 0.950399 -0.307673 -0.0455987
10.304 10.0739 5.30585 -0.309142 0.0335327 0.950425
14.35 6.04112 7.84629 -0.0837296 -0.484851 -0.87058
12.4034 6.83231 3.65036 -0.240947 -0.81694 0.523978
12.0961 7.72605 1.8061 -0.00946132 -0.693392 0.720498
14.1469 3.36357 8.53264 -0.648617 0.434716 0.624754
16.0054 1.94444 6.75131 -0.800504 0.320955 0.506144
15.5101 7.06686 6.58747 0.835416 0.321172 -0.446014
16.0707 3.60798 4.68263 -0.909144 -0.292974 0.296013
19.3812 6.80194 5.65492 -0.970952 0.211657 -0.111598
0.358316 2.85044 1.61906 -0.864333 -0.193644 0.464144
15.0147 4.93709 6.9387 -0.194174 -0.109906 0.974791
19.2231 7.43447 2.53505 0.117498 0.0522265 -0.991699
1.12302 10.2207 6.37993 -0.576753 -0.126388 -0.807082
5.75744 6.05173 6.71188 -0.613683 0.641578 0.460187
5.80615 8.14343 5.50966 -0.769 0.638932 -0.020136
3.98572 3.48589 18.9782 0.846797 -0.268891 -0.458947
6.52643 10.1909 8.60221 0.168336 0.928887 -0.329896
8.14585 4.99736 5.16873 -0.365015 -0.0943739 0.926206
6.612 8.36876 3.40191 0.129386 -0.884136 -0.448958
6.32948 6.93618 18.5238 0.759412 -0.637391 0.130484
8.41857 6.00376 3.12871 0.19804 0.188169 -0.961963
8.33532 8.01742 4.44524 -0.168958 -0.122982 -0.977921
7.43945 7.76688 2.23762 -0.650053 -0.720205 -0.242356
10.9628 7.66254 19.1429 -0.48411 0.0365247 -0.874245
9.87401 9.77818 3.80041 -0.552365 -0.0863077 0.829123
11.735 5.25849 5.44706 0.466781 0.751989 -0.465433
13.8943 11.0954 0.653589 -0.373789 -0.748654 0.547539
10.4388 5.0582 4.37677 -0.389301 -0.166229 0.905987
11.3003 9.24344 5.19747 0.718872 -0.00606696 -0.695116
11.2537 6.36456 5.51202 0.293788 0.291213 -0.91043
12.998 10.1124 3.75934 -0.104518 -0.702968 0.7035
10.7211 7.20286 4.73465 0.00353474 0.269245 0.963065
11.3771 7.44771 6.72603 0.190081 -0.1756 -0.965937
10.7514 7.9717 1.6743 0.185847 0.324421 0.927476
17.2866 7.69332 4.4733 0.175548 0.0903552 -0.980316
16.3308 5.06036 6.55044 0.382887 0.919909 0.0846459
18.5543 8.11225 4.17523 0.235848 0.377202 0.895597
1.16628 9.35846 5.25308 -0.632151 -0.0180865 -0.774634
0.765867 8.1087 3.71612 0.114592 0.257131 0.959558
18.2516 7.64309 0.766094 0.18632 -0.0293459 0.982051
0.892006 15.6874 0.357426 0.0989333 -0.45442 0.885277
2.86978 8.60166 8.11756 0.621108 0.428065 -0.656495
5.54008 9.63891 3.93681 -0.275102 -0.194328 0.941571
4.93497 9.38665 6.53541 0.635266 0.0197327 -0.772041
5.66952 10.9541 6.58383 0.252493 -0.303927 0.918627
3.73498 8.81229 9.0776 0.432194 0.390658 -0.81277
4.72926 11.231 3.94718 -0.128608 -0.213877 -0.968358
6.41474 8.20766 4.51137 0.374677 -0.848392 -0.373963
4.74867 10.1205 7.80141 -0.209558 -0.236773 0.948696
8.06556 9.13453 5.67651 0.787559 -0.0720444 -0.612014
5.24327 11.6935 1.22262 -0.774608 0.256718 -0.577995
12.934 12.154 2.29526 0.162513 -0.526965 0.834205
9.86842 8.64452 3.00845 -0.776345 0.284139 -0.562631
11.0834 9.12181 3.8661 -0.791288 0.026086 0.610887
13.1116 12.9207 18.4423 -0.54797 -0.400587 0.734342
11.947 9.7559 2.17876 0.743765 0.168573 -0.646836
12.044 12.8555 0.628164 -0.207077 -0.584349 0.784637
11.569 7.5504 3.69238 0.159616 -0.0748329 0.984339
11.7977 10.0734 4.0665 0.444353 -0.145119 -0.88402
12.4171 10.8186 0.979376 -0.650074 -0.23017 0.724172
12.9392 11.1155 1.92747 0.603261 0.55413 -0.573599
12.6459 8.07094 4.12386 -0.0707221 0.901417 -0.427138
17.4663 15.7787 14.1695 -0.661501 -0.552125 0.507518
17.6593 8.1472 2.01754 -0.310797 -0.224657 -0.923545
17.6693 7.01623 1.81448 -0.092283 -0.231996 -0.968329
0.0765384 7.44346 4.55559 0.54346 -0.330915 -0.771457
17.0943 8.57068 17.9089 0.635151 -0.299217 0.712076
19.3256 8.47236 1.57262 -0.562819 -0.0392457 -0.825648
17.4024 8.43949 0.184026 -0.629111 -0.167842 -0.758979
5.89135 12.5055 8.58206 -0.865906 0.477755 0.148178
19.0799 17.6332 18.7859 -0.799155 -0.566061 -0.2023
4.73708 10.2824 19.2507 -0.154858 0.193653 -0.968771
4.64645 12.8863 9.91643 0.922509 -0.14814 -0.356415
6.58067 10.1178 4.8463 0.505527 0.09536 -0.857525
8.52497 10.5883 2.42954 -0.936364 0.0167722 0.350629
6.37445 11.2211 5.32852 0.617964 -0.236312 0.749851
5.21097 13.0905 7.67591 0.273027 -0.961794 0.02022
9.33682 8.71478 1.51961 -0.477885 0.826471 -0.297609
7.96428 11.2212 3.47936 0.172845 0.713541 -0.678958
5.44776 11.1066 0.022814 0.440853 -0.154196 0.884236
8.83754 10.2603 3.6983 -0.00326215 -0.536182 -0.844096
10.7942 10.997 2.09569 0.708557 0.472414 -0.524188
12.94 13.8232 3.30009 -0.876878 -0.439752 0.194174
13.007 13.3669 17.0304 0.853938 0.124902 -0.505163
16.0291 14.2763 4.64831 -0.57998 -0.434517 -0.689071
13.9475 11.0969 2.58733 -0.0285171 -0.902161 0.430455
14.0949 12.5163 18.5602 0.505423 0.687887 -0.520922
15.8407 15.2409 16.6624 0.367692 0.879261 -0.302823
14.385 14.8305 0.773633 -0.118854 0.793977 -0.596217
12.1627 9.98877 7.95797 -0.491711 -0.511255 -0.704868
16.7885 14.1937 16.9367 0.145357 0.962656 -0.228397
17.1519 16.4346 15.4729 0.354269 0.770257 -0.530281
0.260031 13.8393 5.61776 0.224018 -0.369038 -0.902013
0.739851 15.2086 18.6364 0.289447 0.618096 -0.730874
18.4132 9.25631 2.3771 0.601228 0.230555 0.765094
1.18078 0.213855 0.252171 -0.72345 0.557775 0.406825
3.68803 16.3115 6.67295 0.859733 0.116694 0.497234
0.442129 18.9854 0.221188 0.80972 -0.516344 0.278822
19.3456 2.04806 18.6357 0.873174 -0.230787 0.429306
1.81573 0.57899 18.7387 0.822875 -0.465298 -0.326152
4.69014 15.9199 5.83282 -0.731212 -0.546144 0.408723
6.29409 15.0839 7.73943 0.433795 0.864016 0.255534
10.2055 9.78967 1.82566 -0.964273 -0.12171 0.235297
7.51597 10.5388 1.49436 -0.844796 0.508424 -0.166809
6.52779 11.8042 7.40141 0.248212 -0.942171 -0.225175
8.80925 10.9047 7.56531 -0.401689 0.533283 0.744483
11.2471 12.3899 2.20148 -0.621242 -0.348046 -0.702085
11.012 13.7008 2.14952 -0.526288 -0.701476 -0.480575
12.1817 13.2293 2.04738 0.678177 -0.175402 0.71366
13.2029 13.6107 1.7261 0.529946 -0.111827 0.840626
12.8339 15.4505 2.51721 -0.950315 -0.300446 -0.0814527
10.245 12.5029 0.436078 0.747908 0.193226 0.635057
14.9883 15.3132 2.95519 0.971598 0.236386 0.0109043
15.3851 14.8579 3.8601 -0.885434 -0.446189 -0.130081
14.6967 18.3506 2.6687 -0.0405015 -0.147544 0.988226
14.042 15.0866 18.1444 0.00471796 0.288237 -0.957548
14.9053 14.1938 2.67086 0.798104 -0.0394801 0.601224
14.7794 13.0854 3.01271 -0.328866 0.252631 -0.909959
17.6249 16.6818 3.77814 -0.735894 0.668778 0.10581
17.1712 16.8852 16.4563 0.227126 0.841174 -0.490754
0.975173 14.172 3.46262 -0.146733 0.341757 -0.928263
2.05202 12.7294 7.04335 -0.72175 -0.0348493 -0.691276
19.4577 13.8337 3.10486 0.0543743 0.0588963 0.996782
18.9271 1.15875 19.4536 0.876709 0.374758 0.30156
1.6135 14.935 4.15684 -0.91596 0.243288 -0.319104
2.90295 1.2366 18.7616 0.870315 -0.4179 -0.260599
1.06938 18.5193 18.063 0.364618 -0.791311 0.490796
3.44171 18.7417 18.535 -0.660412 0.205781 0.722157
4.64329 18.371 5.98851 -0.252208 -0.151088 0.955805
5.81378 12.9063 6.77453 0.497436 0.817965 0.288949
11.1712 0.280924 18.2088 0.601663 -0.793762 0.089128
9.20655 12.5594 2.0195 -0.605549 -0.789401 0.100779
8.15531 19.225 6.12879 -0.675178 0.582641 -0.452398
9.32033 11.706 0.728439 -0.525458 -0.532835 -0.663311
9.29891 2.55964 18.3931 -0.707035 0.706967 -0.0173187
9.76816 0.998043 18.6994 0.807839 -0.403904 0.429252
10.106 0.0881444 7.6474 -0.856245 0.388349 -0.340631
11.252 12.9408 4.40682 0.661314 0.733312 -0.157854
12.7509 18.231 18.4719 -0.148317 -0.82121 -0.551013
12.5902 14.4232 1.99426 0.908552 0.174705 0.379489
11.3761 14.2158 3.62599 0.233065 0.833372 0.50117
16.2726 19.2466 5.73678 0.797828 -0.463351 -0.385716
14.2345 0.254675 2.06929 -0.842466 0.469549 0.26415
15.8231 17.7121 2.79659 -0.328412 0.407242 -0.852232
15.8146 17.8483 4.56194 0.816352 -0.574636 0.058
17.0464 14.6826 3.5403 0.867641 -0.072951 0.49181
16.5596 18.8249 1.42044 0.682315 0.015602 -0.730892
16.8125 16.3582 3.12688 -0.309291 0.710005 -0.632639
19.3769 18.5176 5.27679 0.516938 -0.829168 -0.212735
1.17343 14.5895 5.10958 0.770623 0.0649182 0.633976
18.4289 0.6186 17.3623 0.12308 -0.814264 -0.567297
1.05554 15.9917 2.92248 0.188166 0.684624 0.70419
0.943197 5.77874 7.74529 0.757077 0.370477 0.538128
4.58839 19.3067 4.01225 0.233316 -0.0159321 0.97227
5.23825 18.9085 6.95674 0.125338 -0.372477 0.919539
3.73478 18.106 8.19627 0.420724 -0.731132 -0.537064
6.41907 0.0713834 10.4849 -0.208366 0.390676 -0.896636
6.82293 0.95379 8.93736 -0.438444 0.740082 -0.509947
6.93598 0.714737 6.98159 0.0728944 0.700329 0.710088
6.71765 1.97157 5.20017 0.388277 -0.91756 -0.0855826
6.15436 2.91592 7.44932 -0.574363 0.664804 -0.477643
9.49742 0.91536 6.48403 0.685106 -0.728405 -0.00748228
11.6756 3.80308 19.3093 0.913712 -0.34238 -0.218876
7.06431 17.8242 8.02283 0.346122 0.932664 0.101671
8.21633 17.6796 8.38834 0.511332 0.84151 0.174357
11.0359 5.26911 7.81174 -0.721299 0.368942 -0.586182
10.4359 3.42161 8.25712 -0.100089 -0.416733 0.903502
12.6665 17.0001 5.12619 0.37519 0.655144 0.655758
12.6053 2.33696 7.68319 -0.303639 -0.902706 0.304838
1.4605 17.2604 5.74043 -0.68423 0.723416 0.0921851
12.6044 1.87612 6.67706 0.95775 0.0137592 0.287273
16.9744 17.9064 5.69668 -0.924297 0.289053 -0.249247
13.8514 4.97805 7.91389 0.212743 -0.712263 -0.668896
2.03809 16.9595 6.90143 -0.945166 0.140392 -0.294877
15.1758 3.3724 7.03592 0.531465 -0.563162 -0.632767
0.635901 17.7876 4.00233 -0.169429 -0.773205 -0.611104
14.7543 2.85595 12.2894 0.13276 0.797178 -0.588967
0.431923 19.2811 6.15522 0.404719 -0.576283 -0.71
16.0067 1.54683 5.03207 -0.257089 -0.781279 -0.568778
16.4695 3.74066 5.77172 0.647356 0.748862 0.141898
0.712328 6.23167 6.67643 0.92979 0.174698 0.323992
2.51476 6.39597 6.41682 -0.779545 0.496386 -0.381981
7.41047 2.61223 7.29361 -0.362925 0.782247 -0.506334
6.61414 4.12005 5.29949 0.399446 0.521114 0.754244
7.00744 4.58806 7.10729 -0.703943 0.695356 0.144719
8.07033 6.31995 7.4337 -0.586077 0.408096 -0.69998
8.3793 5.90461 5.88194 0.122799 -0.248887 0.960716
9.10601 5.69487 4.84243 -0.00103957 0.553976 -0.832532
8.44719 4.43011 7.20094 -0.121874 -0.473439 0.872354
8.92407 2.10426 8.17161 0.499124 0.824503 -0.266591
9.46357 4.73836 3.38165 0.160016 -0.987028 -0.0130537
9.95357 5.01205 0.167254 -0.737758 0.105253 0.666809
11.2894 6.20784 3.6885 0.148128 0.500927 -0.852719
13.0783 6.258 7.75892 0.711491 0.560382 -0.423973
10.5692 5.07612 6.26657 -0.141433 -0.451861 0.880805
11.8834 3.15177 6.26179 -0.715963 0.641101 0.27638
11.4786 4.64274 7.0378 -0.125829 -0.801268 0.584925
12.2791 4.06995 7.92424 0.002356 0.959494 -0.28172
14.2899 5.85544 9.58327 -0.203924 0.418243 0.885149
14.0966 2.92535 7.15291 -0.479368 0.800828 0.359
13.1782 5.22766 6.95502 0.149112 0.934579 -0.322998
15.5982 1.49847 13.6758 -0.274565 0.856893 -0.436289
15.2264 1.98059 5.96331 0.481292 -0.864259 -0.14634
13.9893 4.24943 11.3308 -0.0149907 -0.678083 0.734833
17.2983 0.369042 5.64968 -0.723983 0.675664 0.139023
18.1841 5.35163 6.84761 -0.836813 -0.489027 -0.246164
18.5752 6.6574 6.60148 0.885874 0.454777 0.0916781
6.28105 5.29216 0.201666 0.764614 0.0616693 0.641532
1.19262 9.60876 7.68199 -0.14295 0.40276 0.904074
2.49147 5.57903 7.39539 -0.908265 -0.0794568 -0.410782
5.41199 9.34654 8.37001 0.626733 0.539809 -0.561972
5.51883 6.16625 8.00001 0.900951 -0.411702 -0.137072
2.7545 7.35335 8.79252 -0.836492 -0.547194 0.0293226
7.3775 6.30528 4.23526 -0.0576539 -0.305908 -0.950314
3.3071 9.21388 6.50391 -0.863067 0.178166 0.472623
9.09688 5.20523 2.12215 -0.656782 -0.201051 0.726785
9.30656 7.56218 4.93938 -0.171752 -0.930442 0.323697
8.91823 0.28135 9.22095 0.00945182 0.992681 -0.120396
6.77092 7.40907 1.08532 0.968467 0.249143 0.000500292
9.4569 6.67613 1.94139 -0.170697 0.787782 -0.591829
9.72021 9.08612 5.57664 -0.499297 0.719876 0.482164
13.6456 7.30426 11.9827 0.582356 -0.811998 0.0389911
7.4668 9.64661 2.81613 -0.795919 0.230729 0.559712
11.9979 6.12144 2.23515 0.425487 0.559633 -0.711176
8.96095 9.63263 9.06411 0.884505 -0.184451 -0.42852
13.3013 6.8413 9.75084 0.00780612 -0.966379 -0.257003
12.5144 7.85129 6.35057 -0.182803 -0.165661 -0.969092
11.7125 8.67518 2.19379 -0.380967 0.460804 -0.801576
10.8184 8.39035 6.69724 -0.639934 -0.307168 -0.704366
13.3038 6.63181 5.5544 -0.208 0.916733 -0.341081
17.6693 7.32334 6.44443 -0.905368 -0.295959 0.304495
18.1368 6.83307 3.84013 0.308855 -0.0487123 -0.949861
19.2535 10.255 7.45424 -0.0548304 0.854217 0.517017
1.57509 7.42682 7.0692 -0.932113 0.361806 -0.0161542
7.7304 9.6332 7.07373 -0.936423 -0.0948547 0.337809
19.21 9.95377 6.0983 -0.452001 -0.687215 -0.56871
0.621551 11.7882 6.82351 0.321632 0.178659 -0.929857
5.4293 7.80237 7.44705 0.911389 0.17812 0.371002
5.35559 10.4836 4.90201 -0.158768 -0.216985 0.963177
4.98425 7.88672 8.60733 -0.852139 -0.511328 -0.111366
4.63146 10.1818 10.5401 -0.0146509 0.078856 -0.996778
4.3229 9.95999 5.86965 0.196984 -0.322981 -0.925678
3.63731 10.082 8.35412 0.0340723 -0.186699 -0.981826
8.85413 7.90824 2.54114 0.241535 -0.00120506 0.970391
5.671 12.4042 10.5242 0.869465 0.0177969 -0.493673
9.86594 7.39439 3.77771 -0.336336 -0.773582 -0.537074
7.82392 8.61112 0.906099 0.528264 0.120346 0.840508
8.57823 8.86254 3.54048 0.946958 0.0143642 0.321036
9.28462 11.7345 8.67658 -0.386574 0.351438 0.852673
9.37363 9.68423 7.45614 0.535404 -0.340805 -0.772784
12.0239 11.0656 7.88699 -0.83442 -0.457728 -0.306965
9.93228 10.9531 4.365 0.253247 0.274968 0.927501
11.1428 9.52038 8.27908 0.13518 0.965638 0.221968
11.8393 10.1368 9.43401 0.155991 -0.695737 -0.701154
10.8143 9.79411 6.80663 -0.415401 -0.218354 0.883042
12.614 8.91648 7.88103 -0.415693 -0.128494 -0.900383
10.6624 11.1013 6.50651 -0.242968 0.328282 0.912796
0.593836 7.73095 5.6321 0.604173 -0.133134 -0.785653
12.1583 9.79405 5.53457 0.298059 0.496156 -0.815469
12.2909 6.3495 6.04583 0.0301295 -0.591002 0.806107
0.209957 12.7907 6.16246 0.0534772 -0.549397 -0.833849
0.330682 8.96035 5.73211 0.205016 0.483796 0.850829
0.751505 15.6792 16.9572 -0.335286 -0.786376 0.518842
4.38406 11.0153 8.82783 0.210225 0.187842 0.959438
19.4488 13.1211 9.31957 0.725469 0.67587 -0.129978
5.17532 11.8049 8.90836 -0.469692 0.114445 -0.875381
1.37971 12.8901 7.84635 0.825172 0.272732 0.49468
4.55395 11.1091 6.41127 0.0661945 0.162524 0.984482
4.69288 13.3223 11.227 -0.617396 -0.155887 0.771052
5.37596 10.626 8.63089 0.082539 -0.558419 0.825443
6.84786 13.8171 8.28812 0.095676 -0.973878 -0.205931
7.64469 12.0885 10.0393 0.504653 -0.368756 -0.780605
4.78498 12.3887 12.1378 0.729135 0.361885 -0.580863
10.1301 12.3357 7.94494 -0.469509 -0.139515 -0.871836
8.42645 10.1186 5.27649 -0.113894 -0.436154 -0.892635
9.45393 10.9512 5.97922 0.112949 0.44524 0.888259
8.61753 11.6947 6.84325 0.380354 0.404404 0.831738
10.9952 11.5942 8.39567 0.861626 0.407279 -0.302862
13.2598 14.6591 0.274044 0.227028 -0.161295 0.960438
11.8636 10.8034 5.73453 -0.112672 0.254904 -0.96038
13.0566 12.9251 3.95943 -0.521883 -0.515991 -0.679257
18.185 10.5127 10.8854 -0.192438 -0.981302 0.0038072
14.6267 12.3137 1.42422 0.273448 0.960252 -0.056049
12.1112 11.3053 3.12801 0.0610743 -0.387594 0.919805
13.8718 12.415 3.38289 -0.169094 0.3002 -0.938769
19.3962 12.4492 8.17445 0.380128 -0.571756 0.727048
19.2044 11.7435 6.26721 -0.355409 0.77733 0.519078
0.887605 10.8963 8.17689 -0.221329 -0.436885 -0.871863
17.8797 12.722 9.18564 0.411701 0.18855 -0.891601
1.2229 8.3266 7.84158 -0.794061 -0.285207 0.536772
1.18514 13.7506 6.14642 0.398865 -0.178456 -0.899478
1.23149 12.8557 4.4455 0.122714 0.20175 -0.971719
5.74308 17.0663 6.30526 0.579463 0.761919 -0.289313
0.672091 14.6297 8.59356 0.853168 -0.116596 -0.508439
2.14146 1.64519 0.486131 0.939788 0.257697 0.22448
7.68939 11.3498 7.29954 0.236849 -0.763164 -0.601235
2.95511 14.1363 6.33867 0.846186 0.47653 -0.238515
2.74052 10.6361 14.9785 0.621789 0.571113 -0.535918
7.05319 13.0179 6.95969 0.353453 0.777504 0.520153
5.76237 14.8567 9.59625 -0.322231 -0.558381 0.764446
5.47726 13.7547 8.97768 0.465143 -0.104234 -0.879077
6.82375 13.3446 10.2455 0.792098 0.0327315 -0.609516
7.82433 14.9844 8.98239 0.0654919 0.748904 0.659434
8.30855 10.7792 9.24858 0.827382 0.0110192 -0.561532
6.90467 14.8182 9.55374 -0.267198 0.897442 0.351003
12.2527 12.5943 4.69826 0.413957 0.815478 0.404517
11.0789 11.9881 3.46588 0.725189 0.630996 0.275583
13.7475 16.09 5.40834 0.377028 -0.671548 -0.637866
14.4655 13.5957 4.22954 0.622413 0.251914 0.74104
18.4548 18.8299 7.53207 -0.352315 -0.909966 0.218714
18.1815 16.6977 4.71701 -0.831386 0.422152 0.361365
19.1807 14.6422 5.27531 0.323641 0.438936 0.838208
16.1049 13.6055 5.58657 0.48454 0.51495 0.70714
18.3248 14.0288 6.2502 0.600618 -0.161603 0.783034
15.2773 15.442 5.31907 0.870191 0.0125963 -0.492553
19.1973 14.9906 8.04881 0.370387 -0.750573 -0.547224
19.1833 17.265 5.62454 0.851881 -0.377098 0.36345
0.84058 14.08 1.48992 0.0826049 0.481043 -0.872796
2.32318 15.4569 5.30031 -0.893248 0.225471 -0.388935
19.322 16.1858 3.38629 0.38434 -0.848112 -0.364677
2.86821 18.1516 9.37366 0.517697 0.725018 0.454244
5.29573 2.57329 6.05257 -0.213213 -0.715068 0.665746
5.1109 17.5456 8.92486 0.262641 -0.424437 0.866529
6.20109 18.7939 5.41394 0.653098 0.71046 -0.262123
4.73089 0.661233 6.11824 0.356221 0.268581 0.89497
4.97649 4.48314 5.69137 -0.292757 0.812848 -0.503559
6.18593 18.3681 6.81615 0.0272854 -0.836004 0.548044
7.57021 15.3683 7.99662 -0.411628 -0.782663 -0.466906
5.9386 0.957147 6.5175 -0.0304862 -0.864104 0.502389
7.69886 10.848 8.4468 0.417096 -0.732219 -0.538411
10.1207 18.6272 6.92934 -0.749779 0.607155 -0.263048
10.2588 13.123 2.75121 -0.0503625 0.981824 0.182988
7.68252 19.206 7.25922 -0.99203 -0.11519 0.0510692
0.84826 18.3137 6.70964 -0.936785 0.342762 0.0703485
12.5295 15.2326 3.9313 -0.305149 -0.542391 -0.782749
13.4627 14.5773 4.08723 0.690933 0.673212 -0.263433
13.0213 1.61725 8.72429 0.406408 -0.912075 -0.0543318
16.173 15.0308 6.11783 0.683569 0.549073 0.480887
15.1723 0.466116 5.14954 -0.422317 0.898296 0.121298
19.0129 15.3645 4.42188 0.980812 0.00576512 0.194868
18.107 0.327882 6.47484 -0.762703 0.619476 0.185833
0.258662 16.0593 6.49189 0.882489 0.206265 0.422691
0.113556 16.0881 5.25606 -0.986362 -0.163904 -0.0150422
17.6682 15.0674 5.05072 0.782747 0.170281 0.598592
17.5801 16.0358 5.70698 -0.821045 -0.521056 -0.233209
4.06699 18.6938 10.4676 -0.342071 0.44793 0.826042
1.77666 16.6775 4.54556 0.564576 -0.778568 -0.274018
3.11724 0.33655 9.91675 -0.767116 -0.640316 -0.039096
5.42005 1.84041 11.0388 0.748365 0.466415 0.471601
4.07488 1.11794 11.2624 -0.403359 -0.771558 -0.491935
5.61128 4.04671 7.84425 -0.618805 0.534936 -0.57526
4.8535 2.97091 7.04291 0.440642 -0.654546 0.614333
5.38686 1.34492 8.58698 -0.45134 0.174935 -0.875037
7.08659 16.5766 8.91014 -0.00888137 -0.999121 -0.0409572
3.79166 6.84584 6.5021 0.83284 -0.55176 -0.0440308
5.99965 1.32495 7.61588 -0.176041 0.805473 -0.565883
5.40113 2.0058 16.1265 -0.364328 -0.607564 -0.705784
5.57831 19.1978 16.1357 -0.566951 0.594311 0.570404
7.76324 0.614163 7.84851 -0.797471 -0.439812 0.413044
8.83502 0.285041 8.20343 0.589044 0.803002 0.0906327
12.1831 5.24006 10.0888 0.156811 -0.217903 0.96329
11.4082 1.6267 7.40347 -0.180288 0.824661 0.536125
11.3616 6.92895 10.0695 -0.00285477 0.0121349 -0.999922
14.1856 0.829312 7.2588 0.698055 -0.553312 -0.454495
12.5843 5.94951 13.0426 -0.488466 0.385529 -0.782795
17.2183 2.39938 13.5061 -0.268067 0.936562 0.225815
13.9621 2.25451 7.94729 0.73291 -0.596644 -0.326891
15.6678 2.68682 14.826 0.714622 -0.365745 0.596277
12.7022 4.41202 12.8418 -0.0421167 0.613024 -0.788941
15.7561 4.49586 13.4776 0.579877 -0.797004 -0.1689
15.8584 3.04737 12.7251 0.477927 -0.860841 0.174754
0.233712 17.2609 7.08603 0.736234 0.522917 0.429555
14.5094 3.84517 12.895 0.444943 -0.735007 0.511655
5.40652 1.01376 12.8259 0.334425 -0.0448119 0.941356
18.8291 5.06438 6.03377 0.897349 0.178513 0.403606
4.21392 4.88081 7.73764 -0.701402 0.23549 -0.672741
8.70721 2.01764 9.70947 -0.818826 0.460246 -0.34307
5.35992 0.245424 8.44479 0.139773 -0.0060843 0.990165
6.48344 4.72497 8.18263 -0.921098 0.376207 -0.100229
3.99757 5.28054 6.24486 -0.462703 0.817647 -0.342577
5.20755 5.38838 8.91617 0.775503 -0.401002 0.48764
7.40339 3.27529 8.11703 0.682409 -0.578597 0.446703
8.37532 3.52376 9.61424 0.198963 -0.629053 0.751469
7.84358 5.1908 7.93871 0.0459068 -0.0771993 0.995958
2.30976 10.1948 13.8189 0.776931 0.0429008 -0.628122
10.8967 5.99669 10.5763 -0.342188 0.43658 0.832049
9.31229 3.86638 8.2993 -0.542177 -0.686676 0.484272
7.82917 18.8759 9.02625 -0.0951921 -0.963518 0.250144
4.41248 9.52767 12.6157 -0.991919 0.0981279 0.0804209
10.6311 5.55886 9.01945 -0.0299893 0.893783 0.447497
12.3165 7.27757 10.4859 0.0390394 -0.540284 0.840577
12.9946 4.67514 8.58713 -0.218124 0.898267 0.381495
13.2018 7.76431 10.9379 -0.245404 0.968098 0.0506303
12.4618 7.11224 9.04939 0.260973 0.707178 -0.657109
13.7385 4.67782 9.44183 -0.522709 0.163887 0.83661
13.7199 7.20246 8.68637 0.654346 0.754873 -0.0447
14.6565 5.07736 14.6567 0.99088 -0.119225 0.0627843
16.4156 0.909892 15.0049 -0.548982 0.732892 -0.401856
15.7806 4.70839 12.1583 0.0262696 -0.720462 -0.692997
14.4032 5.26928 11.6623 -0.482695 0.83006 -0.279296
14.432 5.63138 12.8258 0.54863 -0.835658 -0.0260998
16.8017 5.42851 5.63452 0.916582 0.202395 0.344838
0.920419 7.05001 7.83555 0.780078 0.450921 0.433761
2.92835 6.52895 8.11262 -0.922328 0.110178 -0.370366
3.3062 7.36555 7.68308 -0.909359 0.374725 0.180688
4.98241 3.44993 8.62603 0.461599 0.669313 0.582192
7.06302 9.06857 8.17779 -0.925819 -0.36023 -0.114431
4.54102 5.80717 7.37232 -0.863637 0.504097 0.00402935
18.5162 13.3742 11.4281 0.179655 -0.97636 -0.120187
7.14673 4.38355 9.41426 -0.880355 -0.142228 -0.452489
7.81114 7.36907 6.0348 0.855521 -0.509702 -0.091039
9.49236 5.51259 6.47056 -0.170471 -0.708686 0.684619
1.46031 9.35098 15.1144 0.885501 0.19123 -0.42346
7.09316 9.98082 11.6648 -0.899128 -0.136071 0.415997
8.64196 11.0359 11.6284 -0.93248 -0.207287 0.295827
9.37446 5.87674 7.46918 -0.433205 0.630121 -0.644423
7.86733 11.1034 10.6083 0.767018 0.269912 -0.582092
12.2508 7.30098 12.0556 -0.738478 0.355042 -0.573233
10.6947 8.56921 9.03235 -0.237701 0.933091 0.269889
10.2094 6.13483 4.29994 0.0934224 0.176376 0.979879
5.46174 10.6369 12.3137 0.886166 0.207488 -0.414317
13.2893 5.84857 12.2544 -0.248441 0.79153 -0.558352
11.8418 8.39666 8.58295 0.0993725 -0.329886 -0.938776
13.1099 5.63095 11.0218 -0.349236 0.680163 -0.644525
16.4308 3.35553 14.5382 0.657939 -0.740668 0.136115
14.9817 6.79872 13.9109 0.203314 -0.751315 -0.627845
12.2943 7.1024 7.54005 -0.559647 0.220647 0.798818
18.3223 10.5648 8.33088 0.328875 -0.452588 0.828858
19.3322 10.9427 8.96814 -0.403917 0.718646 0.566038
6.2746 3.75648 9.9242 -0.5139 -0.631056 -0.581098
1.61634 8.37469 5.46302 -0.232986 -0.0604823 0.970597
0.0950053 10.1785 9.72547 -0.410043 0.57507 0.707926
0.337415 8.92793 7.54707 0.305264 -0.446191 -0.841266
18.8788 11.2415 11.6799 0.723026 -0.425254 -0.544419
5.35329 8.36738 9.71164 0.364369 0.885703 -0.287689
4.70677 8.5925 7.72123 0.869615 0.396742 -0.29388
3.69205 7.5025 9.86144 0.706188 0.543687 -0.453546
6.82152 12.6485 12.0566 -0.711243 -0.412754 -0.569006
3.56174 8.28246 6.90782 0.981651 0.157448 -0.107567
8.90113 4.82156 8.67467 -0.0986104 0.303981 -0.947561
8.16172 13.2354 11.3659 -0.153435 -0.271837 -0.950033
5.39219 11.3011 11.0021 -0.0747425 -0.281792 -0.95656
10.1673 12.9686 9.79582 -0.453989 -0.337111 -0.824773
6.51604 11.337 10.5337 0.183596 -0.145705 -0.972143
5.63383 11.0583 13.2977 0.483897 0.537413 -0.690674
10.6398 10.3074 10.2308 0.466196 -0.767991 -0.439149
12.0572 11.8131 9.25466 -0.157418 -0.899332 -0.407948
10.0499 10.3972 7.99966 -0.0666461 0.141732 -0.987659
9.06189 10.548 9.92899 -0.772531 -0.437644 0.46007
6.57024 10.2709 10.7211 0.847342 -0.196425 -0.493385
17.5998 12.0526 11.3802 -0.415969 -0.516111 0.748731
11.3454 8.20042 5.37889 0.352493 0.106799 0.9297
17.3448 11.4035 10.5574 0.714182 0.476991 -0.512273
13.6595 6.40761 13.7477 -0.763732 0.61244 -0.204037
17.8457 11.7266 9.02196 -0.789637 -0.00259495 0.613568
18.6076 8.60124 6.92118 -0.363674 0.218505 0.905537
17.8706 10.7362 9.46169 0.686234 0.406319 0.603314
0.215708 11.597 10.4966 -0.295038 0.453795 0.840846
18.3843 11.9304 7.56136 -0.727182 0.548465 0.412785
3.89787 15.9977 9.21893 -0.700336 0.69135 -0.177665
2.09368 15.1235 9.05693 0.771103 0.570941 -0.281827
3.87827 13.8268 8.82942 -0.735151 -0.548652 -0.398164
2.22509 14.0768 8.73531 -0.922922 -0.382309 -0.045326
4.48827 8.78512 10.1234 -0.309057 -0.678262 0.666666
4.60624 14.9214 8.42835 0.948997 -0.311949 -0.0457365
8.75187 12.9236 8.59944 -0.491255 -0.140868 0.859549
2.59103 11.303 13.7939 0.673176 0.173764 -0.718777
9.17307 12.8937 10.9032 0.0421303 0.109553 0.993088
5.79482 14.0585 11.4003 0.465245 0.614826 -0.636818
7.52636 11.7817 11.5411 0.693737 0.378009 -0.613057
7.12919 12.7037 9.04136 0.807797 -0.44294 -0.388932
9.54923 11.8676 10.1815 0.594497 0.0172914 -0.803912
8.54404 12.7127 12.8049 0.0820539 -0.350209 -0.933071
6.72528 10.5528 12.8203 0.831155 0.542902 -0.120157
14.0422 14.4812 5.09498 0.97237 0.165985 -0.164153
10.9552 11.2864 9.48429 -0.0676943 -0.959497 -0.273466
17.7688 16.8973 8.54839 0.272617 -0.946727 0.171428
17.4711 14.4459 8.28779 0.0187376 0.999777 -0.00975448
17.2145 16.3198 7.54472 -0.261144 -0.965031 0.0227577
19.0768 13.0202 10.438 0.341502 0.938419 0.0524144
18.2994 16.1277 7.72279 0.163441 0.985716 0.0406392
16.5518 12.328 11.452 0.221754 -0.199191 -0.954541
18.3319 10.9506 6.54476 0.178843 -0.975043 0.131551
18.0713 13.4116 7.39091 -0.230446 -0.850015 -0.473675
18.2963 14.1316 9.28682 0.018626 -0.836669 0.547391
4.15687 14.6731 10.1022 0.591621 -0.313002 0.742977
19.4892 13.6732 8.25566 -0.956652 -0.0186919 0.290633
3.90994 17.3914 9.21515 0.332193 -0.424888 -0.842092
4.40391 14.1244 6.84854 -0.316646 0.938445 0.138048
2.94554 13.6553 7.61567 0.964742 -0.22634 -0.134325
5.15795 17.4009 7.33834 0.173363 0.604555 -0.777469
3.4572 16.4264 8.01919 -0.283079 0.899926 0.331663
4.47146 13.7631 12.6855 -0.23879 -0.432518 0.86943
4.63928 12.2913 13.5354 -0.433249 -0.673589 0.59881
5.46727 15.9615 9.7495 0.507417 -0.50282 0.699785
3.43001 12.349 13.718 0.439057 0.459574 -0.772023
5.68547 16.1452 7.98803 0.41851 0.545749 -0.725953
8.6095 13.8119 9.55361 0.0906563 -0.131739 0.98713
8.32806 4.368 10.8248 -0.688653 0.644394 0.332436
7.90698 13.0082 7.93599 -0.106018 0.516204 0.849879
10.4593 1.59646 8.09498 0.447616 -0.838083 -0.311861
9.82818 12.1382 11.4734 0.542914 0.122834 -0.830756
10.9987 0.22627 5.97065 0.0743124 0.931571 0.355882
12.4991 16.3424 5.92545 -0.40825 0.848483 0.336762
11.1349 17.417 6.00423 -0.273098 0.931566 0.240006
18.7335 17.6882 8.60043 -0.211699 0.975214 0.0643493
18.2126 17.1418 6.8344 -0.600504 -0.779077 -0.180095
17.1964 14.0509 7.24974 -0.338767 -0.940647 0.0205173
17.8611 15.3032 6.41492 -0.610153 -0.685548 -0.397161
16.7195 18.6445 16.0859 0.611186 0.0196605 -0.791243
19.3148 15.8971 7.4129 0.0880094 0.869374 0.486253
2.24001 14.8452 6.87319 0.802894 0.429664 -0.413219
19.0819 17.6718 13.1545 0.736043 0.516482 -0.437593
3.00774 14.7381 7.91074 -0.922098 0.345316 0.17462
4.57572 2.10748 9.49275 0.488875 0.244409 -0.837416
4.84403 17.4487 4.96302 0.0697834 0.378486 -0.922973
2.83834 19.2011 10.8811 0.0995736 -0.904635 -0.414393
5.39605 19.3738 10.9831 -0.0862651 0.281443 0.955692
4.28569 0.245876 7.14879 0.17685 0.585483 0.79116
3.42386 17.5957 6.88075 -0.917657 0.332215 0.218036
4.60366 18.8326 8.4625 0.253902 0.041199 0.966352
6.00405 16.9192 8.58079 0.177479 -0.790807 0.585769
6.77723 18.7083 9.46662 -0.402892 0.772852 -0.490283
4.78866 15.568 7.56366 -0.374578 0.579625 0.72369
4.73655 1.80636 17.2229 -0.277313 0.706014 0.651646
10.692 1.8778 9.19375 -0.69829 0.322199 0.639201
10.2167 1.8455 7.03355 0.771549 0.444383 -0.455232
12.0638 0.0241837 7.45734 -0.422074 0.74716 0.513426
12.1637 4.03743 9.14465 0.710563 -0.676088 -0.194949
11.224 19.1343 6.93517 0.423437 -0.903339 -0.0684018
11.363 16.8059 4.68566 0.0510723 0.89835 0.436302
12.0278 15.1417 5.03024 0.137328 -0.974647 -0.176646
11.9955 18.5528 5.99577 -0.0136429 0.932155 0.361803
16.8215 0.0761722 14.2763 0.0358742 0.905396 -0.423049
14.471 4.56676 13.7587 0.635842 -0.722054 0.272658
19.4105 18.5718 7.84116 0.249198 0.961276 0.117681
16.1557 2.50654 13.9056 -0.507717 0.814944 -0.279444
0.716307 15.0528 7.14117 -0.0385073 0.367455 0.929244
18.4545 18.3606 6.13603 -0.935434 0.353496 -0.00205026
1.72018 17.2097 7.88559 -0.738874 -0.595304 -0.315719
1.98138 16.1061 7.94697 0.418105 0.50044 0.758121
18.2705 18.4095 14.0246 0.710222 0.277285 -0.647069
4.33833 0.501466 12.2059 -0.10354 0.460745 0.881472
4.45297 0.201994 10.1623 0.426411 0.480269 0.766495
3.26216 2.35923 15.7453 -0.79521 -0.606138 -0.0154043
4.39731 2.21762 16.3028 0.393849 0.828698 0.39767
4.51591 0.673165 9.0633 -0.447653 -0.567294 -0.69122
5.85038 0.898172 11.0762 -0.302634 -0.0757993 -0.950088
5.73103 3.40964 16.2919 0.754413 0.321969 0.572011
3.82333 0.0567064 15.2889 0.349288 0.917661 -0.189462
6.47789 2.44369 8.97366 0.699198 -0.277481 0.658883
6.20405 18.5193 8.46326 -0.150845 0.77622 -0.61215
7.3621 3.45105 9.99139 -0.36426 -0.187134 -0.912302
6.81489 17.5552 14.4156 0.0531974 0.928437 0.36766
11.5494 6.19546 8.09124 -0.0416377 -0.0859026 0.995433
10.5972 0.709176 8.81574 -0.785774 0.529521 0.319634
7.86969 2.65376 17.9148 0.594747 -0.60781 0.526159
14.6249 2.18105 14.0161 0.464698 -0.552589 0.691882
11.8981 5.75249 11.4755 -0.00228881 0.438068 -0.898939
