8.31937 21.3423 3.00403 0.0215715 -0.61859 -0.785418
8.48945 21.5651 14.7013 -0.100102 0.582795 0.80643
8.36575 22.1894 17.6124 0.117478 -0.664116 -0.738342
19.7824 10.9059 16.6639 0.673845 0.00574946 0.73885
8.5041 7.65396 4.46423 0.51943 -0.622047 0.585875
7.82505 14.7373 17.313 0.466885 0.821319 0.3278
11.0187 13.1685 13.2511 0.537534 -0.675812 0.504317
21.8239 12.647 15.1789 0.477476 -0.725171 -0.496128
12.3819 7.75681 6.49139 -0.998198 0.0115138 -0.0588908
13.1385 21.1652 6.21689 0.937732 0.309557 -0.157584
11.8719 8.94662 14.8035 -0.916883 -0.399149 0.00254644
13.2477 9.9295 6.60265 -0.553857 0.511088 0.657291
13.1646 10.8249 5.91727 -0.579918 0.589964 0.561817
14.7792 13.7191 2.59694 0.290909 -0.787389 -0.543498
12.7277 10.899 3.60021 0.620203 0.784405 -0.00756519
13.5261 11.3063 2.50652 0.357296 0.822767 0.442035
14.0825 10.7283 3.48367 0.456832 0.0321909 -0.88897
15.5728 14.3035 3.44205 -0.387525 0.889064 0.243699
17.7206 11.953 16.5075 -0.847438 0.249957 0.468369
13.7021 12.2806 17.2591 -0.334675 -0.669409 -0.663238
17.1138 8.66968 5.07991 0.202859 -0.279451 0.938486
18.6105 11.6726 2.8301 -0.809032 0.10418 -0.578457
18.5533 8.46705 15.2611 0.172278 -0.948179 -0.266977
19.4728 9.87582 17.117 0.620264 0.0736611 0.780927
20.0935 8.87175 17.147 0.363804 0.10563 0.925467
19.6974 11.9331 17.5447 0.362507 0.0620233 0.929915
17.3847 12.1631 14.2753 0.846655 -0.503484 0.172278
21.9696 12.4598 3.15238 -0.423057 -0.43309 0.795899
21.9866 11.4242 16.798 0.198479 -0.710953 -0.674649
18.3092 13.2056 14.559 -0.575531 -0.295343 -0.762586
20.5941 12.307 15.1922 0.11655 -0.912596 -0.391899
8.61524 10.0649 8.69923 0.235741 -0.69437 0.679909
8.69482 14.705 16.5528 0.464005 0.825752 0.320674
9.90832 15.486 2.36723 0.39253 -0.0179335 -0.919564
12.3411 13.5806 3.22739 -0.679158 -0.718853 0.148307
9.92339 12.4564 4.71701 0.732815 0.669995 -0.118698
10.4842 9.77827 6.87623 0.990121 0.0772271 0.117033
8.87426 14.1131 17.5499 0.108394 0.959173 0.261223
11.9477 9.4986 2.60538 -0.712777 0.157351 0.683513
12.0662 14.0249 4.29145 0.62653 0.777921 0.0479477
14.3227 11.7564 4.19396 -0.192815 -0.647924 0.736896
14.6362 14.7793 4.99168 -0.147191 -0.952346 0.267156
14.5727 11.62 17.3992 -0.211343 -0.695947 -0.686289
15.7346 13.8532 4.46119 -0.119294 0.956947 0.264616
15.3926 11.6244 3.27327 0.0418329 -0.536329 -0.842971
16.0469 17.9405 3.80559 0.663986 0.747668 -0.010735
16.8014 11.099 14.6452 -0.709827 0.696614 0.104282
17.5727 12.3893 3.50292 -0.116029 0.962092 0.24681
17.6112 12.409 15.3483 -0.998281 -0.0221461 -0.0542727
15.9443 15.6114 17.1743 0.28133 0.753711 0.593947
17.5898 10.7994 16.4199 -0.80263 0.367479 0.469834
16.5393 14.0916 17.013 -0.596225 -0.148154 -0.789029
19.9151 13.4978 16.5421 0.287324 -0.656052 0.697883
18.8827 12.7368 3.83796 0.623086 -0.740784 0.251005
22.3709 13.6177 3.44291 0.13817 0.0493489 -0.989178
19.0289 13.3958 17.502 -0.129514 0.723193 -0.678393
21.3174 11.9887 15.9155 -0.330775 0.81033 0.483688
19.653 11.6147 15.3966 -0.258848 -0.756419 -0.60069
8.1947 14.7277 3.00735 0.374039 0.876743 0.302352
9.45357 13.5461 4.2838 -0.536353 -0.843989 0.00278696
11.5759 14.3273 5.32974 0.566203 0.818985 0.0931569
9.51334 16.5683 17.668 0.76998 0.146934 -0.62092
11.4099 16.3323 17.2063 0.171509 0.98392 -0.0498681
7.9842 14.9141 5.39019 -0.793704 -0.596979 -0.116833
12.4233 13.5085 5.27028 -0.455601 -0.887998 -0.0623434
12.5019 16.4545 2.35031 -0.602799 -0.786678 0.133311
11.5117 14.3093 3.31561 0.607575 0.780303 0.148254
13.2267 16.3487 4.24413 -0.59105 -0.788008 -0.172348
13.148 12.6421 3.28243 -0.733664 -0.679339 -0.0153541
10.7958 11.5408 3.08808 -0.843564 -0.528613 0.0946962
14.0593 15.2011 2.65501 -0.61086 -0.595808 -0.521405
13.0741 15.6663 2.99806 0.561016 0.769249 0.305804
17.5283 16.4635 3.58997 0.710862 0.703274 0.00900697
17.5884 19.1547 16.9694 -0.456594 0.0418276 -0.888691
16.2467 16.4999 3.26172 -0.459814 -0.881835 -0.104582
15.8257 15.6898 4.21163 -0.413112 0.879738 0.235371
16.8459 13.1686 16.3059 -0.6456 -0.0820586 -0.759254
19.6623 16.8553 16.9369 -0.512026 -0.784711 -0.349367
15.1222 14.4147 17.3038 -0.00928755 0.642966 0.765838
18.0499 13.7967 2.693 0.135558 0.990759 -0.00460471
18.859 12.9192 4.98125 -0.692903 0.718289 0.0628264
18.1817 14.4014 15.1296 -0.601647 0.175587 -0.779224
18.6408 12.758 16.6864 -0.709885 -0.164507 0.684836
20.1218 13.5394 2.51242 0.250307 0.703038 -0.665645
9.75544 10.0839 8.14584 0.112474 -0.451222 0.885296
7.27066 15.8498 17.3046 0.421333 0.830589 0.364144
22.5693 15.2082 2.72391 0.486063 0.8108 0.326106
12.0065 17.5154 2.52349 -0.526943 -0.731207 0.433207
8.17749 16.3364 4.95354 -0.734074 -0.669971 0.11079
10.2249 17.596 2.58588 0.858573 0.264109 -0.43943
9.88933 16.4787 3.28974 -0.817899 -0.118646 0.562995
11.7022 18.0965 4.71079 -0.860713 -0.465709 0.205639
10.7963 15.1853 3.08937 -0.407376 -0.830814 0.379199
9.10366 13.9637 3.17868 -0.599269 -0.741148 -0.302615
11.2616 14.9429 4.30837 0.564769 0.825188 -0.0100158
12.9173 16.9229 6.38057 -0.634711 -0.764322 -0.113816
12.4149 16.6178 3.47029 0.593117 0.801675 0.0743612
13.9463 18.5088 4.13919 -0.887251 0.28411 -0.363411
14.8203 15.7013 17.3263 0.428945 0.500067 0.75229
15.1631 16.9806 17.4045 0.522314 0.2546 0.813859
17.5521 16.4118 4.99108 -0.776172 -0.608369 -0.165666
16.909 18.1591 16.989 -0.683625 -0.0566598 -0.72763
18.3366 19.7374 16.3015 -0.75385 0.215143 -0.620825
17.6747 18.0766 3.34555 -0.0312255 -0.770877 -0.636218
16.3665 14.9891 2.59958 0.489213 0.857974 0.156689
17.0081 16.2922 17.0212 -0.547861 -0.0672059 -0.833866
17.0125 15.1529 16.8268 0.511328 -0.00900307 0.859339
20.6789 16.1641 17.426 0.0827124 0.953638 0.289366
19.5851 14.0029 4.64692 0.142164 -0.723664 0.675352
17.9114 15.16 16.0197 0.672721 -0.101262 0.732934
21.2688 13.4943 3.39471 0.00676681 0.510153 -0.860057
20.7134 13.4861 4.95965 0.235404 0.960376 -0.149208
7.58322 15.2565 6.5961 -0.428073 -0.727922 0.535614
18.1827 16.1218 15.1488 0.784154 -0.129194 0.606969
21.7442 15.544 3.58217 -0.447148 -0.894444 -0.00536637
11.158 18.4268 6.72931 0.758787 0.585111 -0.286161
11.2649 18.512 2.93959 0.522651 0.205306 -0.827457
8.06185 16.7652 3.93849 0.76143 0.63199 -0.144266
11.9922 17.9338 3.55002 -0.68444 -0.553895 0.47407
11.0191 19.8929 4.75114 -0.729326 -0.539268 0.421039
15.3785 19.002 2.38437 0.630343 0.057336 0.774197
10.7326 18.3754 5.56862 0.98098 4.71934e-05 0.194108
10.0183 17.6042 4.01462 -0.707553 0.387664 0.590834
12.0147 16.9623 4.56573 -0.793612 -0.576131 0.195585
16.6313 19.4893 4.48448 -0.843554 -0.194364 -0.500638
20.2262 18.9484 17.4307 -0.200344 0.71764 0.666974
18.4645 18.9004 15.5988 0.748135 -0.0822511 0.65843
14.5593 19.8028 2.76303 -0.786537 0.0783422 -0.612553
19.155 18.6193 17.3391 -0.267179 0.699174 0.663152
16.2849 17.1564 17.0131 0.56233 0.0562025 0.825001
16.4351 19.1457 17.3246 0.536856 -0.209303 0.817299
18.3193 17.2158 15.8879 0.56189 0.117636 0.818805
17.4189 17.2648 16.5975 -0.532272 -0.0370011 -0.845765
17.0314 20.1412 17.2535 -0.123781 -0.0748875 -0.98948
17.9003 16.2792 16.3701 -0.662767 -0.112733 -0.740291
18.7169 21.1868 2.62308 0.00906997 -0.256745 0.966437
19.7104 16.2823 2.46665 0.397986 0.744206 0.536438
19.3762 15.0132 16.1753 0.500867 -0.191847 0.843995
20.1242 15.6844 15.6822 -0.656784 0.211284 -0.723875
20.8417 15.8669 3.04752 -0.0832201 -0.934332 -0.346553
20.7508 15.8252 4.28221 0.108212 0.990525 0.0845535
9.37774 16.8567 5.72575 -0.56131 -0.655519 0.505199
22.3369 17.5894 3.86891 -0.962897 -0.266104 0.0449203
8.17148 20.4018 3.63279 0.115819 -0.6392 -0.76027
10.3103 19.3696 3.74716 -0.371978 -0.602303 0.706302
13.1904 7.08916 3.47075 0.862798 0.420099 0.281241
9.93154 18.657 2.96595 -0.686097 -0.442286 0.577628
13.6985 21.621 4.02068 -0.887452 -0.253892 -0.384665
14.5529 20.8759 2.31747 0.855915 -0.141771 0.497303
13.9896 8.60187 14.4404 0.475656 -0.87067 0.125242
14.5648 22.0779 17.3815 0.577718 0.361536 0.731802
13.5045 7.34897 17.6434 -0.799156 -0.0440691 -0.599506
14.0451 19.6241 3.77806 0.865202 -0.103269 0.490673
13.9932 9.7286 2.33209 -0.186663 0.547674 -0.815604
17.8111 18.1616 16.1555 0.449731 0.11434 0.885815
15.1505 7.30809 16.5025 0.42654 -0.150088 0.891929
19.2554 16.8598 15.1438 -0.627304 0.124496 -0.768759
15.9004 6.96316 15.646 -0.294567 0.419792 -0.85849
18.8591 17.9781 15.18 -0.746346 0.0198488 -0.665262
18.3954 7.75437 2.7527 -0.0580501 0.239809 -0.969083
20.6502 20.5237 2.41409 -0.0886462 0.15649 -0.983693
14.6745 9.0367 17.2 0.255157 -0.426603 0.867701
18.1963 20.2867 17.4458 -0.0234047 -0.444521 0.895463
19.5182 7.96496 17.6095 0.063418 0.141288 0.987935
21.309 7.28424 2.99681 -0.164864 -0.0744269 -0.983504
21.7125 20.4514 3.36932 0.122161 -0.670594 -0.731697
21.6424 7.46983 16.4056 0.61162 0.62649 0.483147
22.4821 8.9711 3.43667 -0.21397 0.191805 -0.957824
7.59368 17.2613 4.92253 0.787413 0.522678 -0.326786
21.8173 21.9716 17.1803 0.364769 0.500911 0.784877
7.28294 20.8232 3.0683 0.0112792 -0.63167 -0.775155
8.85318 11.3602 17.4766 -0.263332 0.269095 -0.926415
22.5488 19.2036 4.62175 0.00685835 0.590382 0.807094
8.98269 8.23296 5.63399 0.321731 -0.485313 0.812995
13.543 20.4973 4.4093 0.866204 0.0767755 0.493757
7.41065 7.0198 16.9981 -0.0321225 -0.780145 -0.624774
11.1587 20.7488 5.65603 -0.802631 -0.594845 0.0440876
13.2548 22.2514 7.00222 -0.930534 -0.105624 0.350642
14.1085 20.679 3.33955 -0.906995 0.0343559 -0.419737
14.7512 21.5764 7.20017 -0.281888 -0.126259 0.951103
10.1826 20.6353 4.25586 0.337575 0.272406 -0.901021
14.6384 8.4397 4.1649 -0.456655 -0.522799 0.719825
12.4271 8.12692 2.91223 0.581113 0.777339 -0.24094
15.2296 7.57392 3.83526 0.227079 0.475587 -0.849854
17.5838 8.37618 3.74561 -0.379934 0.254069 -0.889438
14.2936 12.3793 5.24335 0.335213 0.820712 -0.46267
16.7061 7.87881 4.19658 -0.355138 0.333871 -0.873159
16.6902 8.72763 16.8543 -0.125713 -0.478494 0.869045
18.147 21.7704 5.82231 -0.388896 -0.151749 -0.908698
16.0352 8.74803 5.61285 0.236621 0.646359 -0.725418
20.5646 7.90507 16.7159 -0.275018 -0.10651 -0.955521
19.3969 9.96411 6.56495 -0.133652 0.520731 -0.843194
19.7182 7.41519 4.58815 0.404698 -0.244387 0.881189
18.3719 7.16574 16.3361 -0.281985 -0.940367 0.190251
21.4701 9.62081 3.52679 0.622698 -0.0107793 0.782388
21.2833 11.686 6.51046 0.10493 -0.492318 -0.864067
21.8725 20.93 2.27227 -0.110431 -0.739929 -0.663558
7.81647 9.61944 2.38572 -0.709127 -0.074726 -0.70111
22.4691 10.2084 3.10345 0.647151 0.286024 0.706672
11.2984 10.9977 4.93313 0.662105 0.742368 -0.102505
7.57677 6.90808 4.9807 -0.101775 -0.291554 0.951125
7.22654 13.3921 15.7911 -0.374799 0.802344 0.46451
7.84827 7.79681 5.75727 -0.0468485 0.556816 -0.829314
7.59276 11.6517 16.9663 -0.116689 0.605173 0.787496
12.3702 7.78672 5.35653 0.990787 -0.132852 0.026304
12.337 10.0573 5.98571 0.548451 -0.462876 -0.696382
13.4512 7.78223 7.54129 0.920441 -0.0360751 -0.389213
12.2413 8.80422 6.00769 -0.942155 0.244082 0.229714
14.0587 10.7854 6.64148 0.405109 -0.67875 -0.612524
13.2266 12.0322 4.45709 0.63846 0.738922 -0.215321
12.3566 8.94703 3.77158 -0.994402 0.0956217 0.0449472
14.9301 10.4378 4.13326 0.406944 0.123338 -0.905088
17.7906 9.00809 16.9833 0.189594 0.609716 -0.76961
15.7037 11.9245 17.3368 -0.180784 -0.607431 -0.773528
16.3774 7.86309 16.2367 0.00293533 0.569104 -0.82226
14.6462 12.5399 16.5901 0.173298 -0.901316 -0.396985
18.4848 9.93285 7.29787 -0.119801 0.463125 -0.878159
17.4403 11.3224 15.5061 0.90496 -0.223073 -0.362334
18.5725 10.4724 4.05374 0.225787 -0.284734 0.931637
17.8316 13.0843 5.90141 0.675012 -0.718123 0.169287
21.479 8.4983 3.58005 0.3355 -0.121005 0.934236
20.5432 9.8268 16.6822 0.439572 0.272575 0.85585
21.6258 10.7681 3.52531 -0.727159 -0.0822686 -0.681521
22.1764 11.2554 2.65431 0.61792 0.47564 0.626052
8.49856 11.9398 3.17854 0.149266 -0.379127 0.913226
20.6883 10.7912 15.8502 -0.392057 -0.264192 -0.881189
20.8975 11.7503 17.5613 -0.351636 0.145399 -0.924776
9.52239 11.693 9.81153 -0.424445 0.225888 -0.876825
8.62836 10.2098 17.25 0.474148 -0.0367186 0.879679
9.45312 13.2262 5.45857 -0.764067 -0.637249 0.10057
7.93449 12.7537 16.6278 -0.246202 0.540944 0.804217
10.3251 11.313 6.40139 -0.52988 -0.842334 -0.0984915
12.7758 8.9245 7.10842 0.943744 -0.272744 -0.186973
12.7817 13.2014 4.19277 -0.64627 -0.760273 0.0657308
10.301 9.47042 5.73408 -0.943388 -0.240126 0.22882
11.567 13.6666 9.17488 0.745639 -0.0258985 -0.665846
13.9185 12.9492 6.20755 0.338292 0.916363 -0.214098
13.3652 12.973 5.24379 -0.391715 -0.870895 0.296818
14.0013 15.582 3.89496 -0.58897 -0.790476 -0.168112
11.4461 10.9884 3.84658 0.727185 0.682323 0.0750791
15.4243 14.9505 5.77891 0.380794 0.818084 -0.430969
14.7163 13.6445 3.80711 0.45747 -0.810114 -0.366654
15.8362 13.039 16.9627 -0.331899 -0.359392 -0.87217
17.1595 11.6108 4.32104 0.414771 -0.842028 -0.344897
20.833 13.0522 9.10513 0.00144891 0.479035 0.877795
19.588 13.5552 7.47145 -0.415376 0.691577 -0.590917
16.8358 10.3014 15.5571 -0.872088 0.401892 0.279188
21.8677 12.3853 9.19942 0.251778 0.224266 0.941442
7.18549 11.6819 7.01207 -0.220342 0.415269 0.88261
21.0466 14.3199 16.4987 -0.764691 0.378426 -0.521576
21.5697 9.97253 16.3405 0.531187 0.235555 0.813851
7.47983 12.7099 9.12403 0.162605 -0.658922 -0.734426
20.9843 12.7584 2.60168 -0.229075 -0.428502 0.87402
8.64494 11.5489 6.32405 -0.648305 0.0865004 -0.756451
7.594 10.2993 9.13715 -0.1462 0.766356 -0.625559
21.7124 13.5283 8.5004 -0.16695 0.00879837 -0.985926
11.5621 11.3491 5.9666 -0.629834 -0.76325 0.144077
10.673 11.8137 5.3006 0.514635 0.849627 -0.115258
9.35013 10.158 5.01196 0.297959 -0.914355 -0.274182
9.65278 13.1443 6.69049 0.816787 0.574657 0.0512715
11.2676 14.7434 6.30549 0.739977 0.63714 0.215606
12.5916 19.1356 5.58153 -0.929995 -0.0779549 -0.35921
16.0098 17.5547 6.07063 0.340372 0.914511 0.21867
12.0707 15.4818 8.34824 0.761962 -0.579805 -0.288512
14.978 16.4762 6.43344 0.248728 -0.960824 0.122273
13.7119 15.5339 4.97225 -0.362499 -0.909463 -0.203644
12.8748 12.9611 2.29195 0.516519 0.840405 0.164099
12.8754 16.5445 5.26821 -0.719523 -0.658044 -0.221958
16.5158 11.6836 3.40381 0.149416 -0.969318 -0.195185
18.7195 16.0086 5.43334 0.47145 0.625077 -0.622104
16.863 14.1657 4.74747 -0.0584784 -0.899854 -0.432254
18.6453 16.2159 6.8806 0.0113352 -0.998413 0.0551562
19.1292 13.631 6.04014 0.111562 -0.969331 0.218979
17.3035 14.656 3.33554 -0.503073 -0.860178 0.0837332
17.4558 14.2307 16.4316 -0.67061 -0.0408544 -0.740684
18.8924 17.4586 5.96419 -0.490843 0.853792 -0.173533
16.8842 12.4812 2.50977 0.123405 0.974705 0.186339
19.1761 14.1755 2.93032 0.0534571 -0.493488 0.868108
17.5019 13.4459 15.3442 0.736286 0.0536487 0.674541
18.6122 16.2439 2.79209 0.458344 0.541964 0.704412
9.47721 10.9431 8.83254 -0.349508 0.29707 -0.888591
7.75535 12.6207 6.78426 0.000132942 0.132742 0.991151
8.40599 14.3903 4.10654 -0.648213 -0.759181 0.0588548
19.7186 14.4997 9.69827 -0.342931 0.795506 -0.499568
9.27733 13.8957 7.39699 0.745585 0.573884 -0.338764
8.84788 14.1182 5.09722 -0.554617 -0.832004 -0.0130081
7.51189 15.1266 4.10487 -0.794728 -0.59921 -0.0967181
9.27044 14.1211 6.16734 0.785607 0.609615 -0.10579
13.8518 19.6362 6.95097 0.785948 -0.431002 0.443308
10.5949 15.8609 4.01217 0.710774 0.659325 -0.245133
13.4866 19.3773 4.80655 0.928059 -0.174876 0.328824
15.2077 19.7775 6.76036 0.587299 0.349588 0.729978
16.2938 18.1945 5.07619 -0.58178 -0.755618 -0.300953
14.9816 17.6951 5.45941 -0.162132 -0.865482 -0.473977
13.0041 15.5 17.2154 -0.835398 -0.549631 0.00414389
14.1629 16.8264 2.39863 -0.568216 0.139796 -0.810918
16.9831 17.4132 5.49586 -0.517971 -0.84582 -0.127651
16.9291 17.4157 4.3642 0.312386 0.937488 0.153398
17.9648 15.6303 4.2305 -0.851002 -0.524588 0.0245497
16.5057 17.364 10.4717 0.359951 0.407877 -0.83909
19.5478 17.9768 3.9338 0.716078 -0.696171 -0.0507765
18.7607 17.944 2.76226 -0.232135 0.852236 0.468837
18.3523 14.635 3.85022 0.482328 0.710515 -0.512375
18.3395 19.6178 6.39275 0.6501 0.310629 0.693454
21.8289 13.6871 6.03332 -0.174892 -0.238865 -0.955173
21.7311 16.0156 2.38681 -0.302947 -0.885184 -0.353089
20.1916 13.4252 3.89485 0.042802 0.914024 -0.403396
20.5971 18.2361 5.29179 -0.0907817 0.396998 0.913319
20.7126 14.9125 6.61951 0.350377 -0.903158 0.248076
19.8363 15.8491 3.54261 -0.0131395 0.828977 0.559128
12.1041 17.8137 6.63711 0.813843 0.515877 -0.267452
7.34392 16.5485 7.48525 0.265514 0.963837 0.0228058
10.7568 15.773 6.64194 -0.813415 -0.578806 0.0577961
11.2178 19.5914 6.08879 -0.857503 -0.512805 0.0414728
8.62818 14.8179 6.76233 -0.55258 -0.732735 0.397182
7.23223 18.067 5.61779 -0.402891 0.0516196 -0.913791
15.2903 20.7285 6.04473 -0.913352 0.183358 -0.36355
12.1788 17.4049 5.60682 -0.652684 -0.726524 0.214863
14.1114 17.6184 3.37497 0.618496 -0.254077 0.743578
9.7798 19.7714 7.37489 0.218409 -0.858064 -0.464784
15.6765 19.147 5.36713 0.29529 0.386165 0.873888
14.5059 18.0025 17.6489 -0.777209 -0.0154049 -0.629054
15.9642 18.0641 17.6007 -0.63644 -0.0266501 -0.770866
10.8227 21.7466 7.71525 -0.647741 -0.601418 0.467684
16.6649 17.8214 8.47871 0.672929 0.736746 -0.0661101
19.7569 18.4991 2.95152 -0.319012 0.86238 0.393105
17.5884 16.4588 6.10358 -0.350382 -0.907774 -0.230607
15.7627 16.514 10.1913 -0.546409 -0.321853 0.773206
19.5266 19.1911 6.42041 0.652294 0.191183 0.733459
18.1044 22.0658 2.94133 -0.16522 0.294149 -0.941371
20.1003 14.4182 5.66711 -0.0332837 0.620438 -0.783549
19.0508 20.0325 5.63177 0.690241 0.279597 0.667378
20.5621 19.0885 3.53301 0.416342 0.419226 -0.806789
19.765 21.4077 17.491 -0.128133 0.116364 0.984907
21.6059 16.3192 16.8082 -0.0993138 0.93714 0.334521
20.2023 7.04341 17.4138 -0.0501907 -0.282667 -0.957904
21.8121 15.5557 4.71429 -0.00416204 -0.992659 0.120872
9.58962 16.2411 4.66624 -0.656472 -0.753467 0.0364836
8.32452 17.2498 5.9564 -0.443235 -0.675441 0.58934
21.6584 19.4403 3.8323 0.15908 -0.734686 -0.659493
9.16858 17.4148 6.88195 0.71348 0.531569 -0.456487
9.81072 16.7127 7.76065 0.762419 0.61999 -0.18528
11.5798 19.1578 3.94316 -0.687965 -0.452514 0.567394
7.18058 19.9781 3.8028 -0.216265 0.6266 0.748734
8.00441 19.0864 5.53688 -0.121721 -0.647353 -0.752408
15.4385 21.0698 4.88334 0.0751929 -0.939814 -0.333311
15.8677 20.0929 17.6421 -0.396927 0.202216 -0.895298
9.29176 20.899 3.56333 -0.115681 0.602166 0.789945
13.2136 20.2539 5.5475 0.938822 -0.102457 0.328809
12.3541 7.83061 4.24705 -0.979558 -0.190157 0.0656221
14.3638 18.7984 3.10425 0.892042 -0.0374895 0.450396
11.1878 21.382 8.79697 0.7352 0.355083 -0.577406
18.6691 16.6523 8.11866 0.172231 -0.95708 0.233096
16.9944 21.8586 3.11246 0.169466 -0.289758 0.941977
17.4007 7.28936 3.54752 0.24796 -0.344803 0.905332
16.6987 20.5625 4.07145 -0.830243 -0.179758 -0.527622
18.1839 20.6891 6.04874 0.64769 0.263978 0.714712
16.4272 21.072 17.3619 0.0818706 -0.0611086 0.994768
17.5869 21.0933 2.56367 -0.134646 0.230529 -0.963705
19.4083 19.4087 4.62452 0.620598 -0.191026 0.760505
18.9525 21.1681 5.31773 0.566577 0.132135 0.813345
20.6968 7.8781 4.21713 0.345776 -0.270395 0.898513
19.1545 6.86607 2.51093 -0.0427601 -0.0259006 -0.99875
20.4225 21.0052 4.15473 -0.606975 -0.0999061 -0.788416
21.77 17.3233 5.79295 -0.303517 0.181058 -0.935465
7.41677 21.661 2.36463 0.0422833 0.646623 0.761637
8.06482 19.5774 4.4309 0.0602408 0.645257 0.761587
8.58758 9.86483 5.85654 -0.42356 -0.643544 -0.637533
8.54863 21.2884 5.59803 -0.00519778 -0.608997 0.793156
22.0318 22.0723 4.48307 -0.246188 -0.371528 0.895186
7.47865 20.8603 5.76639 -0.138553 0.551355 -0.822685
7.24459 22.0431 7.31715 0.174588 -0.52861 0.830717
8.77106 21.8747 11.1836 0.154958 -0.878207 -0.452482
13.4084 22.1786 8.17398 0.862676 0.189005 -0.469114
9.07243 19.1148 4.89788 -0.32498 -0.592756 -0.736905
7.79831 7.28613 7.95986 -0.0523704 0.504462 -0.861844
13.0559 7.3146 9.16648 0.613613 0.457009 -0.643911
13.73 9.89406 8.89869 -0.190733 -0.495081 -0.847653
15.669 8.32684 4.52949 -0.337718 -0.586507 0.736176
14.4501 8.96819 8.69161 -0.217754 -0.297888 -0.929433
17.2512 21.1222 7.86609 -0.801302 -0.385305 -0.457663
16.9245 9.64169 17.5391 -0.197705 -0.335092 0.921209
17.5366 10.3009 2.80873 -0.136652 0.742322 -0.655961
17.0304 9.52899 6.36727 -0.500028 -0.809311 0.3082
19.9418 7.5271 7.47526 0.0235381 0.143305 0.989399
18.4585 8.90708 3.2154 0.493488 -0.485848 0.721402
17.9736 7.52795 5.99449 -0.0286631 0.122401 0.992067
16.4461 7.52125 5.83311 0.513485 0.346529 0.785016
20.4539 21.6473 7.4875 0.140576 -0.281902 0.949089
20.6802 9.04559 4.1838 -0.547481 0.155899 -0.822168
20.559 22.1671 4.25442 0.47864 0.00662366 0.877986
20.7225 10.2037 4.16648 0.53372 0.032059 0.845053
21.2103 21.0677 6.79597 0.102217 -0.282979 0.953664
8.57658 10.0836 4.08818 -0.526885 -0.849818 0.0142244
7.86419 10.4215 4.90973 -0.461269 -0.88726 -0.000454806
7.7035 10.4115 6.45669 0.532007 0.512963 0.673675
21.655 21.7022 7.94349 -0.0133402 -0.231072 0.972845
22.3421 12.3979 16.2541 0.207603 -0.690684 -0.692716
22.0572 7.44305 5.37856 -0.48367 -0.496619 0.720717
22.3397 8.41382 5.87661 -0.18545 0.587562 -0.787641
22.5354 21.4012 9.63686 0.75544 -0.262234 -0.600453
14.3913 7.61914 5.90632 0.328758 -0.903748 -0.27415
11.901 10.0491 4.54252 -0.870996 -0.41041 -0.270056
11.8539 11.0634 8.4397 0.121704 0.528299 0.84029
15.518 8.80016 8.73909 -0.128993 -0.635346 -0.761378
15.1465 9.27133 4.92516 -0.247234 -0.364615 0.897737
15.5865 9.89348 5.83933 0.141764 -0.688228 0.711509
13.3184 13.0185 7.33501 -0.181345 -0.95359 -0.240376
17.1038 9.11017 11.3758 0.1113 0.686817 0.718258
14.0753 9.93417 7.42004 -0.180753 0.72032 0.669677
15.8816 9.26753 17.455 -0.0728206 -0.468482 0.880467
13.5286 8.67532 9.20432 -0.267264 -0.114884 -0.956751
19.0522 8.60826 7.75171 -0.256492 -0.106003 -0.960716
15.4047 11.9722 5.28314 0.544849 0.811324 -0.21188
19.2714 10.9747 17.6799 0.773878 -0.169456 0.610243
18.2722 9.0806 4.74651 -0.0364862 -0.509104 0.859932
19.9273 8.42955 4.93948 -0.274271 0.231169 -0.933454
19.7349 10.7886 4.56254 0.281929 -0.0495529 0.958155
18.6443 10.0778 2.39927 -0.631197 0.0149402 -0.775479
20.602 11.4145 4.29073 -0.0665226 -0.0779065 -0.994739
7.61651 9.61165 8.14607 -0.0229484 0.85669 -0.515321
7.88831 12.6813 3.85954 0.226575 -0.301075 0.926293
10.6016 11.6157 4.2205 0.677534 0.725039 -0.123556
7.55627 10.8323 10.2327 0.0747525 -0.567525 0.819955
20.0904 10.0048 11.7492 -0.250854 -0.104258 0.962394
10.1381 12.5631 5.93372 0.624332 0.77632 0.0868107
11.8168 13.4765 6.22805 -0.418889 -0.881392 -0.218357
10.8258 13.0362 8.4552 -0.670544 -0.467301 0.576195
10.3905 11.4198 8.46061 0.0703043 0.398123 0.914634
10.5551 12.5941 7.30076 0.616112 0.75186 -0.234762
11.2831 11.701 7.67925 0.261359 0.712932 0.650707
8.13745 16.38 8.36531 -0.673214 -0.726939 0.135436
13.751 12.4785 8.22793 0.30607 -0.907269 -0.288415
15.6087 13.1364 6.81555 -0.0935562 -0.979146 0.180336
15.029 12.814 5.94573 -0.209732 -0.875094 0.436145
11.5801 11.6296 10.3784 0.930306 -0.366095 0.0224615
14.582 11.1926 10.5634 -0.281959 0.34359 0.895793
16.587 10.9678 5.37872 -0.151257 0.988388 0.0145344
18.9245 11.2475 6.78994 -0.774418 0.481156 -0.410812
11.3042 12.5895 11.0683 0.678333 -0.554338 0.482259
19.3537 12.2636 7.23585 -0.912569 0.234194 -0.335217
18.6522 14.9717 4.89214 0.797208 0.465884 -0.383941
20.7178 10.7202 6.80932 -0.185862 0.49926 0.846283
16.4258 12.3319 7.88599 0.0790952 0.573435 -0.815424
19.7491 9.61588 4.512 -0.585569 -0.0593059 -0.80845
18.0782 14.0098 6.57046 -0.429228 0.699402 -0.571489
8.33994 12.3601 11.2414 0.202382 -0.416548 0.886301
7.30251 13.7073 8.20575 0.126554 0.250627 0.959776
21.8121 10.8416 6.93929 -0.117935 0.531422 0.838858
8.44417 11.5866 10.3896 0.123553 -0.502722 0.855573
8.50851 10.8985 9.44459 0.214802 -0.645169 0.733224
7.65906 15.7151 11.7009 -0.692854 -0.450407 -0.563105
12.037 12.8346 7.23 0.458531 0.789893 0.407209
8.96154 14.2299 8.84442 0.746317 0.65484 0.11914
10.5887 14.032 7.77323 0.793138 0.288262 -0.536504
8.01318 15.779 9.51369 0.912791 0.407186 0.0318245
11.4903 16.6487 7.65325 0.847925 0.383672 -0.365813
13.9526 18.2946 5.50983 0.372711 0.462862 0.804267
11.3312 14.6228 8.52197 -0.742122 0.31011 0.594211
13.4397 18.0037 8.44987 -0.753433 -0.411439 0.51289
14.4769 12.9624 7.14088 -0.101139 -0.985684 0.134899
14.3006 15.1756 6.12325 0.402106 0.749516 -0.525867
11.7615 10.8933 2.72621 0.790738 0.602139 -0.110282
10.9996 15.329 7.68482 -0.821563 -0.349777 0.450211
16.0832 10.8739 4.3079 0.0537251 -0.98717 -0.150365
13.9945 16.7376 7.09114 0.160764 0.971984 0.171469
18.0156 12.3368 4.53718 -0.572042 0.728184 0.377513
16.7017 14.2321 6.53586 0.22442 -0.691085 0.68705
15.4312 10.9424 6.54924 -0.313869 -0.876309 0.36547
19.5382 17.1331 7.28355 0.23491 -0.900722 -0.365399
18.7548 14.1429 9.3258 -0.274964 0.829722 -0.485754
17.1614 10.7687 9.94371 -0.278736 0.229877 -0.93245
17.0329 11.5873 11.1206 -0.259176 0.738444 -0.622518
9.51518 12.6497 10.597 -0.681783 0.037981 -0.730568
8.95402 12.327 7.72112 0.828101 0.548061 0.117804
16.0458 10.972 10.0907 -0.223798 -0.0150765 -0.974519
9.1683 13.7234 10.1263 0.85482 0.143384 0.498722
22.0588 12.6734 6.68641 -0.214028 0.0602538 0.974967
8.19066 15.5643 7.50053 -0.589271 -0.671615 0.449103
20.2661 15.0091 8.60536 0.580811 -0.751616 0.312621
22.1689 14.5431 9.03239 0.046711 0.200285 -0.978624
10.1432 16.7603 6.5718 -0.620542 -0.721682 0.306763
9.15972 15.0699 7.74373 0.724964 0.645499 -0.240329
7.83836 19.1124 12.858 0.740529 0.186503 -0.645626
10.0335 16.7145 10.5022 0.260911 0.604709 0.752498
10.8633 15.2686 5.37092 -0.709944 -0.647081 -0.277969
12.1629 14.6562 9.26082 0.740276 -0.333355 -0.583837
12.2071 18.8659 7.35732 -0.802786 -0.190033 0.565174
14.0245 17.6997 9.33094 0.870019 -0.0664013 -0.488526
13.3326 15.7368 6.06229 0.555927 0.830508 0.0346637
15.5491 18.675 6.92942 0.851091 0.499782 0.160819
11.9734 19.6883 8.2736 -0.822622 -0.409183 0.394794
14.9091 16.2649 7.71139 0.280535 0.832634 0.477516
15.4529 18.2518 8.00561 0.858937 0.51 0.0461266
19.6671 15.5544 5.74456 0.3205 0.484817 -0.813776
17.715 16.5931 7.43999 -0.0267018 0.955599 -0.293457
17.8377 14.2215 9.94548 -0.376301 0.830184 -0.411329
17.9178 19.3005 7.72154 -0.88338 -0.437416 -0.16825
18.3527 18.0351 4.63788 -0.384642 0.866049 0.319389
17.722 16.3627 9.98967 -0.524655 0.592356 -0.611434
19.4095 14.322 8.40544 -0.418551 0.747471 -0.51585
20.1292 17.5918 6.45192 -0.116367 0.7993 0.589557
7.40948 13.3973 5.62247 0.0926198 0.331451 0.938915
19.6534 17.6887 5.05832 0.551485 -0.834071 -0.0137572
20.6736 14.974 9.90138 0.582346 -0.80131 0.13702
20.9739 15.253 7.69237 0.65935 -0.751787 0.00855674
22.1249 18.2706 6.73243 0.533751 -0.0212072 0.845375
21.3751 18.7959 8.12865 -0.936888 0.265311 -0.22771
7.69766 17.3099 12.1966 -0.770029 -0.324605 0.549261
10.0844 18.4489 7.93928 -0.555237 -0.821103 -0.132293
10.2537 16.16 5.57481 -0.596903 -0.784399 0.168597
22.6323 19.337 6.68349 -0.179546 -0.36723 -0.912637
10.8176 18.0267 8.70867 0.51365 -0.327794 -0.792915
10.9532 20.7203 6.8395 0.659455 0.711592 0.242397
9.54767 17.4736 9.65976 -0.109236 -0.733634 -0.670708
10.2126 20.6999 11.5547 -0.461723 0.339912 -0.819312
12.9975 19.6819 12.3781 0.951275 0.247945 0.183303
11.86 20.4168 9.06526 0.601014 0.607603 -0.519231
12.9215 15.3011 7.11579 0.0233678 -0.997917 -0.0601302
11.702 7.06485 8.87302 0.18374 0.262938 -0.947155
16.3201 16.4577 7.60851 -0.649197 -0.731006 -0.210175
15.7219 15.8824 8.53239 -0.857033 -0.476018 -0.197234
15.3672 17.5616 10.1245 0.258992 0.224768 -0.939363
15.5203 14.6586 8.07899 -0.339553 0.0840887 -0.93682
17.6399 16.3506 8.63492 0.0222726 -0.985305 0.169344
17.6641 19.8727 3.82298 -0.749142 -0.406383 -0.523106
18.2166 18.6079 6.77878 0.89007 0.0438749 0.453707
18.8162 7.46704 7.63567 0.0415642 0.236009 0.970862
19.5649 16.9505 8.74074 0.197684 -0.929333 0.311869
19.3869 20.2873 2.30669 -0.33571 -0.113914 0.935052
21.0015 15.5417 5.50723 0.0969807 -0.991215 0.0899285
21.1264 18.4094 2.53702 -0.307365 -0.657985 0.687446
20.2015 14.5008 7.59291 -0.500058 0.778186 -0.379958
21.4827 15.9396 6.77753 0.37839 -0.896833 0.229155
22.2962 15.791 5.89812 0.347881 0.919061 0.18522
22.5382 7.34191 10.4825 -0.332358 0.463009 0.821682
20.9872 19.4455 6.41411 -0.73327 0.348263 -0.583977
21.5217 18.7689 4.82582 0.167501 0.49445 0.852914
9.00468 18.2064 8.60092 0.49739 0.304292 0.81241
10.4943 21.79 6.48421 -0.515233 -0.683985 0.516429
9.51984 20.3294 9.72961 0.137929 -0.19724 0.970604
9.12662 19.9269 4.10978 0.111294 -0.525074 -0.843748
9.12573 19.2108 6.37412 0.129531 -0.899793 -0.416647
9.00309 19.3171 9.68049 0.257562 -0.185294 0.948329
11.7128 21.3238 9.8278 0.853296 0.244265 -0.460674
9.86743 6.83224 7.32824 -0.368999 -0.703134 0.607817
10.0539 22.0969 8.75913 -0.542235 -0.708647 0.451442
10.5804 6.85442 9.96965 -0.442125 -0.896434 0.0305186
11.0925 20.4979 8.08828 -0.898812 -0.305578 0.314259
16.0855 10.3704 17.665 0.0252525 0.395826 -0.917978
15.4351 15.3394 10.1291 -0.646773 -0.0604634 0.760282
17.3774 22.2479 7.11315 0.799667 -0.0489308 0.598447
18.9503 7.93238 5.45781 -0.245323 0.0389837 -0.968657
18.9218 6.88102 5.21919 0.419669 -0.0278353 0.90725
16.7609 19.894 5.78681 0.383334 -0.532121 0.754919
18.1044 9.12822 6.42957 0.369321 0.690144 -0.622336
20.5024 19.7081 11.9834 0.0544607 -0.500719 0.863895
19.7317 21.7187 4.74436 -0.559515 0.00215031 -0.828817
19.809 20.5851 4.95215 0.607411 0.0786955 0.79048
21.1438 20.4852 12.633 0.162446 0.592862 -0.78875
7.86222 18.8562 10.0087 -0.338306 -0.279575 -0.898547
21.3701 17.8552 7.40692 0.609954 -0.718516 0.334202
21.4369 19.8398 7.74866 -0.794905 0.184794 -0.577908
21.8371 10.2317 8.6979 0.448143 0.471095 -0.759761
22.3236 21.1393 6.84077 -0.074574 0.566587 -0.82062
8.03907 21.3894 6.83111 -0.221134 -0.730924 0.645639
8.56622 22.0322 7.57415 -0.124934 -0.677527 0.72481
8.37996 8.7206 10.682 -0.316414 0.45944 0.829938
9.49514 7.26162 12.1531 0.102421 -0.90427 -0.414495
9.10811 7.86935 8.20694 0.926915 -0.134461 -0.350356
8.30985 21.7926 9.92064 0.37251 -0.541395 -0.753742
13.3213 7.80847 12.4655 -0.35735 -0.507116 -0.784305
13.9764 21.9329 9.16019 -0.759085 -0.320572 0.56659
16.2686 8.99035 7.84689 0.304468 0.751539 0.585225
15.0523 10.1202 17.4608 -0.0228687 -0.407131 0.913083
15.0517 8.13053 11.3057 -0.100259 0.208349 0.972902
17.2965 21.8683 12.1692 0.112977 0.318288 -0.941238
16.2432 8.15604 11.3109 -0.151876 -0.483536 -0.862048
17.3295 7.58604 7.97199 0.724208 -0.0351186 0.688687
15.7459 9.09613 10.8127 0.423097 0.299089 0.855298
17.3641 8.49863 12.6548 0.198589 0.35128 0.914967
20.9821 7.16375 7.75723 -0.00977072 -0.00476165 -0.999941
20.4336 8.91357 12.3481 0.0457787 -0.20868 -0.976912
21.0786 8.1304 6.44177 0.339214 0.0272953 -0.940313
22.0932 7.26421 8.05837 -0.131081 0.32772 -0.935637
20.4058 12.7494 6.67573 0.397893 0.307705 0.864291
7.19309 8.76272 7.19451 0.279436 -0.510453 0.813236
20.9325 9.3908 8.55621 0.176979 0.507368 -0.84336
22.3113 21.7128 11.0911 -0.909416 0.313189 0.273633
22.5804 11.9921 4.4013 -0.684773 0.685428 0.247537
8.57606 9.4772 7.5406 0.26253 0.953513 -0.147957
20.8604 10.4852 12.6306 -0.383487 -0.515159 0.766517
7.77967 8.0133 11.4727 -0.564811 0.477494 0.673044
21.5191 8.50315 11.8026 0.339211 0.212955 0.916289
8.20075 8.5976 6.46518 -0.574726 0.51191 -0.638465
22.4824 9.48731 12.2148 0.348688 0.0183364 -0.937059
11.761 8.84083 10.6854 0.819244 -0.224854 -0.527522
11.8001 10.1071 9.05538 -0.134288 -0.32964 -0.934507
10.7859 10.5356 9.08398 0.0169081 0.409984 0.911936
11.2014 10.1303 11.8688 -0.788347 -0.299455 -0.537435
14.7262 9.23284 11.3852 -0.152595 -0.284265 -0.946524
12.1178 8.14282 9.24402 0.272731 0.331494 -0.903177
15.1349 8.88432 7.33511 0.10781 0.723509 0.681844
13.5337 11.6771 13.6577 0.608962 -0.577693 0.54354
14.6066 7.92727 9.03229 0.0658043 -0.332794 -0.940701
14.3506 10.1679 11.0176 0.187575 0.463556 0.865986
16.1647 8.43154 13.2256 -0.791379 0.376547 -0.481592
16.9789 12.1386 13.0945 -0.31456 0.850223 -0.422104
16.6619 8.41519 8.71293 0.405986 0.79225 0.455539
17.2053 11.6869 7.38649 0.00406012 -0.54786 0.83656
21.2359 8.20225 8.32276 -0.481833 -0.136118 0.865626
15.2001 12.9708 13.9894 -0.543315 0.308418 -0.780825
20.2901 8.93155 7.72683 0.113308 0.402949 -0.908181
19.4413 8.96958 6.05175 0.313009 -0.443616 0.83978
21.3855 12.2654 5.43262 0.270194 -0.739956 -0.616004
19.571 10.7661 8.72941 -0.214994 -0.431353 0.876192
20.5572 10.2998 9.11991 -0.35833 -0.437812 0.824573
22.3304 10.9382 5.22511 -0.264354 -0.940942 -0.211533
7.33143 8.54159 10.3588 -0.433156 0.22119 0.873757
7.25745 13.4956 12.3164 0.595947 -0.314167 0.739017
21.8736 10.3907 13.1587 -0.535675 -0.146474 0.831623
8.20649 13.3998 11.7247 -0.534477 0.0946223 -0.839869
12.9159 13.311 6.27618 0.374278 0.914971 -0.15081
21.9923 10.919 10.8961 0.0597178 0.562729 -0.824481
11.2216 9.98931 13.1391 0.852121 0.456545 0.255845
12.4702 11.9977 7.81373 0.20943 0.769464 0.603377
12.7597 10.4666 8.78646 0.0832245 0.504833 0.859196
12.689 9.43452 9.41644 0.11648 0.172743 0.978055
11.921 10.9408 11.378 0.768509 0.28539 0.572666
13.0683 11.5023 8.58459 0.150966 -0.513772 -0.84454
13.292 10.5426 11.0077 -0.105628 -0.238652 -0.965343
12.3754 9.91586 11.3934 -0.495646 -0.0920695 -0.863631
15.5517 11.6619 11.1582 -0.372325 -0.580943 0.723795
12.4437 12.8627 11.8598 0.507594 -0.737939 0.444741
17.8354 12.6802 7.87952 -0.301239 0.405323 -0.863115
19.85 12.5794 9.61617 -0.0187232 0.304425 0.952352
15.7766 12.3805 13.2278 -0.0866772 0.722159 -0.686275
17.817 11.6504 5.47943 -0.627285 0.777978 0.0355564
19.6099 11.5463 5.89043 -0.610647 -0.0751927 -0.788325
16.4933 15.1277 7.80438 0.345612 0.159275 0.924762
16.0752 12.8113 9.21511 0.465605 -0.789983 0.398923
19.2002 11.9724 10.6134 0.568441 -0.646011 0.509456
19.7977 9.70738 8.53453 0.310875 0.354291 -0.88195
18.1199 10.8999 9.27045 -0.41563 0.672661 -0.612192
20.3687 11.5954 11.976 -0.565013 -0.723584 0.396467
9.17486 13.0039 9.00286 0.749757 0.287477 0.596004
7.34176 12.4954 11.8093 0.208176 -0.383514 0.899766
21.3127 15.4835 11.9262 -0.718402 0.691288 0.0775918
21.2937 10.9244 9.60781 0.270853 0.435649 -0.858399
7.8778 16.5447 10.802 -0.609863 -0.196303 -0.76781
22.3999 16.7651 8.65083 -0.235443 -0.927543 0.290226
8.76726 14.9593 9.76156 -0.894413 -0.393028 -0.213435
10.7129 15.859 9.63526 0.364775 0.0778057 0.927839
12.3017 16.745 8.61151 -0.703809 -0.114164 0.701156
10.35 14.5768 10.0106 0.386382 0.561338 0.731852
13.3784 16.5527 11.5226 0.912154 -0.375352 -0.164579
12.4545 14.416 11.3526 -0.692531 0.32465 0.644208
13.7995 16.1312 8.07435 -0.191458 -0.945058 -0.264969
12.5989 12.3397 10.8099 -0.506185 0.632315 -0.586477
13.1866 16.7718 9.49557 0.881112 -0.225278 -0.415802
11.898 14.0248 10.2711 -0.902456 0.069418 0.425152
17.4623 14.6874 7.33159 -0.243594 0.838472 -0.487469
16.2763 13.2163 5.85573 -0.177264 0.911525 -0.371079
15.2588 14.5084 12.028 -0.0667623 -0.844945 0.53067
16.4589 10.555 6.69186 0.381281 0.827147 -0.412859
18.1425 12.0735 11.2065 -0.426592 0.664099 -0.613996
16.9447 13.5982 9.58794 0.297697 -0.912181 0.281606
18.7341 13.4382 8.27847 -0.254005 0.668373 -0.699113
18.0815 11.4632 10.2562 0.25967 -0.654732 0.709857
16.5517 9.90078 10.4543 0.0399184 0.288613 0.956613
16.9623 13.1668 8.4691 -0.219402 0.804318 -0.552209
19.544 16.0177 12.0021 -0.692552 0.621378 0.366416
21.8158 12.8107 12.7985 -0.0184725 0.00660532 -0.999808
21.0988 15.2599 10.8802 0.589951 -0.798849 0.117469
21.7773 16.0893 9.78246 0.159495 -0.883576 0.44029
21.1797 14.9431 13.1126 -0.798663 0.451692 0.397633
8.26619 15.4906 10.6262 0.805558 0.567058 0.17182
9.29688 16.1805 11.7869 0.531054 0.83394 0.150087
8.72977 15.3827 8.73646 0.840495 0.541814 -0.00255287
8.09333 18.0244 12.979 0.629583 0.289894 -0.720824
13.4052 17.197 10.5789 -0.977608 0.1758 0.115662
11.7223 17.8365 9.84827 0.0475537 -0.230771 -0.971845
12.9118 18.0252 7.5246 0.782106 0.442835 -0.438415
10.6717 17.4081 9.87156 -0.0406385 0.618509 0.784727
14.0239 14.398 8.464 0.388739 0.190043 -0.901535
12.859 18.9142 8.28641 0.800133 0.504749 -0.32406
12.6525 15.7117 9.31792 -0.742843 0.395069 0.540468
13.0729 19.4611 10.3946 -0.834586 -0.509411 0.209683
16.1142 13.4035 10.5376 -0.176353 0.780422 -0.599868
16.5291 16.5783 6.52308 0.442716 0.890066 0.108562
18.399 12.9254 11.9535 0.410324 0.230964 -0.882208
17.5375 20.2343 7.17082 0.938808 0.274234 0.208411
17.1359 13.9699 10.7632 0.454133 -0.745753 0.487458
17.8015 13.6847 8.92607 0.34272 -0.831076 0.438013
18.0219 14.5761 11.1657 -0.432585 0.65283 -0.621839
19.2991 17.7741 11.2932 0.103558 -0.48654 0.867499
18.9405 15.1109 11.6787 -0.662376 0.749134 0.00750799
19.3882 17.2712 9.77658 0.419236 -0.774306 0.474016
18.9612 14.4022 10.5265 0.512765 -0.746321 0.424354
20.525 16.9794 9.49026 -0.337316 0.844095 -0.4168
20.0673 14.7297 10.8592 0.397696 -0.902033 0.167852
21.386 16.3676 7.80689 0.620757 -0.686709 0.378275
8.38195 17.8629 9.45595 -0.381711 -0.469031 -0.796434
21.798 18.6096 11.6494 0.810685 -0.0656217 -0.581793
8.91934 18.9123 13.3787 0.582362 0.0134125 -0.812819
9.07106 18.8736 7.62489 -0.328896 -0.573573 -0.750227
8.57837 17.0572 12.8266 0.655562 0.358854 -0.664426
8.80243 17.1379 10.4183 0.571903 0.350899 0.741483
10.2036 15.86 11.1949 0.717695 0.576819 0.390121
10.1293 19.3123 9.7511 -0.0420544 0.172408 -0.984127
10.587 14.7381 11.7073 -0.560433 -0.796306 -0.227621
11.1376 18.8864 10.6927 -0.123764 0.00882108 -0.992272
13.8009 18.3012 10.6106 -0.998207 -0.0472232 0.036773
11.6953 19.8683 7.13786 0.793178 0.594121 -0.133748
12.683 19.5194 9.29014 0.840546 0.537968 -0.0638274
12.8561 20.79 12.2583 0.87224 0.168463 0.459149
19.0381 20.2086 9.73323 -0.154395 0.84824 -0.506608
19.1427 7.4099 10.3161 0.509649 -0.27924 0.813808
16.1294 17.7054 7.23268 -0.875579 -0.482132 -0.0301863
18.4043 20.1923 11.1747 -0.112264 -0.679117 0.725394
18.8097 18.6793 11.8148 0.0383009 -0.286186 0.957408
16.7127 21.7761 5.11867 -0.502993 -0.450003 -0.737899
19.0993 20.7327 8.2977 0.441899 -0.706787 0.552428
19.5148 18.9634 8.8561 -0.114641 0.22324 -0.967999
21.412 16.8503 10.5488 0.287474 -0.810062 0.511036
19.6696 21.5782 9.49628 -0.114983 0.206018 0.971769
18.7969 16.2778 9.55188 0.395619 -0.762914 0.511319
18.1426 18.1508 8.80055 0.468286 0.494067 -0.732535
20.8578 15.9986 8.75369 0.527093 -0.677172 0.51343
21.3161 19.314 9.1405 -0.97466 0.189186 0.119361
7.89546 19.0702 8.276 -0.119212 0.636228 0.762235
21.8792 19.51 10.9395 0.993843 0.0904317 -0.0640153
11.1069 7.11239 11.1263 -0.341948 -0.914967 -0.21426
9.16709 21.7487 6.53812 0.11903 0.738078 -0.664133
8.41182 19.763 7.43952 0.321723 0.740301 0.590295
22.2242 20.4933 8.91242 0.860865 -0.213275 -0.46198
9.86924 15.2438 12.3311 0.537472 0.843016 0.0211654
9.42875 7.15332 10.0523 0.129601 0.991566 0.000446236
10.7809 20.1311 10.5564 -0.344207 0.120482 -0.931131
8.52859 7.30676 9.37252 0.533714 -0.395761 -0.747343
13.0598 18.4672 12.4667 -0.977545 0.0417793 -0.206544
13.5815 20.9778 7.28312 -0.824689 0.350057 0.444238
12.9126 20.0737 11.2804 -0.928317 -0.363816 0.0765892
13.9547 20.5903 8.28568 0.694506 -0.583063 -0.421543
17.7421 20.8445 11.8731 0.177571 0.49276 -0.851855
16.8713 7.31616 9.88604 0.439376 0.158007 0.884298
16.0512 21.7901 8.9407 -0.583621 0.155997 -0.796901
16.8769 22.1122 8.27113 0.625028 -0.0660644 0.777802
19.9447 18.6732 11.6228 0.139199 -0.369629 0.918694
19.837 8.47264 9.90308 0.319855 0.65613 0.68351
20.3917 7.41379 10.0428 0.0660583 0.473615 0.878251
18.5835 8.37448 13.059 -0.177106 0.204972 0.962611
18.9902 7.25944 12.9665 -0.137314 0.0422856 0.989625
20.6333 21.7448 10.2649 0.217912 -0.303829 -0.927471
20.1474 20.5726 9.76801 0.375324 -0.214978 -0.901619
20.5238 21.4922 12.9752 0.160689 0.194299 -0.967692
21.914 19.862 9.93603 -0.987479 0.0997376 0.122221
21.8588 20.4362 5.95129 -0.0725877 0.456092 -0.886967
21.7646 20.7915 10.6008 0.965297 -0.181383 -0.187887
22.0357 9.35628 8.00357 0.240812 0.512773 -0.824059
22.5376 7.22965 12.0414 -0.629156 0.5465 0.552721
22.2067 9.63144 14.3749 -0.601154 0.477562 0.64074
22.5071 7.03716 13.2513 0.681805 -0.51293 -0.521579
7.70518 7.83381 12.8012 -0.578204 0.677523 0.454578
9.60831 21.2486 14.757 -0.184532 -0.534362 -0.824867
13.9249 6.9502 10.2021 -0.844235 -0.386523 0.371305
8.89038 21.3429 12.2179 0.345084 -0.728353 -0.591962
13.99 21.4847 11.704 0.442352 -0.831115 0.337005
15.4072 7.16573 6.9993 0.0079655 -0.0760797 -0.99707
14.3993 7.50386 12.3679 -0.11314 -0.205627 -0.972068
15.9141 21.512 6.80389 0.0804066 0.256435 -0.963211
15.7854 9.54571 13.632 0.898941 -0.344758 0.270273
15.2775 18.9037 8.9888 -0.429264 -0.57772 0.694242
16.1546 9.96056 12.7167 -0.906391 0.34393 -0.24529
15.6019 21.2172 11.0341 0.405022 0.565876 -0.718152
18.4323 10.636 14.2354 0.285134 -0.594631 0.75174
16.7138 7.30288 12.6344 0.0988583 0.104093 -0.989642
16.0291 8.15854 9.56047 -0.466511 -0.643724 -0.606619
19.4425 22.1393 8.06918 -0.0017285 0.287688 0.957723
19.015 9.50119 13.0263 -0.305554 0.462413 -0.832353
18.4255 21.8864 12.2377 0.11111 0.367874 -0.923214
21.4304 7.119 10.2654 -0.0900346 0.28781 0.953446
20.0444 20.6561 12.2806 0.0828768 0.475835 -0.875621
19.2489 10.4941 13.4557 0.44166 -0.553165 0.70636
21.8 9.02336 9.933 0.809261 0.108699 -0.577305
21.379 9.29864 6.45448 0.0845789 0.235155 -0.968271
21.258 9.63546 11.8069 0.0831302 -0.132154 0.987737
19.2778 12.1919 12.0289 -0.577604 -0.347607 0.738609
8.35541 8.66496 12.2493 0.636288 -0.481 -0.603139
20.8739 11.2903 13.3509 0.342509 0.571177 -0.745952
21.2841 8.96859 13.9794 -0.590241 0.649478 0.479368
12.0577 13.4651 12.7883 -0.553716 0.547511 -0.627399
13.9074 8.33151 11.3786 0.0414985 0.373823 0.926571
11.7613 9.18878 13.7189 -0.888482 -0.434753 -0.146934
12.4036 7.28175 10.7231 -0.580628 -0.810455 0.0776741
12.7689 8.76349 12.0165 0.502238 0.502956 0.703414
15.9407 10.2482 14.5028 -0.867339 0.458704 -0.193168
13.5714 9.50446 11.5124 0.307336 0.464161 0.830722
16.7863 10.4687 13.6031 -0.503024 0.755461 -0.419815
11.1273 9.928 14.3385 -0.850832 -0.305232 -0.427689
17.4469 12.0185 12.1094 -0.509215 0.690383 -0.513879
13.015 12.1263 14.5671 -0.746639 0.54156 -0.38632
16.4001 11.5143 12.2669 0.494222 -0.824288 0.276213
13.5668 12.8255 11.3992 0.520304 -0.504007 0.689392
18.1659 9.51759 10.9152 0.170657 -0.628249 -0.759064
15.2443 11.5238 12.7367 0.229968 -0.772352 0.592103
14.0368 12.6586 14.3002 -0.638218 0.302911 -0.707758
13.4217 12.7821 9.89694 -0.347463 0.608983 -0.713028
19.1979 10.1194 11.0796 0.00262108 -0.713445 -0.700706
17.99 9.72415 9.04537 0.699652 -0.610451 0.371262
19.228 8.68729 11.273 0.23039 0.243752 0.942075
18.4599 10.9938 8.07327 -0.274859 0.793427 -0.543071
20.3788 12.0652 13.992 -0.641668 -0.760001 0.103255
20.0504 12.2119 12.8784 0.703898 0.581308 -0.408176
21.4071 13.1308 10.705 0.810584 0.58352 -0.0495714
21.9147 11.8209 11.7356 -0.196405 0.372159 -0.907151
12.4724 14.5348 13.1441 -0.503433 0.732732 -0.457886
20.8895 11.5937 10.5815 0.196866 0.648409 -0.735397
7.93286 10.1698 12.4158 0.497335 0.107438 -0.86088
7.46075 11.0251 13.4354 0.494031 0.323185 -0.807146
13.1851 13.6949 12.4608 -0.24903 0.944329 -0.215003
12.5167 16.2786 12.5413 -0.950926 0.200688 -0.235509
12.799 10.98 14.1929 -0.620037 0.694806 -0.364415
10.3687 12.2 12.6817 -0.710038 0.404295 -0.576534
11.7028 9.14026 12.3461 0.631032 0.57376 0.52211
12.2436 8.31689 12.8685 0.658671 0.457147 0.597636
13.1967 10.6541 13.1678 0.549111 -0.733955 0.399734
11.5167 12.5932 12.4327 0.639805 -0.553264 0.533432
14.1588 11.1292 12.8675 0.478549 -0.538158 0.693813
16.0404 10.8901 7.84079 0.142346 0.731062 -0.667297
15.4141 10.2024 10.7079 -0.323098 -0.272534 -0.906274
16.3303 14.6578 12.4862 -0.0973288 -0.929979 0.354493
13.8979 11.4182 9.54882 -0.471151 -0.0409196 0.881103
15.2619 11.824 9.24688 0.208727 -0.214923 -0.954066
14.653 12.0092 13.5465 0.476533 -0.515078 0.712469
14.5842 13.0604 8.87937 -0.210923 -0.644192 0.735207
17.4667 10.3306 7.35967 0.159295 0.664185 -0.7304
18.9893 11.5888 9.28026 -0.106463 0.460584 -0.881208
17.893 8.62414 8.30911 0.644696 -0.203313 0.736906
13.316 13.3234 14.9225 0.658106 -0.163689 0.734916
7.89735 7.41585 13.8993 -0.421598 0.861286 0.283621
20.2683 11.353 9.5567 -0.320279 -0.416279 0.85096
19.7027 13.2826 12.2465 -0.820229 0.00198778 0.572032
21.8252 11.4629 13.9506 0.415092 0.555739 -0.720315
20.5994 13.8639 14.8704 -0.612295 0.734826 0.291762
8.51059 14.3327 10.8104 0.795111 0.225621 0.562932
22.1142 10.0282 10.3019 0.0876856 0.572099 -0.815484
7.18532 15.66 12.8915 -0.0238753 0.888107 0.459017
13.3579 17.7683 11.5535 -0.9907 0.132141 -0.0324501
14.7606 16.4002 9.7585 0.45774 0.468796 -0.75545
11.3374 17.2161 11.1189 0.0648043 0.504232 0.861133
13.094 17.3343 12.5482 0.985442 -0.167289 0.0303177
11.1803 11.5235 11.959 -0.639224 0.305267 -0.705836
14.2967 15.2002 9.58843 0.161435 0.684993 -0.710439
13.0487 15.4131 11.3533 -0.877017 0.235001 0.419064
14.4149 12.9891 10.7252 -0.330989 0.715223 -0.615551
17.21 14.4196 13.1954 0.309288 -0.950953 0.00547604
12.4159 15.0794 10.4116 0.787627 -0.292015 -0.542559
14.9159 10.8082 8.02499 0.0572832 0.6396 -0.766571
17.1733 14.1463 11.924 -0.172252 0.882321 -0.437993
17.9425 14.8418 12.4504 0.279683 -0.938986 0.200209
16.1886 13.996 11.4458 -0.164425 0.853608 -0.494285
15.387 12.9466 7.94769 0.512966 0.85194 -0.105186
16.5299 15.8089 10.5154 -0.385888 -0.0289123 0.922092
18.2154 14.7529 13.6391 0.477337 -0.852774 -0.211958
19.6139 16.3964 13.1868 0.836066 -0.44824 -0.316345
19.1541 12.7265 13.5339 0.898302 0.439378 0.000327529
19.0922 15.549 13.8609 0.713923 -0.661197 -0.230506
7.42079 11.5909 11.1044 -0.112027 0.498177 -0.859808
20.5451 14.6465 12.1642 -0.613172 0.576594 0.539962
20.4746 13.8659 12.9015 0.868091 -0.225854 -0.442049
21.244 13.9946 13.7041 -0.880542 0.343581 0.326494
12.5365 19.238 13.4713 -0.821046 -0.07448 -0.565982
9.92785 18.6906 13.8714 -0.505218 -0.169228 0.846237
7.80972 14.4691 11.7834 -0.735196 -0.0241101 -0.677426
9.25041 16.0293 12.9399 0.581121 0.811794 -0.057344
9.62985 19.7364 13.8088 -0.512157 -0.147623 0.84611
11.1385 21.9978 13.2759 0.301293 0.549683 0.779148
12.6972 16.1828 10.5979 0.855706 -0.172196 -0.48797
12.3282 21.5325 13.1438 0.664271 0.385238 0.640575
14.2167 13.6552 11.7647 0.410022 -0.605978 0.681668
13.4247 19.0698 11.4231 0.965966 0.245567 -0.0812835
11.4426 12.6297 9.50011 -0.93566 0.0290077 0.351708
11.6216 19.8839 13.9963 0.61513 0.222875 0.756268
15.019 13.7574 9.61955 0.223143 -0.804841 0.549943
19.3858 19.6881 11.8454 0.0431501 0.38334 -0.922599
15.1638 13.7396 11.0167 -0.151642 0.690567 -0.707193
18.9291 20.8112 12.0422 0.0876346 0.511153 -0.855011
18.0699 17.6115 13.0801 -0.448125 -0.553234 -0.702223
18.1839 17.4729 11.3888 0.00747095 -0.816082 0.577888
17.3231 16.6196 11.0836 0.231492 0.757608 -0.61028
16.7444 17.2686 12.7312 0.175985 0.551792 0.815202
20.9362 15.1072 14.4132 -0.991444 0.10704 0.0747078
18.6802 16.8588 10.5842 0.374447 -0.793577 0.479609
18.8142 15.3899 12.8123 -0.511472 0.844099 0.160913
19.2884 14.1737 14.3985 0.61973 -0.777698 -0.105453
20.6723 16.1505 14.0167 0.966831 -0.132702 -0.218239
21.6134 18.1698 9.15961 0.952899 -0.213098 0.215808
20.6966 17.6225 8.25478 -0.617647 0.696843 -0.364585
10.0512 18.3369 11.7284 -0.79647 0.0463529 -0.602899
10.6488 7.33977 12.3166 -0.129188 -0.879198 -0.458607
10.1351 19.4789 11.8379 -0.896469 -0.0164207 -0.442803
9.15314 17.8201 13.557 0.682073 -0.0720842 -0.727723
10.044 7.60355 11.105 -0.196807 -0.955547 -0.219538
11.7527 22.063 11.812 0.505878 0.853427 0.125496
12.4182 20.3208 10.0557 0.699672 0.508474 -0.501909
11.6014 21.091 13.9492 -0.445923 -0.414535 -0.793293
10.747 20.8718 14.7153 -0.168227 -0.698045 -0.696013
16.1829 20.2419 10.818 -0.337782 -0.576094 0.744324
12.2943 20.3558 13.1714 0.74138 0.237035 0.62783
13.7862 18.9612 9.09993 0.6785 0.34418 -0.648982
15.7157 19.5128 9.94474 -0.350273 -0.355303 0.866642
17.3932 18.6378 9.82317 0.0881829 0.484429 -0.870375
16.6674 21.0619 11.3899 -0.298547 -0.589377 0.750669
18.5051 19.1632 9.34798 -0.0167349 -0.712259 0.701718
17.8975 19.6166 10.2752 -0.0599528 -0.647333 0.759846
17.4198 16.6389 13.4042 -0.350426 -0.539435 -0.765645
20.004 20.3122 7.72932 -0.183148 0.706037 -0.684082
17.5289 18.2708 12.2422 0.411319 0.674088 0.613532
16.221 16.4707 13.3904 -0.329415 -0.498876 -0.801629
21.0415 17.6321 11.4156 0.275921 -0.871324 0.405787
