20.4186 13.5261 17.7201 0.912992 -0.406009 0.0400131
19.065 15.7729 16.5606 0.744783 0.492126 -0.450679
23.3677 15.338 15.4975 0.301781 0.638249 -0.708213
19.9493 14.2103 6.80513 -0.468619 -0.332557 -0.818414
20.6476 15.4978 6.89405 0.247139 -0.291071 0.924229
22.4211 14.5468 15.4356 0.232086 0.124455 -0.9647
23.006 13.3668 15.7342 -0.297645 -0.877043 0.377098
21.6639 13.7377 6.39714 -0.0152496 0.851255 -0.524531
10.8333 14.4786 17.517 0.122605 0.315984 0.940809
23.0404 12.9663 16.9749 -0.153654 -0.943324 0.294161
21.8766 14.1331 4.28763 0.960759 0.245236 -0.129618
23.2162 16.3399 3.96668 0.413996 0.883344 -0.219797
11.8007 14.5321 6.14155 -0.576202 0.252722 -0.777254
22.7449 15.1176 17.324 0.188689 -0.976782 0.101461
21.7506 15.2305 4.76913 -0.383819 -0.810291 0.442845
12.5416 14.2735 5.31767 -0.337713 -0.754319 0.562985
23.1921 14.8669 10.4562 -0.571732 0.457437 -0.681083
10.5034 15.6415 16.0931 -0.237502 -0.944877 0.22539
15.0005 14.8787 16.0213 0.980823 0.166829 -0.100771
15.7572 14.2963 8.10403 0.366247 0.804027 0.468405
17.3668 14.3436 7.07986 0.103468 0.853521 -0.510682
14.8427 17.8795 17.2836 0.798077 0.341268 -0.496598
16.9469 16.281 16.3264 -0.270009 0.139982 -0.952628
14.3816 17.13 16.6143 -0.71013 0.674216 0.20285
17.431 11.227 16.2874 -0.288367 -0.957038 0.0303898
19.445 16.1329 17.9627 0.648783 -0.266995 0.712597
18.5025 16.0913 15.5248 0.168245 -0.300061 -0.938966
18.1015 14.6287 17.7908 0.915346 0.108216 -0.387854
19.1341 14.0241 7.37485 -0.10924 -0.876813 -0.468257
19.6224 14.8039 5.4818 -0.849619 -0.50858 0.139623
20.8917 16.4004 5.3527 -0.188592 0.357696 0.914597
19.5963 17.1081 7.25065 -0.863948 0.0826942 -0.496745
21.4954 16.7134 6.69348 0.590439 0.388692 -0.707319
20.5962 16.8878 17.4869 -0.0393515 -0.919916 0.390135
21.1955 13.0737 5.45373 0.375939 0.0368424 -0.925912
9.80847 14.1543 17.4391 -0.211601 0.871473 0.442448
23.6018 15.6821 16.8901 -0.00600289 0.99003 0.140729
18.5747 20.3466 16.8288 -0.668163 0.738143 -0.093291
22.3272 17.2861 17.335 -0.263935 0.285603 -0.921287
22.6498 19.9302 16.5471 0.314997 -0.451118 0.835026
10.446 16.9301 17.3282 -0.256978 0.0518357 -0.965026
9.83471 18.0085 15.3395 -0.517834 -0.0140468 -0.855366
11.4044 18.0104 16.9343 0.43269 0.607808 0.665845
10.9424 18.866 6.47908 0.139517 -0.915022 -0.378509
17.0842 16.6214 7.11548 0.951402 0.305255 0.0406725
14.3483 15.978 16.1064 0.349339 -0.590117 0.727822
14.8898 18.1602 16.0854 0.959024 -0.219798 -0.178778
14.4416 16.0073 5.68753 0.544858 0.571713 -0.613412
14.555 17.6047 4.96833 -0.08575 0.51355 0.853764
12.6402 18.0647 16.6227 0.321178 0.41158 -0.852905
13.4169 22.1382 15.7012 -0.232208 -0.710955 -0.663794
17.176 18.027 16.0236 -0.303017 -0.705102 -0.641102
17.2537 15.7311 5.33304 0.293042 0.57851 0.761218
18.6311 17.561 16.534 0.135242 0.517877 0.844697
21.0414 16.2414 16.5065 -0.928138 -0.0435849 0.369676
16.2533 16.9753 4.5439 -0.827839 -0.397132 -0.396192
22.4295 16.4625 7.28503 0.656936 0.690051 -0.303752
16.9676 18.9971 15.238 -0.884615 0.137786 -0.445502
21.638 15.8433 17.4888 -0.155124 0.984491 -0.0819397
20.1694 19.2127 4.90927 0.732909 -0.193808 -0.652137
21.1484 17.5124 15.8151 -0.361277 0.747403 0.557555
19.8169 19.3359 15.8759 -0.608124 0.767972 0.20101
21.507 19.4143 15.7851 0.772154 0.296226 -0.562164
21.6755 18.1391 4.008 -0.988147 0.130028 0.0815971
21.9298 19.3035 4.202 0.292671 -0.278988 -0.914609
23.0986 17.3433 15.3844 0.332164 -0.532321 -0.778654
21.9479 17.5557 5.11767 0.871555 0.144842 -0.468416
9.95834 19.8732 17.3497 0.808956 -0.586714 -0.0368407
11.4991 20.9306 16.467 0.513682 0.828133 -0.224337
14.4963 18.2288 15.1114 0.860214 -0.48797 -0.148046
15.2888 17.1289 15.6066 0.975547 -0.0839346 0.203134
10.3978 20.1437 4.26629 -0.805543 0.500525 0.317136
11.2024 17.331 5.13586 0.853029 0.12322 -0.507109
12.0624 17.8587 15.5801 -0.549295 0.684529 0.479264
13.9755 19.514 17.2898 0.000246798 0.998849 0.047972
12.9753 19.5569 16.0151 0.685831 0.548966 0.477779
12.7494 16.8437 4.12986 -0.976645 0.0426529 -0.210582
13.6402 21.5012 16.8412 -0.499466 -0.866317 0.00538942
16.1964 17.8779 17.5419 -0.774858 -0.599821 0.199525
15.7406 23.0979 16.6136 0.826586 0.354361 -0.437245
15.3762 18.0573 4.47092 -0.473081 0.504291 -0.722416
18.1685 18.9232 4.56108 0.40132 -0.821812 -0.404435
18.4329 15.4341 4.7666 -0.363764 -0.0101489 0.931436
18.244 18.7965 17.4707 0.65344 0.737136 0.172182
18.9332 21.6059 6.62998 -0.195599 -0.964478 -0.177548
19.4363 18.6676 4.09852 0.446628 -0.561677 -0.696449
17.3164 20.1311 14.4077 0.210515 -0.965872 0.15091
20.7237 20.936 4.48631 0.523712 -0.100247 0.845977
21.2408 18.6938 17.1206 -0.810791 0.265204 0.521809
20.0291 19.7727 17.4029 0.345786 0.0036889 -0.938306
16.9679 20.5765 4.48348 -0.884088 -0.454247 -0.109761
10.4607 21.5395 5.86579 0.255008 0.173402 0.951264
10.6959 22.076 11.2064 -0.012941 0.92396 -0.382269
22.5148 22.1062 17.5968 -0.795532 -0.550346 -0.253471
23.2375 21.7219 15.8963 -0.818627 -0.570849 -0.0630889
10.0559 18.009 17.0722 -0.720238 -0.53195 -0.445293
22.8348 20 4.04016 0.850364 -0.405257 0.33563
10.7286 10.016 4.7825 0.10406 -0.60998 0.785554
11.7263 20.4977 17.431 0.100248 0.977299 0.186647
11.9839 22.6311 6.84938 -0.769078 0.272438 -0.578185
10.7584 20.899 15.5935 0.470068 0.882539 0.0126691
13.3259 9.94504 16.37 0.587295 -0.626521 -0.512402
11.3677 19.6173 15.5667 0.739467 0.0426008 -0.671843
12.4519 23.036 15.5588 0.478667 0.877844 -0.0163675
17.0909 19.4609 5.50666 -0.451736 0.0325745 -0.891557
13.0082 22.7664 14.7316 0.384265 0.922748 0.0296113
18.0094 16.7128 17.7375 -0.000205668 -0.983174 -0.182673
15.3553 10.0714 17.0961 -0.492245 -0.0177525 0.870276
17.2411 18.8211 4.05638 0.158955 -0.953861 0.25472
15.7415 23.1606 17.8053 -0.992054 0.119375 -0.0397244
17.6924 19.7946 16.8425 0.265445 0.0589162 0.962324
18.6863 21.3291 5.54538 -0.626614 -0.719727 -0.298911
17.7022 17.9583 15.0427 0.630422 0.232366 0.740658
18.2541 11.4953 17.4597 -0.76068 0.535519 -0.366859
16.6974 21.5241 4.08803 0.884459 0.466617 -0.00111391
19.5814 9.54393 4.2693 -0.123601 0.697767 -0.70558
22.6341 20.3707 5.00186 0.903475 -0.0419908 0.42658
20.608 11.503 16.4657 -0.810917 0.561142 0.165932
21.8316 20.6766 16.6558 0.713626 0.434099 0.549815
17.0952 21.0604 17.301 0.689371 -0.465929 0.554687
10.6949 17.847 4.12012 0.984525 -0.0809619 -0.155419
23.5283 22.7024 14.3696 -0.0619007 -0.33301 -0.940889
18.7514 10.4694 16.673 -0.133235 -0.214722 0.967545
22.7914 10.645 4.24537 0.329955 -0.23834 0.913413
22.9501 11.8703 7.47316 -0.728852 0.393894 -0.56002
23.2268 12.0497 4.11824 -0.664442 -0.574137 0.478418
9.95911 23.2607 4.68105 0.314539 -0.627633 -0.712139
11.1681 12.4463 6.35881 -0.492464 -0.592944 0.6371
14.4698 20.8997 4.03854 0.74901 0.6209 -0.231228
12.0528 11.2447 5.18881 -0.614004 -0.721027 0.321122
12.9797 22.1622 17.6496 -0.440141 -0.663152 -0.605397
13.3719 13.4324 10.4653 0.548291 0.22075 0.806627
13.2536 19.6013 5.14154 -0.561242 -0.823499 0.082805
14.5373 11.4582 5.18658 -0.579776 0.60111 -0.550024
17.9432 21.9294 5.00403 0.925262 0.37282 -0.0699727
13.5029 21.5316 8.67026 -0.356051 0.449994 0.818983
16.0271 21.9236 5.57994 0.336364 0.710252 0.618386
21.0574 20.8547 6.5891 -0.919024 -0.331699 0.213003
18.5797 23.2348 17.4925 -0.331291 0.384106 -0.861806
15.1652 11.5417 6.35007 0.952452 0.179767 -0.246007
19.7883 21.5619 4.79714 -0.952684 -0.262452 -0.153334
20.2195 11.3602 4.27995 0.972321 -0.219609 0.0797766
17.751 9.85834 17.9849 0.292058 0.689408 0.662886
18.6178 10.0352 5.74441 0.774942 0.143182 0.6156
23.1655 21.4274 7.02473 0.87656 0.480844 0.0207846
21.1231 10.0699 5.24702 0.70914 -0.412333 0.571928
19.7205 10.1251 5.3295 0.552949 -0.300858 0.777002
22.3864 11.8621 5.80856 -0.0819679 0.929397 0.359865
10.4375 21.3962 10.3732 -0.00522756 0.943131 -0.332381
20.7038 23.1269 17.1169 0.877869 -0.474523 -0.0646155
10.0382 10.452 6.68674 0.063963 0.767959 0.637298
23.1373 11.0316 6.34665 -0.0220829 0.986313 0.163398
10.6231 10.2871 8.96693 -0.999175 -0.0186767 0.0360742
13.9196 14.3666 6.27241 -0.547879 -0.500819 -0.670082
12.8024 15.2739 15.5944 0.786793 0.0617334 0.614122
10.5524 13.4225 6.79194 0.187693 -0.0664217 -0.979979
10.9866 12.0683 9.35676 0.544455 -0.813098 -0.206012
13.9059 10.3485 7.17311 -0.0424523 -0.846667 -0.530427
13.3983 12.0169 6.06859 -0.0274898 0.333638 -0.9423
13.813 15.2768 9.45168 0.611081 -0.791463 0.0128941
15.387 22.0686 6.69776 -0.334152 0.115191 -0.935454
16.2426 13.4167 3.94804 0.222949 -0.172639 -0.959421
16.1887 11.8894 5.13476 -0.951044 0.135291 -0.277869
13.6713 11.2344 3.98075 0.9279 -0.307004 -0.211543
16.9913 12.7391 4.18826 -0.270864 -0.0491849 0.96136
19.7511 15.6643 7.50568 -0.297511 -0.668464 -0.681647
19.2545 12.3023 4.80077 0.46849 -0.439662 0.766299
18.0795 11.8378 6.85068 0.214571 0.976602 0.0144109
17.7511 10.4112 8.77601 0.961942 -0.19175 -0.19468
19.9071 13.5509 7.90964 -0.0365316 -0.789194 -0.613056
20.6512 10.7708 5.94285 0.600997 -0.454496 0.657447
18.8178 11.7497 8.30605 -0.121618 -0.747452 0.653088
21.8173 11.1624 6.71752 -0.347255 0.722493 0.597844
22.6401 9.59308 5.23555 0.673755 -0.529853 0.515083
21.6161 22.9335 4.77147 0.496732 0.579536 -0.646062
19.2947 11.926 6.80667 -0.0498847 -0.566976 0.822222
10.7753 23.3414 16.6795 -0.637708 0.0312821 -0.769643
9.88752 13.293 5.38038 -0.164682 0.359281 0.918584
10.8241 13.3864 17.5695 -0.113544 0.022024 0.993289
22.9038 14.6229 7.63298 -0.924371 0.381461 -0.00506761
11.9075 14.4576 8.27508 -0.233901 0.934555 -0.268135
11.9472 15.3451 5.0748 -0.222749 -0.531492 -0.817251
11.246 13.7245 7.91881 -0.0142143 -0.512334 0.858669
21.1707 15.5284 10.515 -0.667065 0.250937 0.701467
12.7773 10.9927 7.16176 0.286093 -0.73879 -0.610196
16.4714 15.474 17.4454 -0.785338 -0.0601781 -0.616135
14.5516 13.8418 8.61042 0.65989 0.68474 0.309318
13.863 13.6475 9.44763 -0.900177 0.264195 -0.346242
15.2013 12.6947 5.54449 -0.926133 -0.0777424 -0.369099
16.5384 14.7823 7.48678 0.501984 -0.12136 0.85632
15.4934 12.1274 17.0096 -0.0655588 -0.950571 -0.303507
16.3797 17.1993 9.54268 -0.286958 0.764848 0.576769
19.8227 15.1105 17.7869 0.551575 0.237712 -0.799536
15.7816 15.6339 4.24711 0.618068 0.428045 0.65937
18.4072 12.635 9.13868 0.799156 -0.251194 0.546123
18.7216 13.7002 9.45103 -0.922704 -0.334437 0.191752
20.0964 13.0555 5.46057 -0.20268 0.153276 0.967175
17.4285 12.888 5.86921 0.372672 0.880136 -0.294067
19.0405 10.5736 7.21934 -0.378115 0.467837 -0.798848
19.1244 16.3069 8.79868 -0.613938 0.7878 0.0495152
20.6139 12.3681 8.35898 -0.507591 0.765091 0.396216
20.3967 14.0527 5.4676 -0.382247 0.123276 -0.9158
20.9304 14.6408 17.8103 0.13351 -0.639335 -0.757249
22.1553 17.9437 6.39451 -0.110044 0.480729 -0.869937
22.2969 13.5664 7.58359 -0.372441 0.614012 0.6959
11.7621 16.1521 17.2089 0.97602 0.0689296 0.206479
10.1892 15.8877 17.9781 0.161193 -0.643747 -0.748068
11.6944 18.5673 5.59439 0.798055 0.184557 0.573625
22.8429 12.6718 8.2525 0.63154 0.646841 -0.427498
11.6194 16.0678 4.40327 -0.397371 -0.596115 -0.69767
10.5093 14.2391 5.38582 0.165843 0.063511 0.984105
10.0774 15.3026 6.16714 0.246732 0.832371 -0.496267
14.5863 13.8288 7.23436 0.350928 -0.68866 -0.634505
11.4798 15.9648 6.88986 0.320532 0.499861 0.80461
15.0357 15.1042 6.14222 0.514665 0.55807 0.650905
16.6504 16.2707 11.9703 0.507061 0.196081 0.83931
16.2727 14.5479 11.8654 0.0439007 0.621935 0.781838
16.0572 16.6719 6.14029 -0.781449 -0.0533845 0.621681
16.3652 14.5086 4.95594 -0.894518 0.444913 -0.0434662
14.9083 17.3955 6.39534 0.351121 -0.22843 -0.908038
17.8287 15.486 9.46377 0.324154 0.495739 -0.805709
17.6426 16.3602 4.63328 0.880013 0.105339 0.463121
18.6244 14.1379 4.7168 0.827872 -0.495438 -0.262999
19.3443 19.4351 9.20182 -0.508434 -0.564041 -0.650656
21.7853 17.1659 8.78974 0.691292 0.330175 -0.642729
18.3873 14.4114 6.68391 0.341908 0.928061 0.147653
17.0901 14.644 5.85914 0.998794 0.0344707 -0.0349482
18.7244 16.8421 7.85657 0.221801 -0.975078 0.00527981
21.8974 16.1019 5.55573 0.682499 0.678223 -0.272412
20.9154 14.7339 9.21786 0.499863 -0.240795 0.831958
22.139 13.5329 17.2785 -0.465373 0.273294 -0.841866
20.0194 18.1266 4.95558 0.999743 -0.0034119 -0.0224193
20.683 13.7273 9.73484 0.0369818 -0.0175775 0.999161
21.1958 19.8235 17.5906 0.526055 -0.241322 -0.815493
23.2536 18.7103 4.74294 0.989779 0.128999 0.0607953
10.7809 19.5438 5.46448 0.98996 -0.0856642 -0.112436
12.546 17.1026 16.3303 0.786197 0.110518 -0.608013
12.6993 18.3994 3.95305 -0.469169 -0.265491 0.842256
9.82113 17.7841 5.17315 -0.572835 -0.718038 -0.395325
13.0889 15.9179 6.64325 -0.842542 -0.53771 0.0314921
15.4169 16.656 7.63439 -0.325678 -0.940305 0.0987975
12.5225 17.9923 6.79613 -0.681735 -0.259411 -0.684064
12.0667 16.8296 6.5492 0.497896 0.211652 0.841013
14.1348 18.8976 8.23675 0.130933 -0.561805 -0.816843
13.5795 17.5447 7.99112 -0.270223 -0.507963 -0.817895
16.8396 20.8341 16.1625 0.00536963 -0.713995 0.700131
17.2571 17.2622 6.23305 -0.755337 0.197605 0.624834
16.0612 18.5455 9.27265 0.706539 0.682144 -0.188367
16.1023 18.8753 7.5287 0.444081 0.252495 -0.859673
16.5579 17.3219 16.6818 -0.993713 0.0651304 -0.0910667
17.3794 17.882 7.36378 0.937681 -0.0961843 -0.33392
17.0824 18.3402 6.15911 -0.496668 -0.391234 -0.774762
19.7629 16.5913 5.35001 -0.423944 -0.87918 -0.217519
18.4817 19.5611 15.9467 -0.36772 0.669981 -0.644909
18.6696 16.5894 6.05987 0.496805 0.773871 -0.392821
19.7114 18.0691 6.18907 -0.599533 0.640928 -0.479344
23.5519 17.1631 7.84344 -0.167729 -0.818069 0.550118
19.8051 18.0742 16.2558 -0.0118988 0.661605 0.749758
19.7273 17.1116 16.8747 0.674319 -0.180467 -0.716049
18.9402 20.1935 5.02166 0.249101 0.129649 0.95976
23.0884 18.8663 6.63892 0.12544 0.870843 -0.475287
23.7665 18.8542 16.4733 -0.997414 0.0464601 -0.0548389
12.1865 19.4794 4.46121 0.674379 0.736871 -0.047265
10.9281 10.6284 7.83871 0.0608423 0.96602 -0.251204
12.0086 20.7464 9.5309 -0.404665 -0.8808 0.24584
23.4666 18.6849 17.5682 0.78425 0.389031 0.483329
14.1058 16.5501 17.3968 0.812212 -0.580678 -0.0558973
12.4967 21.137 6.45496 0.801175 -0.429583 -0.416626
12.777 21.1986 4.21934 0.862261 -0.0132732 -0.50629
16.3005 16.7014 17.4353 -0.732555 -0.502455 -0.45924
12.8742 16.456 5.49089 -0.109848 -0.632278 -0.766914
12.2315 20.2171 16.3029 0.571687 0.805447 -0.156297
17.4316 20.4735 5.95137 -0.694132 0.401315 -0.597602
14.6833 20.7816 16.7572 0.414608 -0.636629 0.650234
16.0281 20.1606 17.4622 0.317554 -0.926345 0.202594
16.3489 19.9177 7.64753 0.57671 -0.221581 0.786326
17.4295 20.7101 7.15919 0.818517 0.0730743 0.569816
14.0325 19.3996 4.3934 0.920352 0.120777 0.371975
20.9875 17.1641 4.37704 0.899904 -0.393964 0.18699
15.7543 10.046 5.4992 -0.0757921 -0.867319 0.491948
20.0649 18.2388 7.43628 0.884362 0.0852188 0.458957
20.1797 22.1116 6.46225 -0.105411 -0.209861 0.972032
20.2788 19.9069 5.84335 -0.679313 -0.115289 0.724736
21.1668 22.1653 6.64595 -0.215176 -0.716967 0.663067
21.6528 18.6311 7.37093 -0.880711 0.388287 -0.271257
22.4976 21.1801 4.23051 0.908346 -0.269794 -0.319561
19.4695 15.9135 6.35206 0.63991 0.671559 0.373529
21.4503 23.2558 7.1453 0.439578 -0.407408 0.800493
10.8192 20.3952 6.19799 0.984108 0.108855 -0.140289
9.97619 23.1252 17.3297 0.149457 0.92798 0.341344
22.7523 22.0861 6.3586 0.688503 -0.221497 -0.690582
23.0963 9.62612 17.9298 0.011583 -0.629744 0.776716
13.3763 18.283 6.10115 0.739844 0.333105 0.584528
10.023 10.9307 5.59365 -0.145826 -0.578489 -0.802549
12.4126 19.1757 7.16891 -0.663694 0.196482 -0.721738
12.2713 22.9228 9.39179 0.162945 0.88549 -0.435152
12.6764 21.6612 5.5806 0.218017 -0.872744 -0.436792
11.4499 23.0642 4.8437 0.488768 0.00532336 0.872398
14.2938 22.1239 7.08281 -0.0336299 -0.189504 0.981304
13.8144 22.6329 5.0885 -0.0582847 0.779544 0.623629
15.088 19.3501 8.42201 -0.245398 -0.163246 0.955579
18.8281 17.2419 4.62591 0.903102 -0.379278 -0.201383
16.3418 22.2321 17.2609 0.981601 0.161408 0.102016
16.4317 9.90499 6.67367 -0.932257 0.293224 -0.211933
15.0816 21.4579 8.16442 0.486199 0.694002 0.53101
15.9171 18.9039 4.35078 -0.730522 0.583767 -0.354335
19.883 20.8725 5.66618 -0.112948 0.385446 0.915791
17.7778 22.9955 4.80994 -0.0702865 0.241082 0.967956
19.9557 22.6522 8.53156 -0.509045 0.852953 0.115518
19.2113 23.1948 5.64782 0.580458 -0.138301 0.802459
19.4685 22.4732 17.304 0.16493 -0.803628 0.571821
19.2194 22.269 7.75903 0.213481 0.968316 -0.129576
20.4182 20.7491 16.7708 0.73229 0.0158089 0.68081
19.3514 11.3485 16.9443 0.780314 -0.319923 0.537363
22.2788 21.4251 5.44866 0.930043 -0.145382 -0.337466
22.9705 23.2413 9.72987 0.365731 0.400227 -0.840273
23.7564 21.9313 4.2595 -0.125756 0.469467 0.873948
20.5615 22.0335 16.9478 0.471167 -0.379588 0.796188
22.4668 22.4777 5.32358 0.335573 -0.46481 -0.819355
22.2192 11.5055 10.7241 -0.810202 -0.265535 0.522556
21.6053 21.6267 11.223 -0.686175 -0.498546 -0.529732
13.3217 10.9937 11.6209 0.548401 -0.705794 0.448454
12.4508 10.8557 9.40038 -0.706311 0.228625 0.669966
10.2505 11.8387 10.2386 -0.630112 0.760471 -0.15698
13.4939 22.6982 6.98197 -0.17076 -0.248678 -0.953415
11.3822 12.914 7.3458 -0.296568 -0.561817 0.772275
12.3598 22.7328 4.43971 0.530393 0.00608678 0.84773
14.1105 21.4617 9.66283 -0.48236 -0.524209 0.701807
16.7935 21.2241 9.9675 -0.829238 0.475823 0.293184
14.9739 22.4062 4.4708 0.571358 0.429093 0.699592
15.1684 21.2143 9.99114 -0.166427 -0.783096 0.599218
13.1003 22.0193 10.664 -0.854552 0.483555 -0.189515
16.2671 21.3032 7.13956 -0.814434 -0.552358 0.177758
14.8152 20.282 9.13078 -0.346978 -0.088141 0.933723
16.2252 22.7901 8.06142 -0.124761 0.345823 0.929968
17.5215 23.1323 10.5695 0.787938 -0.00992411 0.615674
21.1162 22.7695 8.98445 -0.815635 0.542198 0.201892
18.4766 9.63915 7.66032 -0.273048 0.354016 -0.894493
20.349 11.3316 9.34889 0.425643 -0.902854 0.060681
17.8342 10.8288 10.1235 0.908734 -0.0435197 0.4151
22.3407 22.2837 9.68296 -0.641829 -0.0724117 0.763421
22.5154 9.61878 7.83705 -0.662334 0.549282 -0.509513
23.63 12.6375 8.96773 0.222586 0.941849 0.251746
22.0898 11.8208 12.7722 -0.132736 0.502565 0.854289
21.9155 23.2777 9.74558 -0.362188 0.187887 0.912972
22.6702 10.7177 7.39393 -0.616919 0.667413 0.417098
9.8489 11.2358 9.27836 -0.802243 -0.112655 0.586271
11.7081 15.559 9.90955 -0.326929 -0.863598 0.383816
13.3826 13.5668 12.3541 0.971416 0.193298 -0.137792
11.4818 13.8728 4.83143 -0.0764698 -0.101908 0.99185
11.9133 12.321 8.90071 0.216423 0.597272 0.772287
9.80845 13.1758 12.0657 -0.858335 -0.485737 0.165289
13.7313 10.5718 5.96039 0.888348 -0.00829612 0.459096
14.2443 15.6907 7.39463 0.500044 0.390965 -0.772724
11.7383 10.9517 7.12692 0.0476785 0.97864 -0.199974
11.9788 13.8968 10.5949 0.787729 0.244815 -0.565287
15.5362 9.58381 7.5407 -0.246187 0.626999 0.739097
14.8377 12.6956 8.71737 -0.142055 0.086925 -0.986035
13.5615 11.6226 8.64469 -0.963913 -0.169137 -0.205585
15.2605 10.9652 7.49881 0.660933 -0.0488704 -0.748852
15.8096 11.236 9.66419 0.273521 0.753971 0.597255
14.5716 12.1713 16.6506 -0.367055 -0.836539 0.406784
17.5796 10.3406 7.69814 0.783236 0.618654 0.0617084
15.5887 13.6503 9.24432 0.0980984 -0.534898 -0.839202
17.933 11.5433 11.7603 0.873083 0.476238 -0.104513
19.0644 13.2433 8.4406 0.414028 -0.873935 0.254596
17.8077 11.8553 4.49353 -0.201286 -0.749406 0.630773
18.8967 15.2079 12.0739 0.195341 -0.792067 -0.578335
21.1234 11.9222 12.1423 -0.654067 -0.242429 0.716536
21.9053 10.0221 17.2687 -0.62353 -0.0439294 0.780564
19.0774 11.1587 5.4423 -0.539758 0.070708 -0.838846
20.7381 12.8608 12.2553 -0.180459 0.233745 -0.955404
11.4479 12.2041 10.4962 0.154412 -0.871932 0.464641
22.3257 12.5643 5.00887 0.639304 0.727609 0.248748
22.7579 14.4172 6.42047 -0.450322 0.644854 -0.617555
22.71 16.5984 10.0842 0.567025 0.708491 -0.420145
10.5641 12.5035 5.49227 0.626229 0.310155 -0.715291
10.8207 14.1621 9.06832 -0.122757 -0.496325 0.859414
12.267 12.9473 4.48438 0.417521 -0.212212 0.88354
22.4615 15.4469 8.3811 -0.980502 -0.0143413 0.195987
14.1006 11.6195 10.2185 0.0413824 0.657258 -0.752528
14.2768 15.3428 10.4924 0.900045 -0.43194 0.057856
14.361 16.4346 8.20286 0.0998968 -0.373886 0.922079
13.3857 13.5349 7.52144 -0.457438 -0.00245757 0.889238
17.1181 9.51336 8.65438 0.875445 -0.479387 0.0615197
16.5022 13.6803 6.3274 0.132572 -0.211719 -0.968297
18.0618 12.9536 7.74501 -0.14593 -0.970383 0.192513
13.2596 14.5757 7.50605 -0.192479 0.141477 -0.971049
16.7442 10.8234 7.04699 -0.52769 -0.362012 0.768434
17.9278 11.5947 9.11158 0.679546 0.059933 0.731181
18.3734 12.4182 5.85514 0.298398 0.948005 0.110659
16.6245 15.6301 9.49052 0.588521 -0.389237 -0.708617
19.7188 13.1033 10.5406 0.0146871 -0.0697697 0.997455
21.0406 16.2793 8.3974 -0.603319 -0.532108 0.594027
21.0692 13.4905 7.59728 -0.211522 -0.968544 -0.131072
19.9711 13.9812 11.1922 0.365266 -0.199275 0.909324
20.1906 11.9966 11.5622 0.731464 -0.258525 -0.630971
21.5193 12.8221 8.69626 -0.294607 0.199434 0.934576
20.9337 12.1504 9.72779 -0.440707 0.298231 0.846662
21.8613 16.5405 13.3396 -0.38658 -0.92114 -0.0453503
10.3447 12.2646 11.2694 -0.920141 0.311528 -0.237255
10.4006 15.4112 4.94029 -0.785993 -0.49107 -0.375586
22.894 14.2979 8.79373 -0.830995 0.463488 0.307614
11.7566 19.0152 10.4427 -0.583611 0.589092 0.558899
20.1903 14.8076 9.96477 0.634088 -0.170878 0.754144
10.404 15.1672 7.26871 0.970962 -0.141692 -0.192761
23.6355 16.3742 6.52444 0.0996076 0.274437 -0.956432
10.7706 15.4075 8.98264 -0.149541 -0.196055 0.969123
13.2139 12.3813 7.49172 0.836618 -0.184518 0.515775
14.7993 16.4258 10.4862 0.57139 -0.102839 0.81421
16.4368 14.2664 9.0629 0.353618 -0.637728 -0.684293
12.7803 15.6054 7.6673 -0.572082 -0.775726 -0.266405
17.5875 13.561 11.1112 -0.54633 0.836516 -0.0420083
18.0291 15.2429 7.61043 0.281126 0.874957 -0.394231
15.3975 14.2616 6.65627 0.187306 -0.51709 -0.835185
13.8797 17.233 6.04644 0.0672782 -0.496395 -0.865486
18.1006 14.5464 11.4303 -0.0854177 0.734466 -0.673248
17.5784 16.8555 15.1442 0.126096 -0.0347098 0.991411
18.3362 14.5516 9.94775 -0.659506 -0.683808 0.312184
16.6158 17.2886 8.2998 -0.908359 0.265915 0.322757
17.1247 12.0347 9.5198 -0.627259 -0.649335 -0.430013
19.3897 17.1231 9.51856 0.90473 -0.257098 -0.339654
19.6359 16.1414 9.82948 -0.996519 0.0826525 -0.0108467
18.5675 18.8871 10.1558 0.929151 -0.105072 -0.354455
19.5361 16.9952 12.0815 0.269985 0.471135 -0.839726
21.7036 15.2519 6.68286 0.565725 0.788091 -0.242626
22.1702 16.2186 9.19452 -0.886362 -0.42873 0.174794
17.7375 18.0643 10.8172 0.835934 -0.128323 -0.533618
22.6583 18.6648 14.7883 -0.147116 -0.516629 -0.843476
10.0956 17.9572 6.4385 0.126212 -0.974583 0.185091
22.3141 19.3218 5.7219 0.817885 0.135895 -0.559103
22.3264 20.6851 12.053 0.621187 0.574644 -0.532832
10.8408 19.8115 8.96644 0.924239 0.30162 -0.23411
11.2204 17.5875 6.93835 -0.242809 -0.886665 -0.393534
12.1488 15.964 8.65768 -0.522572 -0.758383 0.389582
11.5137 21.3015 10.669 -0.063706 -0.977112 -0.202965
13.166 20.3539 9.12116 0.112232 -0.827327 -0.550395
13.8456 17.1342 10.4391 -0.754278 -0.340299 -0.561481
16.3232 17.4771 11.5028 -0.8713 0.39782 -0.287361
12.6278 18.0825 8.19385 -0.597681 -0.540691 -0.591972
15.3102 15.8323 9.61004 0.181608 0.98259 -0.0391899
13.4443 17.9262 4.5282 0.646543 0.586594 -0.487738
16.738 15.8685 7.93743 -0.894059 -0.426446 -0.13712
16.2752 18.8398 10.8631 0.450179 0.347485 -0.822553
16.2692 15.6646 6.13784 0.667842 -0.0270467 0.743811
17.3591 21.7077 7.85969 -0.925748 -0.0706777 0.371476
18.3696 19.1691 6.30838 0.0793074 -0.627016 0.774959
17.5865 19.0767 12.01 -0.897449 -0.440084 0.0301923
17.4673 17.1285 10.5112 -0.893316 0.435898 0.109452
19.9817 18.6143 8.70836 -0.43825 -0.534414 0.72273
20.4473 19.1116 9.92917 -0.321507 -0.139843 0.936524
20.7824 20.1712 9.95763 -0.0518092 -0.0181368 0.998492
21.6782 19.8272 9.27334 0.295299 0.719987 -0.628026
19.6197 19.4047 7.54785 0.738244 0.651851 -0.173454
23.1098 17.7792 5.89372 -0.277811 -0.941045 0.193018
22.7837 21.102 7.99534 0.380026 -0.914175 -0.140937
9.75234 17.9202 8.80699 -0.793148 -0.605828 -0.0623612
11.2073 20.872 7.32853 0.963206 -0.0678033 0.260071
9.96374 19.3415 7.17461 -0.459887 0.886339 -0.053923
11.5481 22.0216 5.23181 0.120227 0.0207579 -0.992529
11.8684 17.173 10.0341 -0.280741 -0.641167 0.714206
14.0874 19.9871 7.98771 0.0722258 -0.566318 -0.821016
12.7809 20.311 6.99275 0.964799 0.181088 0.190708
23.6057 20.5471 12.6538 0.91927 -0.161673 -0.358894
11.9682 20.9208 15.0933 0.487864 0.683076 0.543503
10.9327 10.3591 16.4462 -0.611735 0.0822302 -0.786777
14.8524 20.532 5.14552 -0.380544 0.28525 0.87967
12.0801 21.022 14.0085 0.96271 0.146738 0.227282
14.7972 18.1845 8.64957 -0.297474 0.244941 0.922774
15.6131 18.2049 6.71559 0.56433 -0.54174 -0.622937
15.5329 18.7854 5.36118 -0.840647 -0.11881 -0.52839
19.7672 21.1338 8.4733 0.619816 -0.272618 -0.735872
17.007 19.7976 12.5606 -0.902094 -0.429963 0.0368502
17.2051 22.7779 7.26335 0.0388757 -0.139756 0.989423
18.0488 18.2285 5.65199 -0.700332 0.403389 -0.588908
18.0874 19.8619 8.89234 0.487225 -0.105714 0.866854
20.8616 22.0983 11.8636 -0.81631 -0.489199 -0.307119
23.6657 22.2698 7.85886 0.904041 -0.350085 0.245257
21.1941 17.696 7.00661 0.0279822 0.305332 -0.951835
20.7212 9.41625 10.1565 0.0342659 0.998724 0.0370883
20.7779 19.2903 11.4551 -0.608264 -0.116304 0.785168
11.1282 20.4985 4.85336 0.796819 -0.0879992 -0.597775
20.6661 18.8599 5.90074 -0.67811 0.0394262 0.733902
9.92092 20.8176 8.15793 0.493694 -0.708887 -0.503732
10.4313 19.1557 8.15902 -0.755363 0.640684 0.137661
11.0397 22.7576 7.42594 0.323408 -0.897071 0.301116
11.7282 21.0752 8.52175 0.978719 -0.189379 -0.0790245
21.9446 11.2759 9.63894 -0.822226 0.0795785 0.56357
10.8552 21.3431 12.5893 -0.684389 -0.317105 0.656549
11.502 23.1317 8.51336 -0.608771 -0.0159564 0.793185
12.6287 19.5318 17.1966 0.499903 0.712453 0.492451
11.223 9.56586 10.0479 -0.0150022 0.985918 -0.166554
12.2268 22.2095 13.7739 0.645375 -0.630636 -0.431033
12.9382 19.6668 6.23994 -0.574829 0.47363 -0.667268
14.0178 19.4372 5.79843 -0.0397375 -0.853275 -0.519945
13.3086 9.57288 8.74577 -0.448062 -0.337095 -0.828014
16.4479 18.8445 13.4241 0.0815157 0.61661 0.783037
13.233 9.39842 17.4092 -0.78753 0.616272 0.00238712
16.8593 20.7401 8.51326 0.914911 -0.0102234 0.403525
16.2672 21.7719 9.1738 -0.408854 -0.900375 -0.148874
15.2351 22.4839 11.2417 -0.841611 0.479028 -0.249446
13.1056 21.4358 7.24792 -0.852071 0.150409 0.50135
15.3978 20.9533 6.25323 -0.612483 0.301399 0.730769
17.3659 21.5349 10.7411 0.640907 0.182825 -0.745529
19.4062 23.2687 10.3295 0.537061 0.560749 -0.630179
18.2677 22.8528 7.11099 -0.0872059 -0.313369 0.945619
20.5875 21.1539 9.24021 0.831258 -0.00188407 -0.555883
20.4527 10.1772 7.21735 -0.750985 -0.612178 -0.247508
9.88608 20.2343 9.94364 -0.316751 -0.460968 0.828962
22.9181 23.2791 6.69648 0.773367 -0.629608 0.074151
22.6423 20.6434 6.04459 0.897855 0.362382 0.250071
23.1491 10.4542 8.25675 -0.849207 0.0879303 0.520688
11.114 21.4015 9.60605 0.24068 0.964889 -0.105178
10.0821 9.70747 10.1145 0.281577 0.922477 -0.264103
22.0647 10.3253 10.0935 0.56803 0.191647 0.800383
23.199 11.347 12.7082 -0.420969 -0.704421 0.571468
9.79854 12.2821 14.2211 -0.578116 0.751361 -0.31818
12.4637 10.6189 12.1174 -0.44912 0.743312 -0.49576
9.97698 22.4528 9.26931 0.715873 0.102417 -0.690678
9.97168 10.3746 10.9176 0.370021 -0.864046 0.341335
14.6054 10.5814 9.2133 -0.224092 -0.924154 -0.30939
13.8861 10.5202 4.68622 -0.996256 -0.0847083 -0.0173055
12.1439 9.67594 6.62418 -0.822103 0.158607 -0.5468
14.6049 9.52994 13.447 -0.053325 -0.819503 0.570588
14.5721 10.1349 11.0504 0.472739 0.697655 -0.538326
14.3232 9.66222 7.85771 -0.3554 0.759856 0.544344
14.7926 9.50791 10.2117 -0.993438 -0.00254906 0.114343
13.8761 12.0229 11.2711 0.317087 -0.462328 0.828075
17.4977 22.1583 15.7897 -0.0158864 0.240409 -0.970542
19.7047 22.2364 9.69161 0.917951 -0.163031 -0.361644
17.8207 22.4101 9.35982 0.633337 0.689749 0.3509
16.2133 22.5707 10.3902 -0.692632 0.199929 -0.693029
16.5233 21.7494 12.4496 0.434081 0.676793 -0.594579
17.8954 20.3205 13.5441 0.473442 0.873794 0.111067
21.3085 9.58699 8.32706 0.910865 0.195546 0.363436
19.4652 10.9442 9.87896 -0.27702 0.743021 -0.609245
20.1504 22.9569 13.3812 -0.900983 -0.381979 0.205722
19.6116 11.9307 10.6649 0.689487 -0.598947 -0.407272
20.9587 22.3524 7.77716 -0.704101 0.547667 -0.451999
20.5646 13.0357 14.0929 -0.382878 -0.874872 -0.296654
21.6959 13.8392 15.1168 -0.900649 0.340453 0.270044
10.1466 12.4973 7.88391 0.309884 0.498426 0.809656
23.1785 13.7944 9.97462 0.866966 -0.482017 0.12661
9.97507 14.2245 12.4993 -0.363958 -0.573993 0.73353
13.2893 10.0748 11.0283 -0.623482 -0.389908 0.677674
11.5814 12.5106 12.2033 -0.16203 0.968034 -0.19146
12.7989 10.9658 10.4523 0.56919 0.43275 -0.699106
21.766 14.3975 11.8528 -0.694159 0.700582 -0.165313
12.5384 12.8579 13.2368 0.0938036 0.88915 0.447899
13.1678 15.1392 14.3736 0.649642 -0.732361 -0.203991
14.7464 9.38582 6.32313 -0.0917847 -0.602856 -0.792553
12.2175 13.9921 11.7868 0.52967 -0.647438 -0.547972
15.7612 10.1449 11.0831 -0.106175 0.992909 0.0534612
14.6714 13.039 11.1276 -0.337317 -0.185536 -0.922927
15.1841 23.1529 8.59336 -0.118008 -0.699062 -0.705256
16.836 12.0384 12.2762 -0.365317 0.121754 -0.922886
18.6843 22.6659 12.8682 0.493785 0.732083 -0.469287
16.4256 12.7391 7.73369 0.601859 -0.390083 0.696851
18.5771 21.931 8.71234 0.548271 0.746947 0.376124
18.8396 10.3813 12.1747 0.977755 -0.118446 0.173104
21.2337 10.1876 11.2415 0.892291 0.398455 0.212251
18.7321 13.53 10.5518 0.0771191 0.957984 0.276259
19.681 10.9382 8.66501 0.173515 0.872226 -0.45729
18.8293 14.9883 15.4123 0.829138 0.524576 0.193262
18.9635 9.97213 11.0584 0.866619 0.0364141 0.49764
20.2625 11.473 7.21152 0.215177 0.732256 -0.646143
19.9701 10.9343 11.1439 0.94812 -0.0612732 -0.311953
19.6814 13.2004 12.7513 0.13824 -0.954818 0.263082
22.9088 11.867 11.4779 -0.331266 0.943531 -0.00349834
22.1615 15.144 11.2437 0.404652 -0.847597 -0.343273
9.76301 13.4213 11.0568 0.955033 -0.199391 -0.219442
21.5665 14.4171 13.8532 0.794356 -0.56437 0.22469
11.7176 16.1327 11.9528 0.330869 -0.826267 0.455859
21.8522 13.0229 12.0421 -0.436316 0.141701 -0.888566
15.117 15.501 8.61903 0.835984 0.548708 0.00708969
10.9655 16.4951 14.1186 -0.600864 -0.61951 0.505144
13.8273 14.5653 13.2156 -0.864974 -0.245883 -0.437449
15.5197 15.6525 12.8408 -0.00431708 -0.786311 0.617816
13.7263 12.577 15.7516 -0.769205 -0.62896 0.11284
14.3224 15.8022 13.2207 -0.347237 -0.227714 0.90971
15.76 11.8048 12.3517 0.39743 -0.639679 -0.657921
14.3283 14.4813 11.6402 0.927141 0.00689634 -0.374648
16.2597 11.6789 7.50937 -0.011356 -0.552472 0.833454
15.7146 12.8257 10.9088 -0.0590466 0.0713196 -0.995704
16.6861 13.6074 10.1552 0.116067 0.983542 0.138469
17.2557 13.0102 12.062 -0.546154 -0.00932229 -0.837633
16.4693 10.8546 10.5325 0.467939 0.638911 0.610595
15.4343 14.1297 12.4132 0.639704 -0.694162 -0.330028
20.8871 12.8565 16.7251 -0.995686 0.0136418 0.0917783
18.7159 14.5998 14.314 -0.8896 -0.0261224 -0.455993
17.8204 11.9037 10.7107 -0.929195 0.363294 -0.0679312
19.6419 15.2392 13.8714 -0.684423 0.622289 -0.379897
22.2176 13.3995 10.6563 0.67298 -0.690472 -0.265228
9.75972 12.8959 15.1209 0.263809 0.867388 -0.421952
19.9077 15.0509 11.2905 0.509277 -0.308877 0.803263
20.5378 11.8439 14.6843 0.087162 0.741354 0.66543
21.7645 15.6292 14.2071 -0.565877 0.67769 0.469595
22.1833 14.2494 12.9437 0.695719 -0.709094 0.11472
23.1606 15.6104 5.90249 0.278228 0.146359 -0.949299
11.0429 16.7557 9.29374 0.213966 -0.401267 -0.89062
10.4479 14.3964 10.5793 0.526257 0.0344839 0.849626
11.3781 17.47 8.31353 0.751931 -0.370214 0.545474
12.387 14.6756 9.23418 0.706772 0.540915 -0.455943
13.2664 17.1205 11.2174 0.215134 0.962753 0.163779
13.4758 15.4 11.5631 -0.939845 -0.275575 0.201864
13.3783 19.1386 9.7878 -0.931859 0.0642186 -0.357092
10.9759 15.6205 11.0908 -0.123277 0.331381 -0.935409
12.0758 15.5583 10.8966 0.404238 0.838939 -0.364379
14.1405 19.2984 11.4289 0.521942 0.383676 -0.761819
13.8631 18.2546 10.5853 -0.879697 -0.352518 -0.319162
15.6538 15.2781 11.2734 -0.605615 0.0880338 0.790873
13.0268 19.3609 13.5567 -0.0828019 -0.156153 -0.984256
16.3088 15.2787 14.0821 0.535933 0.300731 -0.788883
17.3273 17.942 9.27989 0.35452 -0.227415 -0.906972
12.8781 14.9217 10.4925 -0.188751 0.585947 -0.788061
16.4354 16.6541 13.7581 -0.119398 -0.549168 -0.827139
17.5357 14.3975 12.573 0.663437 0.567917 0.487156
20.7169 17.916 8.67162 -0.628324 -0.742509 -0.232141
16.4031 12.6899 9.11096 -0.78119 -0.621947 0.0540813
21.4858 20.6317 7.694 0.412079 0.889652 -0.196749
20.1401 14.6399 13.0207 -0.315319 0.920926 -0.229061
21.6403 19.9376 6.81959 -0.970639 -0.239298 -0.0244037
22.1249 17.7368 15.1281 -0.0467563 0.725445 0.68669
19.1662 15.9601 11.3026 -0.617648 -0.078042 -0.782573
22.8239 16.3664 13.7261 -0.103605 -0.898205 -0.427192
10.157 19.0881 10.7241 -0.600048 -0.612691 0.514346
10.6756 18.6295 9.78822 -0.75242 -0.525585 0.397019
11.3422 18.0523 10.9721 -0.140508 -0.225464 -0.964066
11.734 18.9724 12.7647 0.519905 0.168727 -0.837395
13.2435 17.0464 8.97798 -0.284646 0.907514 0.308862
11.8 18.6089 8.74749 -0.71314 -0.618166 0.330609
10.4037 18.1528 11.6101 0.0715765 0.473995 0.877614
11.6967 16.7316 12.8356 0.990807 -0.0582176 0.122115
16.3253 18.9715 16.1897 0.558092 0.323541 0.764104
14.8996 19.3941 6.52184 0.141533 -0.884101 -0.445348
13.9549 18.9283 13.0564 0.549678 0.650763 -0.523796
13.8771 17.3287 12.1339 -0.47224 0.791272 0.388431
14.6185 17.2226 9.08326 -0.76618 0.445237 0.463392
15.5998 17.1354 10.4569 0.815734 -0.500933 0.289214
16.3174 19.9414 15.5025 -0.896326 -0.407196 0.175474
16.6157 17.2728 12.9207 0.686418 0.147259 0.712141
17.0328 18.8881 7.91838 0.331253 0.649349 -0.684557
18.7674 17.9814 8.92534 -0.643455 0.271033 0.715896
19.8327 20.1562 11.9154 0.440992 0.576003 -0.688293
18.7196 17.7555 11.379 0.808502 0.588316 0.0144359
17.3345 22.3843 13.2764 -0.0136572 0.4985 -0.866782
17.7641 18.9038 8.99317 0.286045 -0.412477 -0.864894
22.368 20.6917 10.8655 0.908013 0.198351 -0.369012
23.182 18.9553 7.74506 0.762753 -0.611644 0.209999
19.5278 20.1814 8.50838 -0.924724 0.375374 0.0630868
18.6467 18.3897 13.0757 -0.491332 -0.188873 -0.850247
22.2024 19.3947 8.45587 -0.885578 -0.340725 -0.315685
23.6806 16.4693 12.865 0.196036 -0.150121 0.969038
22.6926 20.9989 9.01989 0.795976 -0.589827 -0.13611
12.0656 19.8845 7.85777 0.901277 0.352272 0.252197
23.2771 18.909 11.9732 0.340144 -0.768391 0.542104
22.3997 18.108 11.5416 -0.710347 0.474834 -0.519557
10.1495 19.9445 11.558 -0.623357 0.744139 -0.240172
12.7073 20.775 11.1489 0.185245 -0.597129 0.780462
11.8296 20.7785 11.9138 0.720528 0.38901 0.574031
13.3568 19.808 10.7409 -0.367244 -0.441321 0.818759
11.4052 20.3646 12.7963 0.397763 0.880481 0.257951
12.2395 19.8709 10.8747 -0.312382 -0.068527 0.947482
11.9666 19.0748 14.0673 -0.204792 0.90519 -0.372412
15.6889 21.1678 11.5418 -0.198225 0.273022 0.941364
16.6864 20.566 11.9707 -0.86012 -0.00985883 0.509997
12.8764 20.316 13.3731 0.591631 0.158786 0.790418
14.7184 20.4428 11.4577 0.855328 -0.385964 0.345609
16.5026 20.0637 9.34418 -0.592631 -0.0751708 -0.801959
18.5623 18.8032 14.77 -0.50484 0.0449415 -0.862042
18.8245 20.1328 7.49346 -0.67358 -0.726026 0.13848
16.8423 20.6379 13.2571 -0.642897 -0.757153 0.115769
21.5958 20.9529 9.98265 0.401494 -0.905868 0.13493
17.314 19.6544 11.1914 -0.857153 -0.0992024 0.505419
22.7074 18.4943 8.59665 0.900688 0.348155 0.259903
19.7826 19.728 13.9391 -0.21024 -0.40369 0.890412
20.4289 21.2455 13.057 -0.449132 -0.119816 -0.885395
23.3773 21.4482 9.68888 -0.899625 -0.0434636 0.434495
22.5287 19.3474 9.57479 0.443641 0.86485 0.234982
20.2858 18.7398 14.5057 -0.667683 -0.370977 0.645427
21.5195 18.1603 13.8466 0.205327 0.658582 0.723955
21.8767 17.7913 10.1325 -0.140123 -0.98129 -0.132042
23.7295 21.5401 12.2591 -0.143071 -0.00870984 0.989674
20.4319 23.3565 12.2812 0.738458 0.649975 -0.179477
10.3268 22.1516 13.1324 -0.203269 -0.363651 0.909087
23.2092 9.90934 10.4129 -0.165493 0.510076 -0.844058
12.1717 22.2365 8.52431 -0.961477 -0.195612 0.193128
12.8985 22.7471 12.3674 0.534276 0.778616 -0.3291
14.2329 20.9693 13.7026 0.315535 0.819202 0.4789
12.4483 9.71005 5.52291 0.703813 -0.382663 0.598512
13.5653 22.7086 13.7106 -0.0437577 -0.99587 0.0795478
14.6732 22.1738 10.2852 0.176385 -0.693527 0.698504
14.866 18.7198 11.908 -0.490017 -0.803875 -0.337147
16.3761 22.3703 13.8538 0.235691 -0.106882 0.965933
19.8001 21.7738 10.6684 0.94831 0.280546 0.148333
16.5921 9.87357 11.8672 -0.451449 0.767127 0.455753
15.3299 23.2285 12.0858 -0.8791 0.337285 0.336782
17.5303 9.82942 9.6195 0.995008 0.0811757 0.0580455
18.5429 20.6377 10.0387 -0.799054 0.0456264 0.599525
16.8509 23.2485 13.5159 0.564887 -0.235236 0.790928
18.688 19.7264 13.9144 -0.139101 -0.390828 -0.909893
21.0617 10.6647 8.50695 0.820026 0.57232 -0.00260236
10.0143 9.37528 8.07232 0.172955 -0.0710899 0.982361
20.5205 10.0455 14.2936 -0.670542 -0.729887 -0.132807
20.2939 20.9365 14.7312 -0.111833 0.363685 0.924784
21.8847 12.2946 10.1889 0.630462 -0.180032 -0.755054
22.6481 18.7113 13.2703 -0.971189 0.231621 0.0560766
21.7431 10.337 12.8431 0.785968 0.360375 -0.502378
20.8988 22.8926 11.2147 -0.98336 0.177889 0.0368552
22.0852 9.48642 11.679 0.284126 0.113894 -0.951998
22.5552 12.6504 14.5269 -0.21076 0.52751 -0.82299
23.6218 9.93869 14.9805 -0.914881 0.304252 -0.265374
9.80636 9.53512 14.0291 -0.885564 0.29047 -0.362497
23.7719 9.75994 12.0347 0.905517 -0.391823 0.162833
23.2995 22.3067 11.1288 0.800483 0.459355 0.384994
10.8742 23.1018 13.4095 0.0623107 -0.799316 0.597672
11.139 10.9099 15.2238 -0.0480269 0.965308 0.256658
14.5272 11.6059 15.7656 -0.926039 -0.181644 0.330844
12.5238 9.73032 10.2671 0.648996 0.582789 -0.489041
10.8828 11.3379 12.6783 -0.481787 0.780867 -0.397654
13.5871 12.8181 13.0641 -0.0831006 -0.86035 -0.502885
15.0329 12.0763 11.1168 -0.14185 0.128873 0.981463
13.1562 10.9387 14.8371 -0.0418159 -0.0595136 0.997351
13.4297 12.7744 14.5681 0.168487 -0.918931 0.356619
15.8576 10.4719 15.0739 0.435042 -0.416461 -0.79831
17.8474 22.0786 12.1504 -0.428537 -0.877379 0.215781
17.864 23.285 15.536 -0.107232 -0.2439 0.963854
16.8708 11.2654 14.0255 0.627189 -0.230959 -0.743836
18.7708 22.8136 14.9083 0.390117 0.699758 -0.598454
19.8317 10.1318 13.2381 0.693027 0.696521 -0.185933
19.1773 21.9471 11.8213 0.00957726 0.995083 -0.0985837
18.6306 12.8778 12.1625 -0.5231 -0.780799 0.341642
21.6998 11.0549 13.7245 -0.64286 0.705756 -0.297722
21.0678 22.1646 13.2346 -0.761755 0.0345701 -0.646943
20.2374 11.0569 12.1688 -0.955931 0.287044 0.0616585
21.5436 22.7727 14.9944 -0.171633 -0.823063 -0.541396
21.1332 21.5151 15.3185 -0.494758 0.85981 0.126258
22.3121 13.3838 9.25026 -0.689135 0.649285 -0.321748
9.92299 11.8128 13.2583 0.0345866 0.975159 -0.218788
22.6628 14.9252 12.1395 0.694141 -0.635668 -0.337778
9.74118 10.1598 16.5868 0.425528 0.582028 0.692942
9.74007 15.1037 8.97569 -0.374147 0.64626 0.665103
12.7232 11.864 13.9669 0.366787 -0.28992 -0.883976
10.4784 13.1628 13.8219 -0.233155 0.971147 0.0501119
11.3871 11.5981 14.2138 0.385964 0.922514 0.000443072
12.4886 12.5629 10.429 -0.533953 0.458579 0.710351
12.3674 12.9844 15.3143 0.0969128 -0.450425 0.887539
10.8744 13.563 12.8048 0.105006 0.985343 -0.134432
15.1213 10.5913 11.9566 -0.465396 0.656991 -0.593102
14.3122 10.5776 16.1381 -0.507402 -0.235752 -0.828833
14.0132 14.3619 15.1139 0.155008 -0.967008 -0.202157
16.235 11.4542 13.2042 0.588981 -0.563735 -0.579054
14.7384 13.3402 13.1153 0.337597 0.771996 0.538564
15.2605 13.3981 14.4736 -0.30998 0.606656 0.732039
17.2964 10.2151 10.9467 0.747282 0.592965 0.299936
16.2039 12.4893 16.281 -0.54778 0.726573 -0.414763
18.4885 11.4601 14.029 0.529621 -0.307033 0.790716
18.1002 13.2525 15.4545 -0.774095 -0.538703 0.33253
18.5032 10.5811 13.3517 0.00818755 -0.738541 0.674159
19.4091 12.0426 15.697 -0.75063 -0.60884 -0.25665
20.3868 22.3328 14.2059 0.451829 0.841874 0.295125
19.2861 14.0551 13.5332 0.282116 -0.887647 0.363996
23.6278 19.4299 14.7595 -0.0270222 0.764417 0.644156
23.5292 20.6835 16.5306 0.293134 -0.888495 -0.353057
22.6227 21.8657 14.8176 0.720696 -0.164996 -0.673331
10.0969 10.8259 12.2102 -0.0970397 0.573124 -0.813703
23.3121 14.3938 13.6623 -0.0331248 -0.653552 0.756156
20.6274 15.3078 14.7723 0.874737 -0.467609 -0.12719
12.6012 14.292 14.6826 -0.6448 0.571357 -0.507724
22.864 16.0248 11.5963 0.272604 -0.169707 -0.947041
10.7228 15.0002 13.6742 -0.537464 0.0887802 -0.8386
9.81036 14.9667 14.4441 0.275828 -0.578397 0.767708
23.3131 16.5467 15.9592 -0.804823 0.0740089 0.588883
11.0465 15.7972 12.81 0.632246 -0.30116 0.71384
13.1126 12.5451 11.7858 -0.92331 -0.304969 -0.233435
12.171 14.4099 13.2565 -0.446189 -0.82286 -0.351877
16.8633 12.9757 13.6349 -0.448266 -0.235998 -0.862185
12.956 16.3721 13.7782 -0.979972 -0.199109 0.00337037
15.4452 10.8299 13.095 0.612073 -0.678625 0.405998
14.7465 16.3878 14.3651 -0.414455 0.859842 0.298158
17.7014 11.6336 15.2882 0.660824 0.669825 0.338594
16.3705 14.0434 13.2129 0.631832 0.772603 0.0622374
18.2452 12.6008 14.2956 0.565809 0.0521807 0.822884
16.8036 14.1462 14.3469 -0.970156 0.113452 -0.214303
18.9032 12.7416 13.4201 0.356551 -0.743395 0.565893
18.0971 16.3287 11.515 -0.4473 -0.381563 -0.808908
21.6158 12.642 15.0115 -0.37823 -0.342635 -0.859967
20.2129 18.1481 13.4675 -0.431361 0.862644 -0.264144
19.8557 13.092 14.8411 0.344978 0.930131 0.12588
21.1328 17.7707 14.7048 0.144329 -0.861806 -0.486271
21.3463 13.6026 13.0594 0.262629 -0.33853 0.903561
21.263 15.8735 15.4623 0.930537 -0.364495 -0.035263
23.1451 17.3657 13.0826 0.555955 0.383634 0.737387
9.86789 15.5195 11.3753 0.13541 -0.0998074 -0.98575
21.5248 17.2901 12.0298 0.301126 -0.855949 0.420326
21.8858 16.7443 11.055 -0.861436 -0.21961 -0.45793
22.528 16.2361 14.9946 0.308301 -0.696712 -0.647721
11.3069 17.7186 14.426 -0.29743 -0.356828 0.885556
21.798 15.2597 16.4964 -0.878981 -0.395455 0.266474
13.2266 15.4939 12.71 -0.891458 0.351127 0.28638
14.852 15.0779 14.8672 0.159064 0.799467 0.579267
12.7585 16.8056 12.0869 0.814937 -0.557451 0.158512
11.4269 13.5465 14.0451 0.0916637 -0.694942 -0.713199
10.2349 17.1588 14.2852 -0.0446485 0.029229 0.998575
11.7483 13.7118 16.1133 0.0107959 0.729354 -0.684051
14.8239 17.6333 12.4412 -0.306098 0.468271 0.82887
14.4995 14.1056 10.4812 -0.835078 0.368659 -0.408332
13.7428 17.4636 13.4367 -0.83994 -0.0403951 -0.541173
18.0881 13.6168 13.7682 0.770978 -0.077605 0.632116
17.5446 15.392 16.1929 0.173332 0.29685 -0.939061
15.8804 16.0605 15.1754 -0.074008 0.0654079 -0.99511
18.4589 12.6783 16.9963 -0.684519 0.587034 -0.432232
17.9013 15.7383 13.4847 0.130192 -0.357489 0.924798
16.9569 15.8463 14.6498 -0.29543 -0.386301 0.873781
18.0346 16.9407 13.2168 -0.2002 0.409253 -0.890187
19.3868 13.5298 15.9135 0.30191 0.874625 -0.379318
19.1507 16.7107 14.7647 0.112452 0.0416295 0.992785
20.7874 15.9625 12.7382 0.235093 0.0958704 -0.967233
19.44 18.3058 12.4408 -0.236268 0.833647 -0.499209
10.5187 20.9171 14.5427 -0.821861 -0.551088 -0.144382
20.16 16.668 14.2612 0.234256 0.273428 0.932932
10.409 17.0062 11.5784 -0.376036 0.334186 0.864243
12.4405 17.5741 13.8417 -0.151026 -0.744625 0.650173
23.7156 19.8584 13.6204 -0.820292 -0.509938 0.259006
10.7533 17.9217 13.0599 -0.280728 0.328668 0.901759
10.0143 16.5631 9.20755 0.0584963 -0.684429 -0.726729
13.164 17.9486 14.6962 0.463501 -0.874338 -0.143873
23.2295 19.5422 12.7661 -0.960379 0.183271 0.209963
12.3702 18.1255 12.3454 -0.661367 -0.483974 0.573029
13.0582 20.4881 15.1733 -0.539514 -0.2431 -0.806119
12.3959 17.8075 11.0287 0.204821 0.969896 -0.131718
14.1404 19.4343 15.8104 0.475762 -0.366189 0.799722
14.1188 19.3585 14.3078 -0.259232 -0.958555 -0.118201
15.5235 19.4745 9.98695 0.136799 0.957103 -0.255421
14.238 20.8038 15.2977 0.415957 -0.629674 0.656118
15.2432 20.6937 13.8354 -0.0517391 0.613123 0.788292
15.2492 16.9218 13.5761 -0.39021 -0.219501 -0.894179
15.2272 18.8819 13.1033 0.378997 -0.755232 -0.534777
18.5417 17.7224 14.4923 0.427218 -0.0669859 0.901664
17.4161 16.5147 9.53497 -0.444063 -0.352792 0.823617
17.1394 15.3855 11.6405 0.142332 -0.0483381 0.988638
19.1033 20.5009 13.3318 -0.305204 -0.281022 -0.909878
20.7594 17.3924 11.0655 -0.367273 -0.83073 0.418327
19.2881 21.6945 15.5414 -0.0127356 -0.876613 -0.481028
23.7323 16.8983 10.7284 -0.171814 0.766575 0.618743
18.9161 19.1051 11.0656 -0.738022 -0.558006 0.379411
20.4508 17.5521 12.2966 -0.147599 0.663656 -0.733331
19.5395 17.5966 14.0785 -0.569184 -0.0764856 -0.818645
10.6595 18.8269 15.3117 0.940525 -0.212773 -0.264841
21.5566 18.2809 12.5927 -0.971296 0.2359 -0.0305781
10.4966 16.5871 7.81291 -0.0413472 0.551966 0.832841
20.7601 19.8527 14.9195 -0.872082 0.313927 0.375397
10.5189 19.3929 14.0505 -0.314313 -0.521325 -0.793365
11.3386 9.6374 11.2793 0.202915 0.845892 -0.493247
11.5511 22.4635 12.8187 0.381003 0.741044 -0.552893
12.1009 11.1473 13.2556 0.593623 -0.803945 0.0358493
11.5763 16.3099 15.1223 -0.00243679 0.657706 0.753271
15.4359 22.2607 14.4847 -0.0595111 0.448141 0.89198
15.0737 22.5396 13.1232 0.571358 0.819878 0.0367446
15.4512 20.0925 14.6468 0.202527 -0.622357 -0.756078
12.9975 16.2602 15.2832 -0.751723 0.105672 0.650957
14.5708 21.7607 12.0476 -0.79862 -0.551445 -0.24107
16.0594 19.9613 10.9001 0.760498 0.616199 -0.204796
16.1956 21.129 14.7371 0.166811 0.310447 -0.93584
19.7837 17.0036 10.4737 0.919048 0.1016 -0.380825
14.4373 22.2053 15.0883 0.375214 -0.777269 0.505041
17.3326 18.2612 13.1104 -0.0113779 -0.302957 -0.952936
15.2178 10.0133 14.1258 -0.492392 0.821645 -0.287139
15.5147 19.5613 16.7777 0.0656627 -0.797224 0.600103
19.0108 21.4821 12.9352 -0.812889 -0.497736 -0.302442
18.2865 21.5131 11.316 -0.0433094 0.791355 -0.609821
19.8365 23.1095 15.0702 0.0129421 -0.994548 -0.10347
20.2716 18.0771 10.0758 -0.898818 0.0372367 0.436738
20.776 20.1393 12.4111 0.111512 0.818258 -0.563931
21.8869 19.462 11.7096 -0.415315 -0.256494 0.872768
23.043 20.8237 14.9586 -0.872004 -0.411085 -0.26574
10.6518 22.219 14.9598 -0.970503 -0.214105 0.11083
22.8992 18.462 10.6326 -0.087202 -0.994021 0.0657186
23.1461 18.3797 9.644 -0.650042 -0.74025 -0.171683
22.5724 23.1083 14.6942 -0.0295467 -0.635885 -0.771218
12.6181 22.8061 11.3751 -0.86234 -0.403806 0.305467
22.9843 11.8888 13.6363 0.0505386 0.787466 -0.614283
13.6266 22.7724 9.32953 -0.553261 0.170549 0.815362
23.5542 22.7968 12.5595 -0.475496 -0.66679 -0.573842
15.0153 18.759 14.4174 0.117444 -0.720302 -0.683646
13.3829 22.1531 11.7059 -0.857971 -0.508549 -0.0725502
13.6964 22.0952 12.7162 -0.216858 -0.973442 -0.0733707
12.1001 11.1367 14.894 -0.0662737 -0.611296 -0.788622
16.1049 17.9584 14.2516 -0.230193 -0.216045 -0.94886
11.9311 9.54282 13.6205 -0.839953 0.306244 0.447988
14.376 20.6458 12.4944 -0.659639 -0.509178 -0.552824
14.5026 12.636 13.8832 -0.259782 0.929923 0.260302
17.2891 9.96368 12.7574 0.490873 -0.414039 -0.76656
17.0693 9.99853 14.822 -0.41169 -0.00461699 0.911312
19.1267 20.4228 10.9539 -0.809373 -0.291154 0.510043
18.4564 22.1834 17.1563 0.0397988 0.406431 -0.912814
18.8389 21.5959 14.433 0.554829 0.818569 -0.14869
18.149 22.9821 13.7571 0.00571799 -0.735822 0.677151
18.122 21.1248 15.556 -0.774163 0.190612 -0.603605
18.8528 9.83131 15.3375 0.0377547 0.575674 -0.816807
22.1139 21.2323 13.9002 -0.742373 -0.466414 0.480978
19.09 21.2272 17.2486 0.544763 0.376459 -0.749341
21.4515 20.8571 13.0407 -0.337658 -0.784052 0.520816
22.1916 11.0562 15.0344 0.0341507 0.727416 -0.685346
22.5734 20.3206 13.8219 -0.798757 -0.59538 -0.086665
11.2603 10.5241 11.8931 0.401875 -0.684785 0.607919
22.5781 22.8207 12.8776 -0.155849 -0.984912 -0.0752273
10.2561 13.1131 16.0115 0.393295 -0.919062 0.0253912
23.0071 11.5656 16.4242 -0.689563 -0.720014 -0.0779897
9.79135 11.0786 16.0788 0.741961 0.527575 0.413714
10.8657 13.2243 15.1758 0.0171237 -0.942774 -0.332993
14.316 9.77212 16.9713 0.526072 -0.45878 -0.716079
14.2428 11.1877 14.5245 0.465532 -0.568011 0.678708
9.77584 10.8358 14.579 -0.56747 0.557451 0.605992
13.8565 10.8227 13.0066 -0.26555 -0.959168 -0.0973667
14.3509 9.83345 14.6988 -0.423265 0.589946 -0.687612
16.2932 22.2254 15.9451 0.672569 0.50796 0.53817
12.383 9.68012 14.456 -0.680676 -0.531068 0.504625
11.6473 11.8128 16.5181 -0.248026 0.840903 -0.481005
