11.5445 16.688 19.1352 -0.115253 -0.535847 0.836412
15.3561 23.12 14.258 0.194456 -0.196544 -0.961019
11.3157 23.4016 14.4993 0.473303 -0.24061 0.847403
10.0422 20.3938 17.1052 0.532346 0.841796 -0.0893693
10.858 20.8994 20.1085 -0.743429 -0.158747 -0.649702
18.7776 19.2309 19.1748 0.259997 0.366443 0.893376
12.0346 21.9943 20.2352 0.757478 0.0797486 0.647971
12.6296 17.4476 18.1033 0.273734 0.893582 -0.355781
10.3762 23.0248 7.67509 0.408687 -0.819707 0.401317
15.5376 11.6709 8.4759 0.53409 -0.780497 0.324918
14.2881 15.9556 13.921 0.437427 0.488895 0.754745
22.1011 17.1375 20.3603 -0.340431 -0.825173 0.450772
12.5981 16.2955 13.4121 -0.129874 -0.776294 -0.616847
14.9516 18.0187 19.67 0.626253 -0.55365 -0.548888
13.7982 15.4769 18.167 -0.245976 -0.637805 0.729864
18.4577 24.5252 9.48284 -0.942995 0.213529 0.255276
15.5059 17.5814 10.582 0.553289 -0.323188 -0.767737
15.3374 17.0208 14.3068 -0.102434 -0.655082 -0.748582
20.7093 14.8811 12.0391 -0.270303 0.425898 -0.863451
11.8571 14.3079 8.10647 -0.431337 -0.0214987 -0.901935
22.4897 20.6546 18.2596 -0.179004 -0.433855 -0.883021
21.518 19.3285 18.7006 -0.797261 -0.0620748 -0.600435
22.1608 15.4269 15.0327 0.516447 -0.0293366 -0.855816
21.6668 21.7519 16.7319 0.502428 0.822089 -0.267835
16.3948 17.5437 19.5855 0.098148 -0.580041 -0.808653
18.6396 17.9751 13.3 -0.0769365 -0.920506 -0.383078
22.523 14.4038 18.0533 0.946365 -0.283341 0.155277
16.964 12.5281 19.1397 -0.707606 -0.268398 0.653648
15.942 22.5282 14.8628 0.478147 0.128225 -0.868869
9.85905 23.4671 16.45 -0.00865941 -0.92168 -0.387854
18.9579 20.7792 15.7019 0.626272 -0.778601 0.0395365
21.0512 24.3558 7.57136 0.620963 -0.755707 0.208117
17.7512 21.7304 18.5985 0.369267 0.623687 0.688953
19.7586 13.3719 17.8147 0.58699 0.808514 -0.0418021
15.4576 21.9336 13.8948 -0.0877171 0.259147 -0.961846
21.678 13.9037 16.9204 -0.534267 0.265469 0.802549
16.3369 18.922 18.2717 0.948152 -0.311035 0.0653041
19.3208 16.3316 20.4207 0.333145 0.894099 -0.299334
11.5069 12.7708 7.56904 -0.789458 -0.245061 -0.562761
17.264 23.545 13.6051 -0.0212126 0.999611 -0.0180937
11.6492 22.6613 16.2461 -0.532665 -0.138576 -0.834904
15.659 18.5406 8.38008 0.0850019 -0.977109 -0.195018
9.90204 16.9561 17.3066 -0.874977 -0.477923 0.0774861
9.72186 18.2614 16.6651 0.298412 0.954324 0.0147008
16.2812 22.6093 11.7206 0.293193 0.0389816 -0.955258
19.0871 12.4183 16.9104 -0.660329 0.536888 0.525087
14.4292 20.1208 8.94919 0.30313 0.103277 0.947336
19.8975 15.945 13.0708 0.68492 -0.0653201 0.725684
15.4492 12.9672 19.9961 0.410296 0.895612 0.171862
12.6044 18.4087 20.0885 0.45406 0.841811 -0.291861
9.92882 17.7866 15.7741 -0.736519 -0.639637 -0.22001
21.2835 18.7445 12.3369 -0.959338 -0.280855 0.0281147
16.8303 18.1692 17.0303 0.0816036 -0.876443 -0.474541
16.7255 19.1362 15.5106 -0.271522 -0.631363 0.7264
16.5186 21.6672 14.2909 -0.0756674 0.409608 -0.909118
9.36934 21.4509 9.53728 -0.229698 0.799594 0.554876
19.6397 19.6481 14.8187 -0.512607 -0.77614 -0.367206
18.2472 21.324 7.73212 0.875776 -0.195044 -0.441559
21.1364 18.1117 11.522 -0.645422 -0.685769 0.33638
14.6408 18.6906 16.1067 0.414637 -0.407403 -0.813695
13.4209 22.5536 20.063 0.0282817 -0.00356945 -0.999594
16.0481 20.1901 16.0571 -0.11806 -0.448078 0.886165
12.1323 15.8621 9.34744 0.807406 0.0248413 -0.589473
11.5083 16.6086 8.87818 -0.720619 -0.323314 -0.613332
15.9904 18.9424 12.0739 -0.466262 -0.84949 -0.246915
18.3832 19.9519 10.6778 -0.601899 0.0295149 -0.798027
21.4383 17.0996 16.3852 -0.716163 -0.614588 0.330744
18.8016 23.8496 8.50736 0.474334 0.319232 -0.820425
10.2665 24.0461 18.6586 0.588066 0.508448 0.629014
19.9383 22.6838 9.79883 -0.361454 0.712716 0.601155
13.9175 23.1521 13.2563 -0.0800295 0.533903 -0.84175
16.6191 14.3457 12.6651 -0.913385 -0.0863248 -0.397838
10.0156 18.8281 19.1004 -0.902994 -0.0699007 -0.42393
13.2764 22.9938 17.0376 -0.0653661 0.291028 -0.954479
14.0853 24.6797 11.9765 0.682535 0.273478 -0.677758
13.154 16.8515 15.0133 0.223046 -0.568966 -0.791535
12.7855 18.5106 11.6301 0.38071 0.859566 -0.34089
12.864 12.0149 10.3546 -0.0934102 -0.894123 0.43797
11.9509 14.6532 19.5873 -0.288267 -0.0426826 -0.956598
19.9071 12.0859 14.0072 0.534732 -0.356554 -0.766114
14.4304 24.3498 17.3248 0.0828778 -0.391674 -0.916364
15.1498 19.7768 13.8297 -0.103511 0.250321 0.962613
19.0666 12.2706 20.4106 0.594601 -0.729756 0.337499
20.1737 15.1363 9.82858 0.200502 0.156808 -0.967063
19.8404 18.4225 9.09116 0.156451 0.295012 0.942598
17.7613 19.0861 15.2505 0.308831 0.251439 0.91728
20.3922 16.9671 18.7157 0.7797 0.550882 0.297652
9.86846 22.1898 16.8239 0.446166 -0.718044 -0.534181
10.9482 17.1268 13.9421 0.554255 0.422716 0.717016
16.6942 14.0282 9.24019 -0.0633186 -0.972166 0.225573
10.4641 21.8865 12.3641 0.868878 -0.101603 0.484488
16.0451 24.5673 7.59003 0.0500296 -0.939306 0.339414
10.3761 14.7232 19.1231 -0.714479 0.465131 0.522659
11.3487 23.0272 13.1999 -0.827183 -0.249601 -0.503455
21.8366 21.7909 14.6571 -0.224303 -0.945787 0.234893
20.755 24.5323 17.7699 -0.228204 -0.922626 -0.31094
13.5321 18.3538 7.30808 0.0430474 0.356927 0.93314
15.424 20.1254 7.6491 0.557231 0.605688 -0.56801
17.4402 18.4331 16.1329 -0.324124 0.715937 0.618367
11.7662 22.8332 18.6316 0.113198 -0.0675706 0.991272
21.0572 23.2411 15.6812 -0.758556 -0.581627 0.293774
21.124 15.1425 8.05088 0.559583 0.461446 0.688429
19.1123 15.9324 8.79534 -0.435467 0.893568 0.109106
15.9797 21.9723 9.23302 -0.417013 -0.417874 0.807144
18.1957 16.5787 7.77068 0.965462 -0.107445 0.237358
21.5264 15.1463 14.1092 0.167905 -0.770731 -0.61464
18.672 16.6081 15.9391 0.676874 0.579852 -0.453446
17.7217 15.9204 12.0198 0.063647 -0.831306 0.552159
18.4026 14.0101 10.9456 0.18715 -0.650146 0.7364
14.2623 17.577 7.56166 0.513832 -0.308319 -0.800572
14.6867 13.7187 13.5587 0.410922 -0.867418 -0.280587
10.2801 13.1723 10.0576 -0.17827 -0.603057 -0.777523
21.5917 16.5151 8.61116 0.676177 0.448476 0.584512
21.8914 19.5779 11.6505 -0.931862 0.337607 0.132872
9.51007 12.3865 12.2763 -0.16451 -0.962677 -0.214915
9.69753 17.2214 13.4756 0.0221718 -0.217433 0.975823
20.2998 16.8127 13.9212 0.829881 -0.19145 0.524066
10.6813 20.3249 14.1707 -0.847556 -0.3634 -0.386768
21.2965 19.5875 7.60178 0.421233 -0.830679 0.364053
21.4604 14.669 11.3151 -0.850785 -0.15624 -0.501751
15.3874 12.3258 15.6457 -0.834134 -0.52248 -0.176735
10.2083 18.5377 15.0649 0.549047 0.713482 0.435305
10.321 12.5938 16.0173 -0.186912 -0.504152 -0.843145
11.8313 20.0715 16.0221 0.296256 0.81205 0.5028
22.1075 16.886 14.5518 -0.255037 0.658427 -0.708117
10.6649 15.8286 20.0688 -0.361108 0.56338 0.743104
10.8941 14.9265 9.6573 0.960139 0.0334955 -0.277508
19.759 24.3493 15.7163 0.987405 -0.126193 0.0954238
14.2084 20.9809 18.3086 -0.107576 0.284907 -0.9525
9.48436 24.6322 8.76789 0.293677 -0.852097 0.433226
13.4132 23.9318 17.374 0.182127 -0.0304157 -0.982804
21.1488 21.2723 12.3128 -0.634916 0.709252 0.306338
17.6355 18.5942 7.9796 -0.451131 -0.475004 -0.755547
11.9472 11.9335 17.8281 0.674477 0.470624 0.568853
11.7559 13.6925 19.4842 -0.97588 0.217751 0.0155855
19.2778 20.5486 9.17756 -0.205578 0.186495 0.960707
19.149 17.7623 17.2944 -0.858872 0.245959 -0.449269
20.115 17.5649 7.50006 0.325736 0.689428 -0.646982
11.5656 13.3168 15.5593 -0.506094 0.225278 0.832537
13.439 12.258 20.2726 -0.0943079 -0.888794 0.448499
21.3041 23.6366 8.67248 -0.622175 0.781815 0.0407949
16.6865 14.3898 18.2779 0.0412228 -0.406376 0.912776
17.1742 22.717 19.0314 -0.0689335 -0.33653 -0.939146
13.6405 20.752 16.2548 0.0303051 -0.0792919 0.996391
12.7483 21.0713 18.9901 0.0412207 -0.300248 0.95297
18.7472 20.8073 19.8734 0.786138 -0.578831 0.216658
9.28556 18.9246 15.9118 -0.746692 -0.612802 0.258696
18.8124 14.2334 13.4489 0.410036 -0.784878 0.464583
11.0996 18.5088 20.3564 -0.361137 0.907785 0.213325
13.7523 24.0168 8.34776 -0.240136 -0.0754629 0.967802
19.7616 18.2899 16.729 -0.285259 -0.437819 -0.852609
12.1321 22.8877 8.0939 -0.882186 -0.288369 0.372277
18.1876 24.1297 19.0889 0.102628 -0.0612549 -0.992832
18.0761 20.3444 12.9609 -0.366455 0.92244 -0.121719
18.94 14.3635 15.3941 -0.603056 0.736204 -0.307129
15.0167 16.5594 17.6715 0.325815 -0.745083 -0.581975
22.2747 21.844 13.521 0.879535 -0.287 -0.379538
13.4619 21.8208 9.15472 0.541511 -0.329592 0.773392
14.6603 14.6653 14.6334 0.330023 0.924265 -0.191882
16.9688 23.4249 10.7837 -0.567437 0.440399 0.695746
17.4575 12.8722 17.449 -0.124994 0.81278 0.569004
13.9728 18.6485 19.3193 -0.125361 0.803701 0.581679
13.3292 13.6689 12.2036 -0.364346 -0.805459 0.467427
20.3381 20.5409 16.6836 -0.738624 0.00436786 0.674103
12.1092 18.6859 18.9114 -0.192618 -0.725311 -0.660926
11.4659 12.3318 15.5775 0.261263 -0.299139 -0.917746
17.2625 21.6746 16.6423 0.618983 0.461945 -0.63519
21.5598 22.6705 9.65038 -0.608711 0.577377 0.544157
14.0774 14.5187 15.5529 -0.234282 -0.943686 0.233598
14.4207 23.7095 14.3303 0.301027 0.710212 -0.636381
19.1535 15.1233 18.9912 -0.402007 0.332577 -0.853102
20.8869 16.9964 20.1683 -0.686626 -0.52722 0.500583
20.9767 11.9378 19.3152 -0.221894 0.773219 -0.59405
18.02 13.188 13.2729 0.826912 -0.296167 0.478018
21.0616 14.7862 18.7462 -0.401446 0.404958 -0.821493
14.5298 18.5976 8.11078 -0.328263 0.764543 -0.554722
12.7691 11.624 13.1357 -0.0796304 0.337429 -0.937977
10.8643 20.0544 11.7963 -0.541669 0.491754 -0.681743
11.9035 22.9888 11.5965 0.135688 0.239761 0.961303
18.0231 21.9318 9.70888 0.838748 -0.411039 -0.35714
17.8639 24.48 10.7281 -0.0107811 -0.780255 -0.625369
12.9712 21.119 10.3211 -0.0506257 0.859091 -0.509312
9.7719 11.6935 11.2469 -0.604059 -0.546042 -0.580474
20.6756 19.0787 8.65409 -0.124575 -0.333347 -0.934538
15.3432 18.5406 13.0219 -0.43147 -0.423309 -0.796644
18.6049 19.6363 15.0742 -0.200015 -0.106945 -0.973939
17.8075 14.4437 17.0573 -0.841678 -0.516664 0.15696
14.5044 16.0797 12.2101 0.28392 -0.197196 0.938351
17.677 19.5367 19.8237 -0.662519 -0.555195 0.502819
22.244 14.049 18.9818 0.853711 0.0692043 0.516129
14.0151 17.4945 15.6343 0.242278 -0.888807 -0.389003
21.0163 19.212 10.8338 -0.543291 -0.105484 0.832891
19.9473 11.9203 19.7289 -0.439293 0.81865 -0.36991
14.2552 22.5194 18.8641 0.223086 -0.50455 0.834064
17.4261 12.46 13.5572 0.815796 -0.415232 0.402565
10.3323 21.408 13.9515 -0.35792 -0.687354 -0.632011
14.7784 21.1625 9.61824 0.255053 -0.399055 0.88074
14.9572 14.0149 20.3535 0.242742 0.582154 -0.775998
11.2596 17.9107 11.6128 0.497446 -0.238555 0.83405
19.6131 13.3356 20.2063 0.441341 -0.745564 0.499352
14.7978 21.0554 12.5173 0.0788463 -0.996804 -0.0128333
18.321 23.1809 20.4232 0.394834 -0.158102 0.905047
12.1683 19.3398 11.9735 0.142346 0.852705 -0.502625
11.792 21.7351 18.5096 -0.178962 0.391592 -0.902567
18.2757 16.961 10.5013 0.438271 -0.877713 0.193747
18.6363 22.759 14.1147 -0.605773 0.346244 0.716348
18.2933 22.6711 8.93466 0.851474 -0.425313 -0.306758
11.9453 16.327 17.261 0.692122 0.718104 0.0727574
15.0498 16.7274 10.9607 -0.426965 0.318781 0.846215
14.8594 15.3155 16.1705 -0.313173 0.634551 0.706589
22.5072 13.2015 18.4819 0.855723 0.167924 -0.489428
13.514 16.1302 12.5921 -0.00286331 -0.381886 -0.924205
14.1439 13.5084 18.1917 -0.323734 0.060105 0.944237
10.7942 12.6076 14.7763 -0.148913 0.725718 0.671683
10.5795 14.1593 14.8993 -0.729967 -0.0281803 -0.682901
17.733 16.4012 12.9235 -0.825587 0.555006 0.101858
11.0719 15.4765 11.6007 -0.0753313 -0.0510681 -0.99585
15.1224 24.759 12.2137 0.594629 -0.393449 -0.701152
12.5224 16.6859 12.4275 0.0131443 0.768193 0.640083
15.0339 18.4089 18.5789 -0.247108 0.722672 0.64551
11.2512 18.5006 17.8674 -0.114444 -0.992833 0.0344118
13.9431 18.2522 17.3961 0.371618 -0.284273 -0.883793
20.034 23.6135 13.4534 -0.803652 -0.139357 0.578552
11.8545 20.3221 13.7095 0.535653 0.643595 0.546682
12.9176 22.0319 16.7203 0.341845 -0.588117 0.73298
11.8514 21.7969 8.20768 0.60851 -0.163124 0.776599
21.4275 15.4908 12.4456 0.329781 0.0995811 -0.938791
17.0558 17.715 11.1376 -0.112013 -0.801692 0.587149
11.1213 19.5144 18.7838 -0.70153 -0.413514 -0.580398
19.0868 15.3798 9.65588 -0.389111 0.916 0.0976492
11.1832 20.3736 9.58341 -0.756559 0.590499 -0.280944
13.4236 17.2362 16.5193 0.218465 -0.781782 -0.584029
11.4025 19.7828 7.96414 0.681638 -0.578564 0.447922
17.2929 19.4846 12.1289 0.168185 -0.841761 -0.512984
11.0673 12.6849 13.4531 -0.577667 0.0293737 -0.815744
14.1062 18.0507 13.3317 0.394139 -0.420377 -0.817274
13.5028 15.3089 19.8669 0.973509 -0.0850879 0.212229
16.7446 12.9017 20.4233 0.369265 -0.443292 0.816784
18.3338 23.014 13.1005 0.511113 0.858728 -0.036738
15.1702 12.9509 11.3853 0.342878 -0.938085 -0.0493044
16.9146 23.8798 20.4174 0.886542 -0.0267433 0.461875
16.6196 19.6156 19.394 0.399423 0.697194 -0.5953
16.9976 17.3402 10.1727 -0.459663 0.65513 -0.599596
20.1802 21.6153 18.2988 -0.8474 -0.165216 -0.504595
19.3079 24.4972 11.5424 -0.469196 0.699907 0.538503
19.5837 19.5383 9.33626 0.178815 -0.354178 -0.917923
17.3093 15.4422 8.22725 -0.409065 0.577427 -0.706572
12.9801 24.7068 11.5648 -0.704991 -0.680474 0.199854
11.786 24.2774 11.014 -0.545794 0.795895 0.262031
10.7149 13.3977 18.6375 0.73454 0.0314671 -0.677836
11.8621 16.6173 14.193 0.406405 0.371216 0.834886
9.48833 18.0268 7.82852 0.678487 -0.42152 0.601645
9.61783 19.4389 8.93623 0.605347 0.0979195 -0.789916
18.659 18.4702 8.01637 -0.305142 -0.232256 -0.92355
18.9069 23.5061 19.0304 0.749034 0.59813 0.284936
22.0379 21.5937 11.5386 -0.878722 0.432142 0.202733
11.4558 16.5952 11.8588 0.256433 -0.54645 0.797267
13.2419 16.5615 11.2829 -0.206952 0.707167 0.676081
21.1787 11.7221 8.33482 0.76047 -0.619975 0.193174
21.4475 11.7565 9.37646 0.929716 0.368088 0.0118323
19.2725 19.245 17.0805 0.403949 0.68979 -0.600846
21.8644 12.1241 16.3906 -0.404311 -0.874644 -0.267454
14.2135 22.4131 8.24935 -0.103966 -0.0262813 0.994234
21.2264 22.5537 18.5281 -0.822037 0.113918 -0.557923
19.7987 21.3555 9.66488 -0.522948 0.481852 0.703096
15.6633 15.0381 10.7528 0.997059 0.0602812 -0.0473334
14.4327 15.0806 8.90313 0.390167 0.885224 -0.253275
12.5457 16.4449 7.32728 0.546205 -0.496146 0.674907
17.9849 16.7998 18.1921 0.127858 0.424295 0.896452
14.8211 12.6795 9.79248 0.564855 0.580225 0.586752
14.4055 20.5645 11.2844 0.0880907 -0.799407 0.594297
15.6811 22.3282 10.4373 -0.308004 0.561889 -0.767733
15.4428 18.0946 9.40549 0.658145 -0.566668 -0.495714
10.6467 19.3417 9.85594 0.481786 -0.673315 0.560829
18.2932 11.6469 13.1239 -0.19156 -0.939002 0.285623
20.9509 22.7853 16.8352 -0.785854 -0.45254 0.421475
18.2504 16.9852 13.9046 0.0746323 -0.989039 -0.127401
12.1268 13.2226 10.1899 -0.554488 -0.741607 0.377574
20.374 15.1916 19.3649 -0.534873 0.513502 -0.67099
10.1095 17.9818 11.5231 -0.472514 -0.0553449 -0.879583
21.0408 15.9584 19.0254 -0.658759 0.516854 0.546716
15.3497 22.8933 11.3564 -0.493781 -0.792858 0.35715
21.8749 20.2062 10.8848 -0.448381 0.779209 0.437935
9.2856 23.8283 7.965 -0.475568 0.81063 -0.341633
19.9792 13.2562 9.56679 -0.206318 -0.552669 -0.807459
15.8476 18.6167 10.339 -0.92642 0.0189436 0.376014
10.8702 20.2693 16.3285 -0.194106 -0.980967 0.00518134
11.0519 23.8369 12.6632 -0.534125 -0.277919 -0.798418
20.8253 12.6257 20.1221 0.541325 -0.569485 0.618591
16.0131 15.1625 16.2886 0.215176 0.88121 0.420914
19.6274 22.9255 16.8089 -0.261434 -0.880079 -0.396375
16.0384 17.5645 16.0201 0.415965 -0.900885 0.124011
17.5409 20.7971 19.2491 0.731299 -0.185902 -0.656233
20.8976 23.8888 16.6749 -0.795506 -0.396046 -0.458604
9.27514 14.7977 10.8749 0.591369 -0.681511 0.431074
9.5928 14.8741 20.4022 0.660812 0.56084 0.498785
10.0309 13.5208 20.1957 0.953481 -0.264044 -0.145449
17.8531 22.3659 10.9832 0.674101 -0.565934 -0.474665
19.339 16.0265 14.0703 -0.348882 0.385447 -0.854232
21.9786 11.859 18.8029 0.766888 0.606832 0.208895
15.781 19.7371 10.9875 0.484113 0.243077 -0.840564
13.538 12.5178 17.7811 0.110531 -0.957954 0.264778
19.2698 18.8916 15.9086 -0.832323 -0.312693 0.457669
16.335 23.2959 15.5449 -0.874366 0.32559 0.359827
22.2928 24.3631 9.68816 -0.754079 -0.630109 -0.185275
16.1675 23.7164 14.2886 0.783449 -0.601034 0.158004
14.4742 23.2948 8.81386 0.13168 0.276947 -0.95182
13.5463 15.4325 16.7976 -0.347216 -0.323853 0.880091
11.6812 24.6948 8.20592 -0.905293 0.236887 -0.352604
10.9096 17.1063 12.5514 0.78464 -0.063464 0.616694
19.02 11.8768 18.5376 0.00599535 -0.987401 -0.158124
19.8719 14.1852 12.7873 0.0547768 -0.38031 0.923236
16.0439 16.5011 17.8484 -0.212913 0.851308 0.479524
20.2497 24.1372 10.3823 -0.500399 -0.328438 -0.80108
21.0111 20.903 10.5154 -0.137706 0.82964 0.541049
13.0509 20.3673 17.7316 0.358123 0.243697 0.90131
10.0329 23.4418 14.373 0.646094 0.694572 0.316436
9.30195 12.0741 7.50787 -0.687535 0.724364 -0.0509158
18.3875 15.2364 16.1037 -0.993882 -0.0846085 0.0709921
11.9883 23.7031 16.3236 -0.568939 0.153726 -0.807884
14.3279 21.7705 13.7977 -0.294927 -0.676585 0.674723
13.747 12.6778 8.18566 -0.868439 0.0898585 -0.487585
17.7554 15.1526 13.6585 0.454243 -0.527003 0.718283
12.9298 16.2797 10.0242 0.402619 0.911064 -0.0886524
20.3688 21.0753 13.23 -0.69113 0.67416 -0.260477
14.7187 15.1365 18.2727 0.0256912 0.0605248 0.997836
9.93382 18.6935 9.83019 0.0244447 0.179387 0.983475
10.5856 11.8596 16.6761 0.498531 0.54824 0.671491
18.4421 14.0834 19.1002 -0.291044 0.907689 -0.302315
19.9834 11.9237 15.2077 -0.728435 0.267612 0.630688
12.8423 24.5216 19.7508 0.988552 -0.0402832 0.145406
17.7046 20.3491 17.8696 -0.768962 -0.541525 0.339777
18.4789 20.9079 8.73087 0.566819 0.703108 -0.429366
18.3345 18.1149 18.845 -0.128139 -0.426021 -0.895593
16.3439 23.9288 13.3352 -0.0946175 -0.995048 -0.030448
15.5718 21.9996 18.6618 0.722253 0.47844 -0.499445
13.4893 12.4265 13.2932 -0.274378 0.236468 0.932094
16.3984 16.3092 19.4055 -0.0692723 0.47507 0.877217
17.816 18.5403 17.4121 0.568113 0.626341 -0.533802
10.8358 14.5318 8.69904 -0.714611 0.552093 -0.429563
16.5929 20.7841 7.90965 -0.724949 -0.344661 0.59637
14.2636 20.2006 13.2029 -0.317365 -0.469245 -0.824068
12.6877 15.0644 18.8157 0.018517 0.999773 0.0105777
13.1279 14.4943 20.2294 -0.0909977 0.525955 0.84563
21.227 12.9275 8.01528 0.653279 -0.487659 0.579151
17.827 19.4401 7.56119 -0.868843 0.319616 0.378096
14.1878 17.169 19.3194 -0.872703 0.053447 0.485317
11.1402 23.4537 16.9714 0.46613 0.571545 0.675322
18.3452 19.2657 11.7623 -0.284593 0.89554 0.342074
22.1318 17.3803 8.18606 -0.588285 0.76489 0.262422
22.1135 15.1512 19.2386 -0.579642 -0.00528664 0.814854
15.8843 18.707 17.0176 -0.015862 0.489972 -0.871594
18.5218 11.7792 16.4516 -0.63652 0.751555 -0.173224
16.0513 16.834 15.2011 0.804759 0.442967 -0.39515
9.73228 20.0371 14.835 -0.303035 -0.951053 -0.0605624
17.9738 14.5098 11.8327 -0.179354 0.388453 -0.903845
9.33243 21.1375 14.2403 -0.301231 -0.946183 -0.118314
17.3594 22.2548 12.0669 0.817353 0.539949 0.200971
15.0709 19.5471 16.3954 0.16013 -0.0594907 0.985302
9.35499 23.431 15.5263 -0.674964 -0.678539 0.289843
10.9208 17.5126 16.3716 -0.846404 -0.52882 -0.0628514
9.82391 16.137 14.1375 -0.0588529 -0.0130405 0.998181
12.1961 12.6494 11.6934 0.09409 0.597823 0.796087
22.1984 14.4582 14.8591 0.298768 0.060697 -0.952393
10.4142 16.3006 16.7802 -0.881516 -0.467034 -0.0693402
10.4671 16.2358 11.7788 -0.0701678 0.0640907 -0.995474
13.3897 11.6504 18.8639 -0.840586 -0.226879 -0.491875
13.3492 15.3725 9.4528 0.713262 0.667684 -0.213201
16.902 15.2778 11.7145 0.161776 -0.833478 -0.528341
16.279 24.2394 18.0034 0.100538 -0.0993521 0.98996
16.8981 23.0635 12.5807 0.137346 -0.88168 0.451416
12.6708 18.2802 16.061 -0.608881 -0.422067 -0.671657
15.8187 17.0093 16.9877 0.47399 0.632633 0.612461
21.8595 16.1444 16.5913 -0.727207 -0.349389 0.590844
20.0895 20.7772 14.1779 -0.601703 0.762148 -0.238921
9.56342 15.5996 11.5241 -0.566002 0.226263 0.792747
17.2683 16.9499 19.8213 0.343988 -0.528811 -0.775907
13.9517 12.6551 16.7897 -0.124955 -0.949602 0.287476
18.9199 13.903 17.3538 -0.229584 -0.56175 0.794813
15.1711 22.3035 20.1797 0.0956948 0.351718 -0.931202
11.2004 12.9063 11.3997 -0.0398415 0.381098 -0.923676
17.5175 13.3156 19.4764 -0.0268491 0.715989 -0.697595
11.751 24.4823 14.9726 -0.418502 -0.066917 -0.905747
20.6874 23.8185 14.938 -0.757071 -0.433604 0.488703
17.5855 22.111 14.4165 -0.775002 0.161117 0.611076
15.7673 15.0127 17.7625 0.330054 0.249527 0.910385
19.9197 21.0784 7.99917 0.204546 -0.58113 -0.787685
12.2045 12.6507 9.36955 -0.142201 -0.775797 0.614751
21.7048 16.5446 19.4012 0.0152445 0.646791 -0.762515
13.4898 17.2809 12.951 0.431017 -0.360166 -0.827348
15.4126 24.145 16.7297 -0.0695366 -0.434641 0.897915
10.2552 24.3988 13.0747 0.355027 0.111126 0.928228
12.7446 13.2354 15.4885 0.389358 0.921082 -0.00303545
10.6321 22.6965 20.0665 0.924624 -0.0113474 0.380711
17.3666 19.7682 13.5323 0.449386 -0.887475 0.102179
11.8939 11.7677 18.8666 -0.792721 -0.427137 -0.434912
17.398 20.9906 9.20538 -0.508959 -0.71668 0.476792
18.3541 16.8359 20.0365 -0.414378 0.875789 0.247557
22.2476 20.4344 15.4056 -0.29886 -0.907141 0.296274
14.762 21.0635 7.9766 -0.397016 0.552174 -0.733132
16.3695 16.253 13.4051 -0.205703 0.716762 0.666287
19.6886 20.3119 13.1874 0.808257 -0.429418 0.402891
17.6763 23.8064 11.5888 -0.563498 0.826117 5.36537e-05
9.68087 21.8206 8.30528 -0.522637 0.793395 -0.312049
9.96446 12.2832 13.8277 -0.0723755 0.347881 0.934741
11.8949 17.7964 13.8279 0.540428 -0.0809661 0.837485
13.6386 20.6606 7.31635 0.012269 -0.0165897 0.999787
13.5588 16.8232 7.85261 -0.425279 0.600213 -0.677408
18.7813 14.3816 8.8748 0.286322 0.369321 -0.884094
18.4393 22.7377 16.5889 -0.371296 0.626765 0.685058
17.5883 11.6678 8.78356 0.400969 -0.740107 -0.539875
19.9413 15.4567 7.89442 -0.238198 -0.816922 -0.525262
14.8409 14.8489 11.8364 -0.880681 0.31876 0.350419
11.8907 13.8943 16.9139 0.653505 0.696845 -0.295529
14.9403 20.9127 20.1027 0.548122 0.718092 -0.428843
12.7515 17.2955 10.7446 0.608847 0.595562 0.524034
10.4435 24.2805 17.5245 0.209319 0.940816 0.266552
16.749 16.611 8.38656 0.36556 -0.71775 0.592622
11.2293 15.3534 7.98007 0.0717364 -0.263953 -0.961864
14.0427 16.9779 10.5077 -0.151069 0.29981 0.941962
21.8911 18.758 8.97361 -0.710697 -0.00593358 0.703473
22.1858 14.7435 7.90912 -0.599879 -0.286675 -0.746969
13.9229 18.9848 13.0086 0.880635 0.124779 -0.457069
16.1896 15.2171 8.11519 0.0462864 0.915993 -0.398515
14.098 19.9192 15.4987 -0.391264 -0.650463 0.651008
11.4057 24.0516 10.0991 0.0580209 -0.993845 -0.0943652
17.3839 13.6878 7.25143 0.803513 -0.555692 0.21348
16.097 14.0593 16.8814 0.752068 0.531696 -0.389478
19.9392 14.807 17.2199 -0.683203 0.656147 0.320476
14.4975 16.1114 19.1376 -0.264656 0.327693 -0.906959
20.7877 22.8106 9.03792 -0.365841 0.908161 0.20348
19.492 16.7201 10.8397 0.26537 -0.201175 0.942925
10.0052 15.0079 16.886 -0.828888 -0.459029 0.319747
18.6445 13.1679 8.97896 0.595274 -0.396173 0.699067
19.7642 21.7444 15.6879 -0.264947 0.950245 -0.163822
11.9097 17.1792 15.94 0.572981 0.223291 0.788565
21.8405 17.6607 15.1415 -0.650938 -0.758748 -0.0240922
18.8284 23.7831 14.9742 0.918794 0.0523243 -0.391254
15.5609 19.1958 9.56146 -0.854084 0.339827 0.393774
9.5846 20.7523 7.90203 -0.775134 0.561798 -0.28905
15.8841 11.7378 19.0542 0.311081 0.238049 -0.920088
9.82099 23.3686 12.34 -0.318975 -0.130268 -0.938768
20.6494 17.8102 13.8505 -0.675393 0.568072 0.470254
19.1049 19.1595 12.548 -0.211223 0.951277 -0.224627
15.2397 24.8627 18.1231 -0.329998 0.0223731 0.943717
10.7973 22.6181 17.43 0.165685 -0.488463 -0.85671
19.7271 13.2903 14.8202 0.761314 -0.611138 0.21659
21.9924 17.0404 12.493 -0.757712 0.65245 -0.0134912
12.519 19.5107 13.7812 -0.892564 -0.449114 0.0403267
12.2784 22.2014 12.7877 -0.195527 -0.0783846 -0.977561
20.8029 16.9714 9.11794 -0.0650453 0.150262 -0.986504
10.7744 21.1799 7.9894 -0.434288 0.692741 -0.575764
16.6822 21.2222 11.1512 0.347323 0.838158 -0.420545
16.4458 21.4521 18.6373 -0.412031 -0.34325 0.844044
9.75239 16.9526 19.7941 -0.0551324 -0.138929 -0.988767
14.4884 17.0713 8.45486 0.646164 -0.16489 -0.745174
11.532 24.1916 9.12414 -0.0418083 0.994774 0.0931485
19.2146 17.6793 14.1355 0.488598 0.3123 -0.814703
10.8477 23.4603 10.8476 0.526602 0.209645 0.823856
14.3814 12.8149 7.37862 0.684991 -0.728293 0.0194141
18.6935 15.3427 11.8894 0.455522 -0.520503 0.722202
11.343 18.822 16.7722 -0.716042 -0.678045 0.165948
17.2324 20.907 12.0543 0.379642 -0.567554 -0.730585
10.164 14.0802 9.35352 -0.867522 0.339428 -0.363585
10.3691 14.3242 16.2651 -0.998774 -0.0413158 -0.0272589
18.4915 23.8075 16.1921 0.734239 -0.665074 -0.136273
18.9563 12.7296 8.17401 -0.316278 -0.826449 0.465779
13.4881 21.6054 7.468 -0.364472 0.0396389 -0.93037
20.944 16.0848 15.7018 -0.850314 -0.526195 0.00922426
15.9077 21.4986 12.8093 0.276194 -0.383128 0.881436
12.8429 21.5154 15.7219 -0.0128832 0.469608 -0.882781
20.3463 18.2208 18.3774 0.973634 0.0676884 0.217844
22.048 12.0471 17.5417 0.463442 -0.515804 -0.720533
17.3089 24.4357 12.6875 -0.47621 0.871766 0.115099
22.5434 21.1466 16.448 -0.513011 -0.273907 0.813508
10.5794 23.4234 15.5421 0.0721347 0.598461 0.797898
18.9115 16.3628 18.9555 -0.724226 -0.477834 -0.497162
17.6455 17.5524 12.1841 0.643502 -0.762627 0.0656164
11.73 14.8363 14.7488 -0.3104 0.771496 -0.555379
21.9476 23.0399 11.9162 0.239295 -0.545419 -0.803279
19.8022 18.7566 19.6801 0.532974 0.395363 0.748082
16.8526 12.3775 16.3615 -0.697778 0.564609 0.44082
15.9889 13.775 18.0081 0.545149 -0.658511 -0.518822
15.1026 21.6197 16.9606 0.17551 0.086544 -0.980666
16.1227 20.1618 18.4885 -0.547224 -0.622122 0.55992
18.1752 20.3203 7.95695 0.895189 -0.136544 -0.424255
10.6912 24.0822 20.1673 0.726479 -0.628167 0.278632
19.7613 20.9118 19.3851 0.866161 -0.222035 0.447734
18.7721 20.2221 17.0864 0.384587 0.707516 -0.592886
11.8388 23.8699 18.5907 0.897358 0.181369 0.402311
19.8538 17.2741 12.617 -0.764316 -0.59604 -0.246086
11.8092 20.7684 18.1845 -0.504494 -0.258761 0.823728
14.3907 15.8159 7.68506 -0.938682 -0.233118 -0.254033
21.0677 22.2992 19.769 -0.307056 0.71141 -0.632149
20.8953 12.7336 9.69983 0.437923 0.553633 0.708317
20.6048 19.2722 16.7853 -0.286935 0.480162 -0.828923
21.104 21.076 9.33371 -0.147057 0.90568 0.397641
13.615 12.5587 15.1188 0.0622161 -0.983259 0.171263
16.01 19.797 14.7218 -0.390888 -0.670921 0.630137
15.3556 16.9076 9.16706 0.439673 -0.20977 -0.873318
17.8991 15.7633 10.1559 0.635139 -0.586744 0.502325
21.4932 16.0927 9.60658 -0.810513 -0.15287 -0.565419
15.7258 23.6465 12.4116 -0.539374 -0.837004 -0.0921978
21.5138 22.8813 7.27506 0.497459 -0.784571 0.370111
19.9817 20.9065 10.5291 -0.229648 0.715405 0.659892
15.7192 15.962 11.3833 -0.924208 -0.380985 -0.0262596
11.3737 16.6364 7.48047 0.542961 -0.49377 0.679253
18.4168 17.192 11.406 -0.48944 0.84692 -0.207785
11.51 12.6304 18.6567 -0.882496 -0.43885 -0.169148
17.9531 18.9226 10.7268 0.473114 -0.716011 -0.513315
15.6138 13.7501 8.02822 0.375941 0.740257 -0.557394
14.9914 14.2317 8.63944 -0.821785 -0.219959 -0.52563
12.1305 22.2518 9.60354 0.515799 0.39119 -0.762182
19.949 19.808 17.7159 -0.91 -0.069505 0.408741
13.1628 13.82 16.5913 -0.335443 -0.856714 0.391815
12.7134 11.7534 14.8904 0.35585 -0.718551 0.597542
14.6834 22.3363 15.1731 -0.113688 -0.130394 0.984923
13.1108 11.9719 16.1822 0.21414 0.961774 -0.17069
10.1877 15.16 14.749 0.512201 0.544132 -0.664508
21.3163 23.2086 13.5779 0.486825 0.802593 0.34474
9.37239 16.0343 19.5142 0.266226 -0.0179216 0.963744
15.7835 14.4918 14.1032 -0.849469 0.403694 -0.339754
15.4987 15.0328 13.058 -0.979408 0.0483365 -0.196019
19.8782 23.7581 8.54053 -0.250927 -0.887562 0.386354
11.8008 23.6579 19.7235 0.780723 0.080688 0.619646
18.672 21.6931 16.9009 0.592486 0.531537 0.605334
21.181 20.1384 12.6191 -0.930545 0.32452 -0.169628
17.7605 19.873 16.9228 0.301484 0.561289 -0.770754
16.8403 18.1919 15.0036 -0.938132 0.260555 0.228075
12.0676 12.6161 19.8677 -0.759318 -0.554885 -0.33991
17.6779 14.2292 15.9355 -0.951365 0.182011 -0.248547
9.8798 22.2347 18.0945 0.171553 0.738137 0.652475
14.4913 12.9419 14.3819 0.821105 -0.393429 0.413522
15.0476 23.8937 18.5807 -0.732189 -0.21079 -0.647662
17.9664 16.0295 8.99317 0.306044 -0.840807 0.446521
12.6743 20.4174 15.5339 -0.378951 0.70401 -0.600638
15.3391 11.9681 13.8524 0.838301 -0.499013 0.219631
21.086 14.2127 10.1331 -0.826766 0.0849438 -0.556095
11.7405 24.6695 7.17809 -0.877853 0.355748 -0.320651
21.4358 22.2649 10.6597 0.287939 -0.61007 -0.738177
14.0426 13.5547 11.3607 -0.102205 0.884419 -0.455366
13.3409 23.7651 14.1792 0.134453 -0.0925446 0.986589
15.4108 17.5778 13.5129 -0.582838 0.62339 0.521234
17.2879 13.452 16.5081 0.958057 -0.0534171 0.281555
13.8172 24.5017 10.8778 -0.0579847 0.774914 -0.629401
13.2351 14.4584 8.82865 0.328577 0.849983 -0.411785
10.5755 23.3895 9.13572 0.14347 0.887743 0.437412
17.0978 23.5685 18.4259 0.223076 0.327406 0.918173
20.4127 21.9428 13.8914 0.549076 -0.749843 0.369122
12.4203 15.504 17.7472 0.599754 0.753209 0.270132
19.9323 23.0401 19.0131 -0.191724 -0.575447 -0.795049
22.2814 13.1181 10.0026 -0.586331 -0.414029 -0.696274
19.1802 15.9423 16.7457 -0.93863 -0.15306 0.309107
18.5451 11.9698 15.159 -0.777531 0.488989 0.395392
21.9553 21.1854 8.53547 -0.224409 0.946394 -0.232334
12.7781 14.3829 14.6589 0.083021 0.991883 0.0963143
12.6205 22.2454 18.5203 -0.0531116 0.137849 -0.989028
13.7205 21.6413 18.9463 0.310444 -0.292797 0.904375
10.2594 24.4177 10.3596 0.506778 0.748633 0.427464
17.0698 13.2542 8.48605 -0.614466 0.246114 -0.749573
20.8987 16.1608 17.9913 -0.942439 -0.334316 0.00648024
15.7558 17.169 11.7389 0.537726 -0.171686 -0.825454
16.3455 15.3054 14.1078 0.875076 -0.394849 0.279886
18.2737 13.5668 15.1486 -0.769217 0.609714 -0.191193
22.2583 13.3558 8.79411 -0.503106 0.850726 -0.152149
22.4976 20.3123 19.6419 0.728392 0.0288531 0.684552
14.8848 24.0891 15.3266 -0.966056 -0.0402933 0.255172
10.6887 21.7789 11.117 -0.285479 -0.750953 0.59546
14.8331 14.2 17.1098 0.03152 0.0200873 0.999301
19.8385 21.9276 19.2641 -0.899431 0.392969 -0.19131
10.0584 19.8722 18.0672 0.770293 0.632745 -0.0792622
13.0521 18.1208 9.9989 -0.8694 -0.482646 -0.105812
22.3682 13.822 11.745 -0.428157 -0.510553 -0.745666
10.6441 19.4316 17.3319 0.40487 0.905611 -0.126289
18.4581 22.0176 20.0719 0.900012 -0.401355 -0.169976
17.3418 12.925 11.2902 -0.204808 -0.852477 0.480975
9.51044 20.2718 11.6741 -0.0546384 0.311947 -0.948527
16.318 12.5804 14.5935 0.485663 -0.652405 -0.581807
16.2992 22.3922 17.2751 -0.948437 -0.075566 0.307827
10.4102 24.2647 11.435 0.626501 0.566145 0.535702
10.8451 22.242 18.5783 0.123184 0.641297 0.75734
16.0107 21.1182 16.3839 0.0477324 0.456461 -0.888462
9.87992 19.8693 10.4302 -0.413365 0.320076 -0.852456
14.7187 23.7006 11.6429 -0.257731 -0.644104 0.720211
14.7066 23.0576 17.5098 -0.577521 0.205475 -0.790095
13.061 15.0302 11.6492 -0.0944742 -0.0940082 0.991079
9.62927 12.8725 11.3236 -0.867643 -0.491681 -0.073796
20.5193 16.0627 11.7413 -0.0262503 0.476896 -0.878568
15.346 20.9818 11.5341 0.296504 -0.775236 0.557759
19.3697 11.9771 13.0384 -0.423079 0.189571 0.88604
11.1341 18.0672 9.8034 -0.438634 0.650237 -0.620316
18.1942 15.6063 7.69918 -0.306137 0.34518 -0.887204
16.4886 18.9543 11.2328 0.319178 0.935525 0.151385
16.386 19.0659 7.90619 -0.63722 0.121678 -0.761015
20.1167 17.3792 10.0863 -0.0878142 0.085788 -0.992436
16.7163 23.2854 8.57451 0.945705 0.126969 -0.299202
21.2519 11.7344 15.3432 -0.720248 0.229974 0.654488
15.5175 12.8652 17.8436 0.553334 -0.619486 -0.556829
18.9073 23.9138 10.1727 -0.163783 0.690633 0.704415
16.7263 13.6382 15.3128 -0.838059 0.478618 -0.26188
22.2771 13.4862 13.0701 -0.713811 -0.65521 -0.247335
13.2201 13.0114 11.1149 0.0697195 0.508998 -0.85794
19.1621 14.9058 14.3846 -0.714197 0.699834 -0.0124453
20.1798 18.1793 15.4697 -0.791145 0.0772546 -0.606729
19.9453 12.2035 18.1832 -0.0318809 -0.751837 -0.658577
16.5956 13.052 12.2001 0.761159 -0.537314 0.363224
14.5179 16.8633 16.6509 0.0962597 0.635092 0.766415
14.5163 24.5916 8.64518 -0.410762 0.575488 -0.707169
12.6453 13.729 7.64993 -0.791722 -0.177832 -0.584424
19.7064 15.0476 13.4599 0.922018 -0.386699 0.0186471
12.6979 23.1251 19.0516 0.104566 0.176208 -0.978783
19.8672 22.7674 11.728 -0.537762 0.830815 0.143384
11.08 24.6549 15.841 0.457616 -0.25378 0.852164
21.6376 19.7546 16.4935 0.153505 0.960964 -0.230184
13.4411 16.7715 18.8022 -0.0970202 0.960769 -0.259826
12.5781 23.4735 9.10097 -0.342258 -0.290926 0.893433
15.6121 21.0884 18.2705 0.419689 0.402485 -0.813552
14.6013 21.2741 15.6271 0.207983 0.179457 -0.961529
17.3324 18.3404 13.0588 0.428366 -0.896035 0.116726
21.9983 17.8946 17.1065 -0.266637 -0.939277 0.216016
17.0565 20.1812 20.3356 -0.946761 -0.318037 -0.0499591
11.3439 11.7293 13.2144 -0.717084 0.0498921 -0.695198
21.2562 12.194 11.92 -0.747019 -0.654018 -0.119263
17.4894 20.1187 15.6278 -0.644136 -0.349248 0.680525
15.9686 12.2665 12.2837 -0.353966 0.780905 0.51468
10.4916 14.0206 17.3866 -0.846532 -0.282782 -0.451018
12.2734 12.6835 13.1974 0.537309 0.545216 0.643458
9.43451 12.2534 10.4282 -0.954672 -0.218811 -0.201802
11.1053 18.7426 12.3186 0.43769 -0.0894443 0.894666
9.84453 21.5545 10.5659 0.241815 -0.742118 -0.625129
17.2254 14.3583 8.23509 -0.526138 0.469549 -0.709015
14.2714 18.3059 14.8248 -0.277527 0.957354 0.0803236
20.0638 18.2495 11.2947 -0.518402 -0.273546 0.810205
13.1365 19.9125 12.0627 0.338945 0.564041 -0.752977
16.3754 13.0584 11.1006 -0.10454 -0.989368 0.101104
13.0304 18.2124 12.6867 -0.762644 0.252832 0.595358
14.928 20.0335 18.5356 -0.506567 -0.132687 0.85193
17.2419 20.9012 14.3595 0.379333 0.528481 -0.759483
22.0453 11.9006 19.8867 -0.572496 0.776725 -0.262575
14.3239 12.9724 12.743 0.651747 -0.530328 -0.542198
20.1528 16.687 15.7087 0.735824 0.676365 0.033065
10.2842 15.5568 18.623 0.014209 0.63803 0.76988
12.1401 18.1401 17.1898 0.46611 0.866258 -0.17983
20.7823 13.351 8.78581 -0.686987 -0.21736 -0.6934
16.7393 19.8095 8.90035 -0.951028 0.118755 0.285381
18.5851 14.9721 20.0021 -0.474097 0.636456 -0.608404
19.0518 22.1979 11.929 -0.0778828 -0.540754 -0.837567
17.3206 11.9611 14.8036 0.406384 -0.630519 -0.661285
17.8211 17.2716 16.7 -0.319494 0.046038 0.946469
21.503 13.573 15.4234 0.319988 -0.508063 -0.799675
10.5176 21.1223 18.5993 -0.628681 -0.152175 -0.762629
19.5287 13.316 11.2541 0.415399 0.907424 -0.0634408
14.6338 14.0122 10.3573 -0.862087 0.0195326 -0.506384
9.80352 22.5292 13.1064 -0.658216 -0.185892 -0.729518
12.2593 20.0498 8.8878 -0.328955 0.767201 -0.550629
14.7661 13.465 9.1567 0.904748 0.0492376 0.423092
12.4675 16.2259 15.435 -0.252155 -0.433651 -0.865081
9.50677 24.5159 17.7736 -0.200935 -0.814248 -0.544633
19.6728 16.5255 17.5189 0.933106 0.295382 -0.205091
19.2191 14.1556 18.4358 0.315541 -0.633294 0.706663
16.9053 24.093 16.0376 0.679389 0.405403 -0.61162
18.193 11.9052 7.76124 0.353183 -0.899555 -0.257028
12.4493 13.0627 17.8006 -0.651264 -0.40738 -0.640231
17.4373 17.8496 19.2296 -0.24514 -0.591844 -0.767872
21.6519 24.1527 11.8518 -0.68628 0.379365 0.620566
10.5692 13.991 13.0484 -0.543221 -0.837866 0.0537655
22.4061 23.2499 20.3559 -0.507077 0.819827 -0.266001
9.5467 22.7322 9.13869 -0.536985 0.834385 -0.124293
16.8608 16.0801 10.6292 -0.701745 0.48965 -0.517491
19.1588 24.4358 13.8775 -0.757501 -0.0333083 0.651983
18.683 22.675 10.0182 -0.584223 0.543847 0.602423
15.9038 15.9084 8.99652 -0.595265 -0.611306 -0.521502
20.7041 11.7694 16.8338 0.705373 0.666963 0.240018
12.1823 19.1729 7.37002 0.66726 -0.171105 0.724905
11.6823 13.8791 11.3238 0.648985 -0.705347 -0.285139
13.234 21.7793 13.9431 -0.0306586 -0.674992 0.737188
20.4138 22.5219 10.657 0.0205012 -0.872891 -0.487484
22.4752 24.0206 14.5629 0.737103 0.669536 -0.0916578
20.0335 19.742 10.9946 0.219494 -0.353277 -0.909405
10.2691 19.8669 19.4118 -0.79728 -0.0326246 -0.602728
18.3364 20.8902 10.9229 -0.089559 0.120325 -0.988686
12.0171 16.0483 10.9102 0.257492 0.800272 0.541538
14.5341 18.9615 17.9261 -0.424651 0.371806 0.825489
13.4039 22.8955 9.3031 0.0547384 0.21242 -0.975644
21.4861 24.5694 10.6765 -0.425235 -0.407011 -0.808404
18.2898 16.4338 14.959 -0.610124 0.753579 -0.244679
17.5213 19.2228 9.64263 0.966162 -0.234076 -0.108345
20.5137 15.2789 14.5223 0.040911 -0.939014 -0.341436
10.6425 22.4079 9.74501 -0.80924 0.11514 0.576085
21.2265 18.077 7.33493 0.114803 -0.908048 0.402827
16.3565 17.8722 12.6 0.11865 -0.936793 -0.329152
20.3881 20.8741 11.6182 -0.432273 0.670172 0.603332
12.2015 12.5161 16.459 0.0394966 0.967096 -0.251326
20.2259 19.0856 18.8468 0.809398 0.0249399 0.586731
15.2605 24.1275 13.1064 0.461615 0.886707 -0.025737
21.0519 19.712 15.4606 0.154592 -0.859928 0.486442
12.2479 20.4206 12.4497 -0.144672 -0.878879 0.454578
21.2538 16.8829 11.5134 0.193897 -0.50585 0.840547
20.0321 12.9951 13.6951 0.761814 0.0904625 0.641448
17.8734 22.2537 17.6524 -0.0530236 -0.924791 -0.376763
12.6905 17.5706 19.2071 0.259882 0.959006 -0.113001
22.2732 23.1232 13.3093 0.552036 0.727054 0.408226
14.1336 14.3136 19.5 -0.150827 -0.103684 0.983108
12.11 20.0662 10.6136 0.1639 -0.92521 0.342234
19.8925 13.2586 12.1314 0.733966 0.651522 -0.191867
9.29068 15.6027 17.5928 0.987527 0.121465 -0.100184
14.6878 24.7899 14.6982 0.971139 0.232801 0.0518902
13.5526 19.6784 9.1624 0.54886 -0.456251 0.70042
16.1499 14.6598 19.587 0.376861 0.791977 0.480363
12.176 14.3286 12.6189 0.877091 -0.326588 0.35221
14.1592 20.0115 17.5869 0.205723 0.00449223 -0.9786
13.9289 24.649 13.5015 0.45356 -0.516018 -0.726643
16.1818 14.3309 10.1059 -0.945064 -0.0898605 -0.314291
12.8086 16.8401 8.5579 -0.652445 0.27647 -0.705606
17.2123 15.5304 19.091 -0.0727299 0.49103 0.868102
10.6371 13.4272 14.117 0.915771 0.198491 0.349236
16.4001 22.2025 16.1206 0.821788 -0.158235 -0.54738
10.9195 18.6923 8.13572 0.924594 -0.142929 0.353124
20.3071 21.7444 16.5118 -0.751157 -0.435162 0.496384
18.9217 19.5533 8.34572 -0.34487 0.270799 0.898739
16.9464 21.8577 20.2389 -0.114026 0.0664835 0.991251
21.7329 18.8623 17.7279 -0.00182792 -0.94416 0.329483
11.2205 23.7643 8.10063 -0.94658 -0.0472915 0.318984
19.6302 22.723 20.0485 0.888545 -0.102765 0.447132
22.3392 14.2316 9.83331 0.852081 -0.0421371 0.521711
11.0005 16.412 15.8925 0.871623 -0.208084 0.443818
14.4989 15.8964 10.2099 0.423955 0.280602 -0.861118
22.2912 18.7696 13.1676 -0.757416 -0.641054 -0.123981
17.4719 22.6513 7.78141 -0.859019 0.439498 -0.262541
20.0448 24.0014 12.267 -0.853742 0.419801 0.308045
17.2404 24.7936 19.195 -0.781502 -0.152305 0.605027
15.4164 16.2787 18.8392 0.0830708 0.527228 0.845653
12.6917 24.6939 17.4185 -0.374076 -0.855277 0.358565
15.3452 18.1523 7.32383 -0.343469 0.938714 0.0290517
12.9876 19.5608 10.16 0.0793414 0.852707 -0.516329
15.7097 12.4573 9.22494 0.391226 0.839829 -0.376337
20.556 22.8374 12.4922 -0.895193 0.377562 0.236805
20.1692 22.8395 14.5796 -0.96156 0.0819996 0.262066
17.7206 13.9515 14.0336 0.797324 -0.537416 0.274699
16.9669 24.6947 7.83876 0.100417 0.560624 -0.821959
21.1725 13.0236 16.4494 -0.346736 0.412727 0.842277
14.847 24.4889 7.56065 0.522697 -0.476037 0.707232
12.6749 24.3393 9.72629 -0.25491 0.705412 -0.661373
14.3156 18.8546 11.7825 0.906697 -0.048421 -0.418993
11.279 13.0982 9.12099 0.21132 0.379214 -0.900856
9.67863 13.0679 7.76458 -0.692026 0.698606 0.181798
19.8887 11.9408 10.978 0.414027 0.519163 0.747698
15.8068 15.256 15.1181 0.795886 -0.595913 -0.10702
13.7605 21.83 15.6077 0.017125 0.193025 -0.981044
12.8716 15.1454 15.6322 0.562402 0.792916 -0.234497
20.0273 16.3301 9.72099 -0.381911 0.426271 -0.820022
20.6351 13.0186 12.9496 0.227501 0.84927 0.476429
21.3853 13.8377 14.2595 0.0955978 -0.792694 -0.602078
13.7809 16.3757 20.0924 -0.939339 -0.163828 -0.301334
10.4943 15.3354 15.7732 -0.920529 0.381609 0.0836716
11.0466 12.3943 8.47546 0.996063 -0.0845597 0.0266251
9.85777 18.6878 14.0368 -0.59409 -0.710312 -0.377511
14.624 24.1755 19.412 -0.708156 0.0817146 -0.701312
16.9141 15.4544 15.4523 0.74126 -0.598535 -0.303792
15.4733 20.7813 14.194 0.0466704 0.193125 0.980064
20.8399 21.9699 15.0474 -0.64776 -0.756957 -0.086163
16.2916 12.2764 8.33776 0.425587 -0.638686 0.641059
11.1951 16.0427 14.9897 0.648447 -0.481307 0.589796
10.099 18.3848 20.3016 -0.31025 0.880782 -0.357726
19.1193 17.3223 18.4508 -0.504603 -0.245547 -0.827697
11.3809 21.1712 11.9973 0.154855 0.693152 -0.703961
15.7185 13.1614 14.0285 -0.379103 0.728949 0.570012
10.4815 17.2619 18.6468 -0.22142 0.50149 -0.83635
19.9549 22.5608 8.08779 0.585866 -0.731095 0.349657
9.60745 17.8392 19.1766 -0.934061 -0.00665753 -0.357052
10.7076 16.3419 18.0943 -0.999705 0.0242075 -0.00192274
14.6153 13.1253 15.5937 -0.541336 -0.775645 0.324547
14.7881 15.0168 9.80535 -0.915067 -0.0973922 0.391367
11.0352 14.4572 10.5249 0.676259 -0.314367 -0.666218
10.3047 19.5473 12.5559 -0.335237 -0.694786 -0.636308
13.7939 22.0499 12.7166 -0.0680874 0.851791 -0.519438
17.3202 16.7533 15.5887 -0.440331 0.883052 0.16226
14.5399 24.6716 10.112 -0.440399 -0.807916 -0.391562
11.9475 15.2666 16.5808 0.824597 0.466824 -0.319554
14.3439 17.8988 10.3663 0.22616 -0.204563 -0.952368
20.9637 17.7664 17.3958 0.168281 -0.667016 0.72579
11.4 19.2883 9.08389 0.682708 -0.681399 0.263827
21.7877 19.6182 20.0365 0.682995 -0.569375 0.457525
9.87231 20.3257 16.0051 0.591785 0.631489 -0.501012
14.8926 23.1136 16.2751 0.789905 -0.0335417 0.612311
12.9591 23.3679 12.0839 -0.163732 -0.351422 0.921789
16.1646 20.2708 13.0129 0.15505 0.624672 -0.765339
17.1806 15.8413 17.7783 -0.0907757 0.638942 0.76388
19.7266 13.8907 8.37602 -0.424576 -0.194286 0.884301
11.2029 19.4621 10.9297 -0.429242 0.770585 -0.471115
10.2396 22.1621 15.3241 -0.756785 0.537984 -0.371281
14.0838 12.8681 10.3475 0.403605 -0.451404 0.795825
21.1792 12.2111 13.8877 0.0257286 0.303316 0.952543
14.3233 16.9702 13.4922 0.354147 -0.120942 -0.927336
13.8054 14.4412 17.5771 0.36343 0.259724 -0.894685
12.4311 14.1319 17.8916 -0.60542 -0.408867 0.682857
11.6492 21.9222 15.0164 -0.684615 -0.682089 -0.257017
18.1948 11.6805 17.5353 0.101284 0.868732 0.484815
12.2084 15.4259 7.74798 -0.190196 0.304097 -0.933462
10.2885 17.5266 10.1553 0.258692 -0.24372 0.934708
16.1606 23.2376 18.7148 -0.283308 0.0230382 -0.958752
9.34351 21.7271 20.199 -0.675415 0.661885 -0.325151
13.9517 12.6242 18.7514 0.888423 -0.178663 -0.422829
17.1274 24.2924 17.0413 -0.307473 0.946686 0.0961561
19.0828 17.532 8.40922 -0.172263 -0.171145 -0.97007
13.1905 22.7666 14.8211 0.142434 -0.153971 0.977755
19.1652 20.3737 14.3572 0.0692216 0.767542 0.63725
18.7816 22.2095 18.2162 -0.308231 -0.951131 -0.0185503
9.32759 17.8542 17.9454 -0.258534 -0.89813 0.355701
21.1413 15.2805 10.1174 -0.00435568 0.360205 0.932863
18.3446 20.6423 13.8944 0.613617 0.62364 -0.484301
20.7069 15.1751 16.3854 0.43825 -0.517776 -0.734741
21.2754 23.6455 19.3831 -0.810762 0.579686 -0.0814219
11.1997 20.4897 15.3337 0.639262 0.723375 0.260908
14.1716 19.5478 14.1129 0.461317 -0.759158 -0.459201
9.96662 21.8516 19.3482 0.762883 -0.0929991 0.639813
18.2656 24.4313 12.1963 0.419507 -0.905805 0.059424
18.0705 14.5653 18.0145 -0.0166146 -0.959991 0.279536
11.4803 15.4003 18.4057 0.500963 0.386845 0.774201
17.8321 14.257 19.8391 0.759611 -0.46941 0.450162
13.218 15.1102 13.7468 0.439986 -0.807222 -0.393454
16.1439 24.5529 9.64093 0.460024 0.877577 0.135042
9.88963 16.763 9.43579 0.0173823 0.195246 -0.9806
13.5648 16.8932 17.5001 0.503883 0.728647 0.46387
18.4778 12.2289 9.84393 -0.372445 0.195165 -0.907301
16.3442 24.882 15.6655 0.262813 -0.134603 -0.955412
11.5442 21.3728 13.6786 -0.707564 -0.404773 -0.579233
20.9656 12.2497 10.7234 0.48841 0.628504 0.605341
13.887 22.9494 11.0289 0.224833 -0.674536 0.703173
20.2477 19.9396 8.23531 0.276337 0.193056 0.941471
21.4528 13.7616 12.3915 -0.487944 -0.7551 -0.437875
19.6111 17.1039 16.6644 -0.917325 -0.351298 0.187361
12.7175 19.9268 18.89 -0.830812 -0.100699 -0.547367
21.6495 19.7904 14.6008 -0.282757 0.792403 -0.540506
10.9878 17.8378 15.3343 -0.590354 -0.677805 -0.43825
11.9618 19.8366 14.6462 0.856991 0.510475 -0.0705762
14.9941 12.8131 16.8989 -0.403745 -0.531829 0.744411
14.7453 14.8903 7.62996 -0.932494 -0.242425 0.267742
14.2317 18.6317 9.10311 0.666374 0.730435 -0.149698
14.1334 22.2209 17.3295 -0.222922 0.335549 -0.915267
19.0069 23.189 11.0519 -0.492693 0.831512 0.256595
21.7788 13.2553 17.7489 0.907375 -0.0472986 -0.417652
20.7834 13.8333 19.9143 0.83833 -0.343664 0.4232
17.303 13.567 10.0019 0.506326 0.765783 -0.396498
12.3929 21.8016 10.8887 0.209461 0.840062 -0.500421
20.4711 23.4522 7.72315 0.577105 -0.679881 0.452451
15.8703 12.1086 10.4059 0.237087 0.90672 -0.348781
20.7438 18.0067 9.09877 0.0742108 -0.0217629 0.997005
15.0581 20.5784 16.6202 -0.167781 0.136278 0.976359
22.3896 15.8591 8.28206 0.155445 0.299647 0.941302
21.7744 23.4354 10.6299 -0.748746 0.302696 0.589707
14.6682 13.271 19.4119 0.437326 0.834591 -0.334968
20.071 17.2198 14.7911 0.799817 0.583465 0.140929
14.3888 23.2076 20.029 -0.413902 0.0424538 0.909331
10.4813 13.4865 8.21973 0.54101 0.168114 -0.824042
14.6164 11.7169 16.3584 -0.849375 -0.425446 -0.312342
21.6383 21.605 15.66 -0.821706 -0.568228 -0.0437801
11.4921 22.4147 13.987 0.719536 0.412284 0.558829
18.543 18.2144 15.2878 -0.159504 0.511428 -0.844393
16.5324 22.9213 9.66294 0.532322 -0.579288 -0.617299
22.5358 12.8407 19.8675 0.703234 -0.655822 0.274518
17.4949 23.064 16.0413 0.898384 0.0186745 -0.438813
20.3338 14.1509 18.7011 -0.517686 0.800482 -0.302042
17.1117 23.9855 9.71276 -0.623647 0.1302 0.770787
10.3178 14.2491 12.114 0.152023 -0.988361 0.00553623
15.3991 23.2734 7.24758 0.109755 0.0594165 -0.992181
18.1519 17.8778 8.68184 0.380557 0.404423 0.831636
17.0335 18.0896 8.74885 -0.585588 -0.0918676 -0.805386
13.7559 20.983 12.2732 0.510548 0.597275 -0.61855
12.9135 14.1365 10.9667 -0.368996 -0.308177 0.876852
22.0113 17.6912 11.0632 0.533298 -0.421808 0.73326
15.3851 19.9762 19.7751 0.804143 0.464779 -0.370587
10.2692 15.8585 9.11302 0.257382 0.00541202 0.966295
16.8285 20.3488 16.9554 0.55052 0.48285 -0.681017
22.1436 12.2593 13.2341 -0.263111 -0.47576 -0.839301
12.2503 18.905 15.2317 -0.355261 -0.328939 -0.874979
12.2972 14.7042 13.5697 -0.629254 0.754546 -0.186278
10.8513 18.1957 13.9828 0.386247 0.452858 0.803575
21.3673 18.3451 19.4724 -0.928505 -0.362951 -0.0783925
20.2264 14.3005 15.1654 0.590993 -0.778137 -0.212673
20.8327 24.3828 13.6793 -0.709536 0.0319212 0.703946
22.4306 24.4494 15.8413 -0.252203 -0.552984 0.794105
21.9038 18.6263 14.1939 0.539415 0.818094 -0.199381
22.2909 17.1962 10.2096 0.660835 -0.151351 0.735112
16.6539 15.3697 9.88092 -0.922542 0.360023 0.138923
20.9776 16.5132 13.1221 0.494966 -0.254777 0.830721
10.9904 16.759 9.97655 0.228949 -0.45177 0.862256
14.3255 19.3659 10.8173 0.718958 0.684455 -0.120912
22.199 16.0683 13.4177 0.0549246 -0.99699 0.0547161
21.0818 20.5116 17.888 -0.755278 0.577945 -0.309086
11.8262 17.7521 8.93529 0.96162 -0.188771 0.199128
20.8765 14.1774 8.31376 0.731554 -0.354822 -0.582177
19.1967 13.3036 16.4574 0.823664 0.302583 0.479604
21.9931 20.6075 9.97642 0.185317 0.780086 0.597598
22.406 18.2425 11.9507 0.112361 0.437507 -0.892168
15.919 12.8956 18.8383 0.84002 0.470507 -0.270166
13.2102 19.7204 7.44793 0.45981 -0.36281 0.81052
22.1213 16.4411 11.1564 0.77908 0.133487 0.612549
12.043 20.2954 7.18071 -0.387475 0.401749 -0.829736
22.5307 19.6774 7.89592 0.798757 0.00652119 -0.601619
19.2641 19.1116 11.0561 -0.421689 0.169208 -0.890813
10.3369 14.3345 7.39765 0.564057 0.242309 -0.789383
9.93945 15.2873 12.9741 -0.880757 -0.215512 -0.421689
18.3102 18.3845 12.4258 -0.517447 0.801297 0.300287
17.9552 14.5722 7.55348 0.629538 -0.625582 0.460792
12.8698 11.851 8.08034 -0.720188 0.280119 -0.634715
18.0364 12.1332 19.599 -0.279885 -0.646566 0.709659
10.8731 14.5545 13.9303 0.923642 -0.352798 0.149733
19.0208 24.0464 17.5178 0.151351 0.987726 0.0385991
10.6904 22.7181 11.6599 0.661978 -0.200646 0.722168
14.4552 14.0423 12.4986 -0.719139 0.651264 0.242268
13.3307 12.1761 9.31116 -0.188036 0.868667 -0.458324
13.0418 22.2266 11.7619 0.0669163 -0.655979 0.751807
15.9931 18.3699 19.0824 -0.596204 0.499706 0.628359
11.09 18.0304 18.9473 0.741739 -0.367108 0.561298
13.3638 19.3821 17.808 -0.0649606 -0.17523 0.982382
19.775 19.9031 19.3086 0.793683 -0.190306 0.577798
22.4752 15.3893 9.60526 -0.601338 -0.435068 -0.670156
21.8281 20.9851 19.9712 0.0471276 0.563277 -0.824923
17.2517 17.0323 13.8977 -0.118737 -0.988798 -0.0904388
