14.5577 15.3753 7.15118 -0.780587 -0.523491 0.341527
12.0072 17.696 13.4475 -0.679241 0.301346 0.669195
12.0183 14.0753 14.2131 0.0959141 -0.165225 0.981581
12.0301 21.6383 14.2544 0.226342 -0.935258 0.272142
17.7757 14.2371 17.1959 0.980384 -0.197086 0.00191536
18.6528 23.635 16.4668 0.0685562 0.759868 0.646452
21.3895 21.8467 19.4101 0.155121 -0.716561 0.680058
11.1155 22.987 14.3273 0.447079 -0.612473 0.651918
13.9416 14.5076 17.6165 0.506041 0.329198 0.797215
16.761 17.6617 15.9402 -0.116581 -0.328064 0.937434
11.549 22.2179 10.3463 -0.435037 -0.154855 0.886997
19.5224 22.4472 19.3599 -0.653751 -0.667673 -0.356123
13.6031 22.6934 11.9887 -0.259524 -0.965735 -0.00176156
19.0029 23.411 18.4974 -0.661973 -0.191094 -0.724758
19.2833 22.7161 11.0817 -0.764375 -0.0824782 0.639475
18.1275 26.0696 9.38645 -0.114929 0.936292 -0.331886
19.747 21.57 18.5598 0.701173 0.644004 0.305967
13.3483 23.3568 8.49564 -0.722163 -0.334463 0.605488
13.4316 21.3147 13.8883 0.552089 -0.755121 -0.353541
20.1637 18.6875 11.4387 -0.623617 -0.551757 0.553775
15.6005 17.1535 11.8196 -0.415314 -0.751546 0.512536
16.8965 13.6972 17.8306 0.646715 -0.00704422 0.762699
15.0867 20.6225 7.95459 -0.787288 -0.263022 0.557671
13.5063 14.8963 9.84032 -0.281081 -0.601092 0.748119
18.6755 17.3825 18.8964 0.991458 -0.124709 0.0381813
18.4094 22.3173 17.8823 0.339741 0.297845 0.892113
22.9711 22.9195 19.77 -0.0168711 0.521912 0.852832
20.9948 21.4708 18.2307 -0.751769 -0.657996 -0.0434089
18.3871 23.7348 10.7061 0.975193 -0.217931 -0.0387941
20.0932 22.3118 13.9314 -0.316917 0.948447 0.00348232
10.8969 20.4064 7.95113 0.759891 0.500356 0.414981
13.1142 19.2429 7.90277 0.576261 0.345932 0.740442
22.8392 13.9234 10.4634 0.844221 -0.269018 0.463594
13.5149 22.0357 8.58753 0.729626 -0.291439 -0.618636
22.8353 14.0032 7.31705 0.449881 0.259474 -0.854565
19.4442 20.9582 14.4907 0.0421916 0.715577 -0.697258
18.3877 17.1091 9.48172 0.58041 0.483607 -0.655171
13.0541 21.0973 14.8127 -0.340687 0.889064 0.305772
11.6115 13.9027 12.3131 -0.758035 -0.395866 0.518336
16.0919 14.943 10.4042 -0.0388074 0.996521 -0.0737502
21.1929 25.1595 14.343 -0.400321 -0.115493 0.909068
13.7836 18.6334 8.65845 -0.458109 -0.58341 -0.670648
21.7371 22.4486 14.0127 0.102905 0.829874 -0.548379
15.2636 25.6937 7.09163 -0.266502 -0.340624 -0.901639
20.2411 25.0551 17.939 -0.814564 -0.329938 -0.477103
23.2341 17.0291 19.1657 -0.115785 -0.0115661 -0.993207
21.4924 13.7016 19.2085 -0.649878 0.410579 0.639596
18.8138 14.1208 16.2777 -0.747612 -0.504751 -0.431628
15.1335 19.3043 7.74736 -0.388924 -0.66321 -0.639446
18.8388 16.199 14.441 0.578824 0.22285 0.784411
19.3365 13.5365 14.5932 -0.722213 -0.416244 -0.552403
18.0153 20.8559 17.7485 0.534754 0.676288 0.506629
19.8483 24.7549 9.33618 -0.80957 0.416239 0.413934
22.4552 22.9513 17.7375 0.146578 -0.959958 0.238737
12.4239 21.6846 10.2498 -0.287989 0.0875702 0.953621
12.1699 26.493 7.24746 0.29194 0.660731 -0.691525
14.7468 16.8283 16.5144 0.201074 0.289812 0.935723
17.3646 18.4892 9.62393 -0.294003 -0.609343 0.736385
13.7425 19.8015 9.88194 -0.561967 -0.536669 0.629428
11.1684 22.457 19.9285 -0.463719 0.287068 -0.838187
15.1216 18.8125 8.6783 -0.684241 -0.35883 -0.634867
20.4796 16.5487 8.96516 -0.0575286 -0.00490158 -0.998332
10.9392 18.5499 17.8567 0.720794 0.064443 0.690147
17.577 17.0784 15.1398 0.23452 0.0124501 -0.972032
11.4639 25.6067 12.535 -0.863812 0.227574 0.449487
14.3271 22.0866 18.904 -0.156213 -0.592622 -0.790188
16.0515 23.5365 10.144 -0.638617 -0.722063 -0.26607
21.2306 15.1206 14.9049 0.884773 0.163294 0.436477
19.1859 25.8615 10.7958 0.0565487 -0.997499 0.0423947
11.2978 21.2446 16.7039 -0.476844 -0.8522 -0.215348
22.7805 24.6534 10.1419 0.932867 -0.358792 -0.032071
21.2035 16.9239 13.1857 -0.355234 -0.767657 -0.533395
15.8315 17.6856 12.642 0.422998 0.760498 -0.492661
23.6238 19.0862 8.67654 0.189465 0.283028 -0.940212
17.1961 15.1581 14.4096 0.723871 -0.191796 0.66274
16.3967 23.474 17.2877 0.598042 -0.467778 -0.650792
22.8856 20.9737 12.204 -0.782876 0.0916902 0.615384
19.7581 21.4817 19.7097 0.817075 0.575869 0.0276402
20.8392 17.1664 19.2059 -0.505925 0.495439 0.706102
15.3468 13.5383 17.2475 0.101534 0.0752265 0.991984
21.3743 21.8222 15.348 -0.774412 0.586894 -0.236309
11.3897 17.6549 11.4537 0.658162 -0.748709 0.079104
15.2946 20.8183 10.355 -0.542656 -0.425453 0.724234
19.5836 23.8498 15.8601 -0.813775 -0.0984551 -0.57278
21.035 15.9214 7.61344 -0.140509 -0.142705 -0.979741
14.2777 15.7054 18.7266 -0.777253 -0.43179 -0.457641
13.4596 20.8711 18.005 0.128669 0.401117 0.906945
11.6954 16.7398 13.3323 0.959069 -0.203514 -0.196898
18.5516 17.8688 10.9233 0.665537 0.721078 0.192633
22.788 15.8781 11.096 0.537077 -0.582796 0.609834
12.7757 23.9579 17.4601 -0.13787 0.821266 0.553638
11.7037 24.5869 9.0629 0.437757 0.583689 -0.683868
15.7936 24.6401 7.39047 0.954481 -0.298121 -0.00945657
12.2566 25.3272 10.5709 -0.241584 -0.418783 0.875362
15.1591 25.2127 14.7368 -0.713014 -0.0154099 -0.70098
12.1557 25.252 17.3711 -0.105681 -0.605835 -0.78854
17.4725 21.7316 11.62 -0.618857 -0.661107 0.424209
14.065 17.1666 12.1074 -0.823696 -0.490608 0.284303
13.4724 16.1951 19.0152 0.707726 0.705081 -0.0445538
20.4872 16.8516 12.2048 0.525931 0.770288 0.360629
20.399 18.0779 13.066 0.437597 0.375469 0.817026
16.8238 15.1562 10.9992 -0.531256 -0.718328 0.449191
21.0741 17.1947 16.4464 0.597699 -0.0258008 -0.801305
21.6782 21.7254 16.4549 -0.872178 0.476812 -0.109343
18.9268 15.2954 14.974 -0.735789 0.0093114 -0.677147
22.5359 24.8551 8.60008 0.102552 -0.567297 0.817103
13.3022 17.1897 18.4673 0.752201 0.597777 0.27723
14.0364 18.3988 18.0802 -0.51159 -0.731348 -0.451006
22.4069 25.4824 18.073 0.964371 -0.165379 0.206488
13.8848 16.5043 7.86633 0.485266 -0.547104 0.682052
19.7888 13.4799 16.9703 -0.955929 -0.111956 -0.271413
12.8812 23.9997 19.8434 -0.95941 -0.204957 0.193714
18.2567 14.1955 18.3484 -0.650778 0.501547 0.570034
19.754 20.7686 10.8822 0.733784 0.679369 -0.00431912
11.2086 14.5662 11.3426 0.355886 -0.932834 -0.0562747
13.909 25.5551 13.1265 0.574591 -0.235515 -0.783822
15.8535 15.5681 7.37111 -0.430507 -0.89845 0.0863216
22.0336 17.9887 8.1083 -0.554979 -0.301838 0.775172
23.1356 19.9894 12.9269 0.316419 -0.892657 -0.321001
14.3621 14.9417 15.1514 -0.775658 -0.524591 0.350939
20.8991 18.3288 12.1181 -0.468048 -0.636288 -0.613244
17.1235 14.1535 12.5046 0.971651 0.217173 0.0934408
13.1973 25.5888 8.62053 0.647052 0.459663 -0.608304
21.5979 18.0285 16.6085 0.0831175 -0.511499 0.855255
17.5963 23.8937 18.9859 0.285701 -0.199087 -0.937411
15.7133 15.8419 17.5508 0.512614 -0.801949 -0.306764
22.6837 16.665 13.7826 -0.445554 0.865525 -0.228798
10.9981 14.0491 17.6393 0.654303 0.745352 -0.12782
16.2281 17.8409 10.3288 -0.00293669 0.723999 -0.689795
10.8476 15.2261 17.658 -0.205598 0.0648787 -0.976484
12.4213 14.9922 12.3485 0.748363 0.117622 -0.652777
22.1198 21.105 13.7636 0.25878 -0.86306 0.433775
13.8792 20.6684 10.4205 0.714686 0.36743 -0.595163
20.3054 17.8828 14.4419 0.633277 0.44255 0.634909
21.2408 14.3471 17.0772 0.847643 0.0582177 0.527364
10.9095 20.3732 12.5255 -0.372442 0.783047 0.498121
14.9904 24.6849 10.9925 -0.194404 -0.977669 -0.0798188
16.9694 14.1678 15.9151 -0.742872 0.351939 -0.569456
16.7246 18.8671 10.5465 -0.0571811 -0.42337 0.904151
19.7157 17.4981 9.61986 -0.903611 0.120989 0.410912
19.9926 21.7978 15.7969 0.900091 -0.423406 0.102775
22.697 21.3788 8.45348 0.21247 0.725742 -0.654336
17.9956 15.4473 18.4623 0.931452 -0.309877 -0.190718
12.0492 20.6236 16.029 -0.257736 -0.561856 -0.786059
19.6317 18.7082 13.4283 -0.466679 -0.828338 0.309947
19.4463 24.733 16.5046 -0.961261 0.0814528 -0.26333
12.2102 22.788 17.825 0.0687592 0.934556 0.349109
16.9578 25.8065 12.9215 -0.639452 0.733573 0.230155
14.8639 23.0048 7.99383 0.963406 0.2666 -0.0278073
14.7776 15.8518 13.5156 -0.00320413 0.737419 -0.675428
19.8402 23.7411 14.8151 -0.331555 -0.919624 -0.210625
23.366 22.3382 17.1702 -0.0700638 0.968125 0.240467
19.9408 21.1331 8.61002 0.827426 0.14482 -0.54258
21.6041 25.9592 19.8564 -0.590375 -0.214819 -0.778017
15.4902 14.6947 18.1049 0.374611 -0.415312 -0.828965
17.0629 19.3123 8.21183 -0.577444 -0.171791 0.798151
20.1671 13.8803 7.5294 0.707128 0.343227 0.618195
22.5189 14.7664 8.29409 0.344454 0.150899 -0.926597
18.7971 24.9484 19.974 0.547858 0.38514 0.742643
13.8039 18.247 15.8694 -0.171506 -0.548543 -0.818344
23.3232 15.0923 18.9985 0.0416092 0.508432 0.860096
23.4849 23.3038 16.3356 -0.62459 0.654111 -0.426646
23.7615 21.623 8.10986 0.225407 -0.555959 0.800063
18.3045 18.2375 9.11931 -0.328937 -0.408324 0.851512
20.4778 18.0254 18.7435 -0.96286 -0.085445 -0.256123
12.1464 22.8379 10.7504 -0.435968 0.0198832 0.899742
17.254 24.2941 16.534 0.82952 -0.0725143 -0.553749
23.5849 26.2437 13.838 0.612263 -0.78134 -0.121006
16.3783 19.1733 15.6875 -0.132943 0.552965 0.82253
20.3321 20.0481 10.7378 0.654384 0.635568 -0.409676
20.477 14.3927 8.87185 0.867129 0.109895 0.485809
18.8611 18.4042 19.3459 0.940418 -0.33939 0.0206999
18.6263 19.3858 7.19101 -0.461306 -0.113392 0.879965
16.522 17.2051 8.60865 0.920861 0.0644272 -0.384532
12.7137 19.8639 14.0331 0.716173 0.308223 -0.626175
17.979 22.4288 13.7641 0.833475 -0.0427431 -0.550902
20.3733 16.4387 16.5721 0.572833 -0.475298 0.667798
22.2842 18.9843 12.5552 0.608759 -0.0244489 0.792978
17.484 22.9087 11.6885 0.828084 0.5278 -0.188953
11.2239 22.3173 17.6474 -0.0512912 0.998006 0.0367728
18.8115 17.3779 13.0843 0.576743 0.721689 -0.382797
21.2753 18.6605 8.20442 0.657073 0.400141 -0.63886
15.7455 18.4099 16.178 -0.30299 0.312945 0.900146
22.3799 14.4887 12.995 -0.777455 0.606143 -0.167792
21.447 20.4863 9.60375 -0.501322 -0.776101 0.382548
17.3103 24.1027 11.8602 -0.345106 0.534349 -0.771604
13.8517 22.8911 14.1731 0.0834242 -0.910663 -0.40464
14.8111 15.0549 17.4172 0.0885717 0.71831 0.690063
19.4755 19.3192 7.636 0.373774 0.258558 -0.890753
14.3421 18.6565 15.1241 -0.092968 0.822943 0.560465
23.5087 24.4189 8.91495 0.0434121 -0.682706 0.729402
20.9175 17.1237 7.65584 -0.0755094 0.487823 0.86967
23.4929 21.7558 18.0934 0.109087 -0.994028 -0.00276562
17.7552 19.7469 14.2425 -0.587278 -0.769101 0.252168
13.3817 24.257 7.65828 0.724677 0.527101 -0.443855
14.6958 18.1632 16.7893 -0.0443582 -0.612979 -0.788853
18.4124 25.7626 7.71547 0.381172 0.269608 -0.884318
11.3356 24.5562 7.4147 0.13905 -0.327962 -0.934401
18.2853 21.5247 14.1319 0.748736 0.658682 0.0743801
15.7418 16.4134 9.472 -0.649295 -0.658587 -0.380367
15.1998 19.819 19.8872 -0.83564 -0.525183 -0.160897
11.0864 13.8992 16.2356 0.662701 0.00943594 0.748825
22.4385 24.3621 18.3818 0.663228 -0.685134 -0.301197
20.2936 23.1687 18.5787 0.742133 0.66536 0.080831
12.3707 24.768 15.2372 -0.149785 0.465695 0.872177
19.9388 22.1337 17.7721 -0.923249 -0.319164 -0.21388
18.975 18.0859 15.4922 -0.658266 -0.36424 -0.658799
12.6435 25.5861 19.1445 0.626278 0.503699 0.595032
14.6959 21.8686 13.3854 0.212092 0.757187 0.617806
16.8751 17.8571 7.67338 0.957544 -0.252824 -0.138527
13.286 22.0019 18.0042 -0.511535 -0.704251 -0.492304
18.2715 21.0345 13.2151 0.751509 0.657357 0.0558159
20.6274 19.8977 18.512 -0.972404 -0.149486 0.179119
15.9127 22.9305 16.4101 0.48316 -0.335716 -0.808611
19.223 16.8572 18.0808 0.926145 -0.129523 0.354231
15.4261 22.0059 9.22172 0.645958 0.177319 -0.742493
12.5551 19.6708 8.77288 0.452126 0.441817 0.774842
13.0811 21.101 12.6655 0.808114 -0.578946 0.108507
10.9066 13.5815 19.3804 0.332857 -0.371064 0.866901
17.7289 14.4934 11.1749 -0.683573 -0.0866994 -0.724714
13.4984 24.9358 19.2152 0.713433 0.404083 0.572478
14.6277 26.4296 9.50468 0.392276 -0.90468 0.166355
12.6159 16.5499 10.3833 0.363841 0.321875 -0.87408
22.7075 13.9465 18.3185 0.0431912 -0.420116 -0.906442
20.4337 24.0804 17.4929 0.725879 0.323019 0.607255
17.6618 17.9898 17.7908 0.924865 -0.294473 0.240647
14.2371 16.3025 17.9306 -0.259326 -0.848517 -0.461269
22.6701 15.3291 12.2276 0.186609 -0.982432 -0.00205279
18.4699 23.5578 19.4597 0.394332 0.579441 0.713268
21.2283 13.6188 8.83868 0.809537 0.281018 0.515441
14.7824 23.7451 15.3059 -0.0501971 -0.38322 -0.922292
22.8451 26.2969 9.68416 -0.968638 0.0270488 0.246998
18.9515 24.8006 15.3758 0.973956 0.0663453 0.216815
21.5712 22.9673 15.0728 -0.318162 0.500454 -0.805182
18.4144 21.4451 7.00008 -0.693556 -0.483208 -0.534312
18.2949 18.3078 16.1367 -0.643693 -0.34437 -0.683425
21.8555 14.3675 7.38557 -0.156572 0.00587084 0.987649
13.4051 24.6675 17.007 0.410468 -0.853715 -0.320446
18.2043 15.4201 8.5439 0.319028 0.542324 -0.777243
19.9064 24.6683 7.10691 -0.556514 -0.405868 -0.724958
19.9676 25.3404 18.9904 0.658542 0.0194288 0.752293
18.3071 22.3066 7.94274 0.368727 0.929495 0.00888451
13.45 16.4651 11.3304 -0.654166 -0.737418 0.168173
17.8987 20.5222 18.7434 0.856096 0.471455 0.211728
13.0392 18.556 11.8902 0.381169 0.231314 -0.8951
13.3132 18.7885 17.431 -0.0496766 -0.636654 -0.769548
13.5827 26.5069 11.074 0.55976 0.274781 0.781769
19.5691 16.4374 13.8559 0.563723 0.519372 0.642238
22.3706 17.8176 15.5473 -0.345768 -0.200503 -0.916648
19.4813 24.268 10.159 0.962281 -0.266916 -0.0526509
20.3668 20.4236 19.8271 -0.975736 -0.152848 0.156768
18.702 20.8655 10.3806 -0.644972 -0.469806 0.602738
22.8862 22.0558 9.17884 -0.716612 -0.292607 0.633126
17.172 25.9175 15.9858 0.903592 0.0968303 0.417307
16.3504 19.0657 17.2038 0.218495 -0.444817 -0.868561
21.4203 25.6871 12.428 0.52957 -0.70955 -0.464859
15.6053 18.7008 11.2466 -0.329121 -0.324141 0.886912
21.5131 18.9985 19.6968 -0.82315 -0.551777 -0.134036
12.8478 14.6442 7.27378 0.488193 0.639117 -0.594304
22.0387 26.1305 11.6798 -0.648439 0.755583 -0.0928521
14.6818 23.0495 11.6438 -0.186712 0.982253 -0.0177976
15.7111 21.4108 15.202 -0.204641 0.746567 0.633056
21.664 25.7625 8.15589 0.574533 0.466813 0.672308
11.1879 15.0378 15.9243 0.364758 0.0680911 0.928609
18.8106 21.357 8.30911 0.2129 -0.549853 -0.807673
18.7595 24.449 18.3579 -0.391687 -0.478197 -0.786072
21.3995 18.9039 9.42481 -0.576291 -0.205415 0.791008
21.3975 23.7388 17.2572 -0.0585336 0.722246 -0.689155
17.2813 23.4065 15.7761 0.633427 -0.773458 -0.0230785
19.9118 24.1657 12.2949 -0.832886 0.236916 0.500171
13.2011 13.77 19.2156 -0.829682 -0.343708 -0.439877
10.8898 14.2414 13.2301 -0.343192 0.473323 -0.811285
15.5295 18.1132 14.6011 0.49771 0.853291 -0.155496
23.1193 18.7208 11.9054 -0.366034 0.912655 -0.181881
13.7618 22.2643 7.34324 0.997776 -0.040535 -0.0529092
20.2634 14.7691 11.3386 -0.200555 0.96903 -0.144077
16.5683 22.2684 18.2545 0.169246 -0.680585 -0.712853
13.7976 15.4674 12.0489 0.323165 0.469512 -0.821659
18.1034 24.7372 7.55729 0.606765 -0.0499493 0.793311
11.5216 22.8363 13.1311 -0.331314 0.943491 -0.0075217
19.1189 18.3994 7.32275 0.97197 0.0801579 -0.221018
17.3315 25.2877 9.85074 0.198131 -0.561712 0.803258
17.6858 23.386 14.1667 -0.389167 0.267616 -0.881437
17.1489 25.5352 19.6788 0.291649 0.184778 0.938508
20.1295 21.5552 12.9314 0.241493 0.679314 -0.692974
17.1546 18.1914 8.66517 0.50694 0.472669 -0.72083
22.207 21.7267 11.966 0.80601 0.144802 -0.573916
23.5324 21.3972 10.2417 0.180946 0.125577 0.975443
15.6625 23.0665 8.9048 -0.940261 -0.0464332 0.337273
19.4963 13.5071 15.8043 0.872197 0.164354 0.460717
14.2444 19.992 18.0592 -0.070962 -0.840547 -0.537071
14.1154 18.143 11.2502 0.694409 0.500386 -0.517116
16.7436 22.2667 10.9494 0.903786 0.0339214 -0.426638
18.364 22.3725 19.5797 0.304455 0.703838 0.641809
22.4724 23.2861 14.8889 0.28602 -0.323712 0.901889
14.9505 23.6727 10.065 -0.503451 -0.858342 -0.0989254
16.3988 26.2228 18.6188 -0.382464 -0.14527 -0.912479
15.6864 23.1201 18.3215 0.0519545 0.579908 0.813024
19.4171 16.5164 17.1691 -0.893377 0.110038 -0.435625
19.2456 22.1973 16.6436 0.948655 -0.187606 0.254673
17.5706 17.6619 16.8503 0.339639 -0.921736 0.18721
22.5785 22.3207 14.5905 -0.173619 -0.237834 0.955663
17.5561 22.5328 7.4438 -0.0134496 0.635149 0.772272
21.2753 21.3482 11.2221 -0.374043 0.0718875 0.924621
21.5396 16.7718 11.9502 -0.153517 0.874362 -0.460351
20.4067 15.8774 18.2743 0.987134 0.0762339 -0.140551
15.2891 22.7436 15.201 0.159148 0.652661 0.740747
22.3032 20.9464 11.0696 0.341962 0.232958 -0.91038
19.9454 25.7521 7.22659 -0.654196 -0.0661306 -0.753429
20.1511 22.9172 12.6842 -0.646798 -0.429358 0.630321
17.6613 18.749 18.4439 0.925743 -0.378141 0.00313916
14.3497 19.5821 10.774 0.352739 0.581768 -0.732885
23.5626 16.5642 10.0388 0.424004 -0.848058 0.317835
17.5409 16.5586 11.5815 0.393772 0.917818 -0.050536
14.0662 22.0989 9.3907 -0.682694 -0.32146 0.656196
16.2301 26.5002 8.43596 0.159444 -0.761016 0.628834
22.3588 17.0568 16.6801 -0.0363346 0.131521 0.990647
13.9434 25.447 15.9711 -0.160595 0.244941 0.956145
18.268 25.3958 18.8201 0.235497 -0.213214 -0.948199
10.9195 21.8455 14.3885 0.542417 -0.688995 0.480697
22.0584 22.0975 10.9232 -0.738611 0.0935845 0.667605
23.1568 24.6714 17.5595 -0.757625 0.542153 -0.363419
14.5904 24.2386 14.1015 0.43666 -0.254026 -0.863017
17.7384 26.4287 19.9921 0.30945 0.174278 0.934809
11.1907 25.9068 10.8742 0.27982 -0.604971 0.74546
12.3373 21.8439 16.058 -0.165187 -0.669055 -0.724623
19.8271 16.4148 19.3118 -0.943819 0.242119 0.224907
23.194 15.257 13.3559 -0.889704 0.297419 -0.346366
11.7874 14.014 18.7698 -0.212269 0.0108422 0.977151
15.5821 20.38 12.6959 0.577938 -0.749126 0.323725
22.8613 14.6628 11.1861 0.705954 -0.36409 0.60751
13.9871 22.7483 16.9913 0.31353 -0.843345 -0.436427
11.8195 23.5812 17.1969 0.0319271 0.824117 0.565519
16.0856 20.122 15.2829 0.423362 0.627649 0.653316
17.0549 24.0626 14.7588 -0.896493 0.0802401 -0.435732
18.6865 16.0967 10.0825 0.235201 0.910393 0.34039
14.2075 26.2291 19.64 -0.516528 -0.243586 -0.820892
16.5975 19.3095 19.4217 -0.91396 -0.203626 0.351017
13.1109 24.2437 12.8181 -0.0466947 0.965062 0.257827
16.6337 15.3792 15.1722 0.754451 -0.405192 0.516355
18.3987 13.8554 19.3638 -0.398258 0.803802 0.44192
11.5894 16.8103 19.8462 -0.87272 -0.436358 0.218979
17.0586 25.2343 16.6956 -0.789451 -0.19779 -0.581073
19.0079 18.3911 17.6854 0.612695 -0.789176 0.0424949
13.7009 16.1085 10.3909 -0.054006 -0.902406 0.427489
23.0291 24.2297 13.7786 -0.101444 0.451502 -0.886485
21.9822 23.0987 18.6679 -0.232658 0.855398 -0.46278
13.8001 16.8538 8.97238 -0.320944 -0.789322 0.523417
16.3621 20.194 8.53944 0.0507657 0.372776 -0.926532
11.6333 19.874 16.9139 -0.349626 0.0298294 -0.936414
19.4113 20.4214 16.1045 -0.738838 -0.409367 0.535291
16.4832 24.842 8.80031 0.498012 -0.354224 0.791523
18.5018 21.852 15.0833 0.807343 -0.547621 0.219792
22.1798 22.673 7.61699 0.00828018 -0.731511 -0.681779
15.4862 15.644 12.8742 0.487653 0.867254 -0.10033
13.8518 23.6936 13.574 0.796198 -0.580516 -0.170502
21.2367 18.1144 7.26346 0.906576 0.0451741 -0.419619
11.3012 15.5953 7.06144 0.267214 -0.0807423 0.960249
13.039 26.3908 13.3597 0.589309 -0.00296232 -0.807903
22.884 26.3141 19.0724 0.639889 -0.307715 -0.704169
17.3788 13.9974 14.835 0.492755 0.377616 0.783963
22.3969 24.6235 14.4259 0.131408 -0.580585 0.803525
17.9394 16.4718 18.778 -0.985591 0.168122 0.0185714
13.2189 23.6925 11.3931 0.685866 0.651471 -0.324306
15.1151 15.3964 8.24263 -0.329298 0.723786 -0.606379
11.7066 19.3841 19.1291 0.24505 -0.0784063 0.966335
20.3422 16.4398 15.116 0.436634 0.815746 0.379352
20.3466 20.091 8.02512 -0.494994 -0.656402 0.569313
16.2908 21.982 16.7096 -0.132175 -0.630156 -0.765136
21.8441 21.1859 18.7898 -0.834685 -0.535279 0.129525
17.3648 24.8585 8.37489 -0.337405 0.108635 -0.93507
18.6724 15.2963 17.1864 0.40986 -0.729424 0.547683
23.4876 20.4316 10.5837 -0.450317 -0.125276 0.884036
18.3179 18.944 13.6541 0.906213 0.389536 0.164435
21.6772 19.8833 12.4399 -0.96064 -0.212956 0.178382
18.8727 14.4166 8.91577 0.126504 0.934459 0.332841
12.2446 26.3419 12.714 -0.702035 0.0375243 0.711153
14.4846 23.6352 12.6237 -0.541122 0.840909 0.00767943
22.1555 23.946 10.8087 0.728538 -0.238615 -0.642102
20.9337 23.1785 13.4249 -0.0710197 -0.652855 0.754147
15.44 14.2612 16.1261 0.922295 0.125585 0.365515
18.3424 23.9942 13.4463 -0.206715 0.258108 -0.943742
17.3775 14.3911 13.7184 -0.863164 -0.234933 -0.446939
21.0316 19.3229 15.1019 -0.510504 -0.412225 -0.754623
14.2483 18.3616 13.5417 -0.596348 -0.230191 0.769013
13.4427 24.9892 18.0571 0.523512 -0.813767 -0.252425
15.2825 19.5844 17.5095 0.232511 -0.176215 -0.956497
23.6898 19.5229 17.707 -0.0550741 -0.152695 0.986738
23.4626 22.706 15.2318 0.237931 -0.407437 0.881694
18.7249 17.5901 19.9027 0.953226 -0.30226 -0.000138327
22.0765 19.8379 13.5079 0.944098 -0.257454 0.205904
23.8157 23.187 11.7275 0.235419 0.744868 0.624299
23.4896 22.9878 12.9616 -0.202163 0.926501 -0.317373
21.8279 20.4019 15.1954 0.873742 -0.394877 -0.283985
23.684 15.7079 12.5844 0.632552 -0.693452 -0.344967
23.0732 20.5663 17.2313 -0.973044 0.0971897 -0.20914
23.4127 13.8973 8.1605 0.640079 0.0700633 -0.765108
19.8702 23.4996 11.4472 0.654097 -0.750734 0.0924979
20.5607 15.7967 14.0981 0.764955 0.216202 0.606713
12.2595 13.5419 9.99287 0.272321 0.400158 -0.875051
22.3658 19.5154 18.5151 -0.727167 -0.590988 0.349228
13.4444 23.5358 18.3223 0.401256 0.684618 0.608516
12.0018 25.6138 13.639 -0.283354 0.600171 0.748001
16.8697 25.9279 14.8284 0.847332 0.364613 0.386117
19.5575 17.0114 8.72362 -0.574982 -0.723592 0.381852
15.3014 19.3609 12.1817 -0.715632 0.496288 -0.491496
18.9099 25.6218 15.9777 -0.908071 -0.0597383 -0.414533
13.4452 25.5087 9.82371 0.266392 -0.765811 0.585294
16.5225 25.8882 11.9095 0.572818 -0.800625 0.175726
23.0935 26.0251 7.89171 -0.198239 -0.199771 0.95958
22.7562 25.8495 12.6673 0.47169 0.86856 -0.152024
18.1683 19.7835 13.0972 0.868416 0.495507 0.0180674
21.8389 18.7569 14.8387 -0.537584 -0.673949 -0.50675
23.1334 16.5884 8.71827 -0.395915 -0.0699899 0.915616
21.3783 14.6676 15.924 0.854637 0.115226 0.506278
23.19 20.8048 14.0383 -0.0223932 0.956241 -0.291723
22.8258 22.9018 9.96281 0.77925 0.0261164 -0.626169
23.526 26.4751 16.7408 -0.803619 0.403658 -0.43733
21.0358 17.1047 14.4605 0.368433 0.578019 0.728115
15.8374 16.3951 8.31583 -0.966161 0.148634 0.210811
22.9989 23.304 8.66929 -0.69218 -0.501308 0.519208
13.0938 14.914 16.6131 -0.214351 -0.388767 -0.896054
15.2622 15.0472 11.1222 -0.435499 0.898734 -0.0511601
11.1106 23.0935 7.75655 0.921547 0.339731 -0.187975
11.3435 18.1465 9.3422 -0.306644 0.680036 0.665973
19.7888 24.2081 18.4722 0.470522 0.329462 0.818575
13.1416 18.5492 19.5273 0.276225 0.868824 0.410907
10.9058 14.0984 14.7417 0.609997 -0.430508 0.665257
14.73 15.0451 9.5807 -0.45472 0.888494 0.0617061
20.0987 14.7 18.5102 0.889428 0.422453 -0.174503
10.8426 18.3144 13.2265 -0.963844 -0.0529664 0.261152
13.181 14.2709 18.1233 0.746744 -0.408403 0.524958
17.9009 16.148 14.9355 0.257277 0.278442 0.925353
20.0462 24.9604 11.6931 -0.976064 0.206343 -0.0687156
16.3837 19.5609 11.453 -0.0890103 0.253879 -0.963132
18.7917 25.1516 12.4521 -0.854082 -0.18608 -0.485715
15.2002 26.4889 14.0503 -0.408973 0.469167 -0.782703
15.9801 24.2467 12.7142 0.290838 0.111049 -0.950306
12.133 16.7905 9.073 0.0287546 0.751278 0.659359
12.0843 24.0744 10.3026 -0.58003 -0.70082 0.415231
21.2146 18.1308 18.0041 -0.850465 -0.371857 -0.372064
17.3709 22.2725 18.8397 -0.287769 0.496316 0.81906
22.5332 17.985 17.9225 -0.166516 0.306713 -0.937123
20.3221 13.7929 9.65871 -0.9698 -0.0335462 -0.241585
23.2966 15.9728 18.2387 -0.228421 -0.228135 -0.946455
12.0053 20.5281 19.6255 0.00195445 -0.309686 -0.950837
20.428 19.0007 18.9236 -0.789805 -0.0501001 0.611308
14.8167 14.0477 18.892 0.0459095 -0.0175925 0.998791
18.2156 13.5761 10.9039 -0.542774 -0.388931 -0.744399
11.8918 25.6242 19.9183 0.227362 -0.563414 0.794274
19.3799 15.2715 19.1376 -0.979769 -0.196328 0.0388453
16.9216 21.1369 8.54236 -0.452816 0.687749 0.567414
15.7737 25.1814 9.3194 -0.489537 0.372352 -0.788484
18.02 16.1957 17.7856 -0.976858 0.209159 -0.0447412
19.2004 20.4579 11.7529 0.108477 -0.988374 0.106539
11.6873 17.3107 16.0411 -0.420903 0.814285 -0.399725
19.0775 22.9038 8.84195 0.315704 -0.913363 0.257098
19.6614 25.9024 9.71462 0.872791 -0.425848 -0.238516
21.3209 24.8881 19.4384 0.541705 0.281822 0.791917
14.5693 16.036 14.5618 0.868437 0.493463 -0.0480806
19.7411 16.8255 10.6973 0.0107464 0.252428 0.967556
15.8387 17.6854 18.8385 -0.918963 0.380082 -0.105096
17.558 18.1446 11.1797 -0.589908 -0.807381 0.0120148
23.8027 24.5674 18.7415 0.939301 -0.213431 -0.268627
13.8064 19.2669 13.9248 -0.18308 -0.521045 0.833663
17.9733 23.1299 9.58673 -0.132291 -0.165127 0.97736
15.6988 21.1254 8.56439 -0.531127 -0.369822 0.762323
23.7951 23.6301 19.3445 -0.0805373 -0.136391 -0.987376
15.7875 15.993 16.4597 -0.863526 0.134753 0.485967
12.7648 15.4247 10.3488 -0.0339968 0.591699 -0.805442
16.8556 22.9671 10.0875 -0.215129 -0.428235 -0.877687
13.7557 25.7353 11.9482 -0.816303 -0.209673 0.538225
11.0157 26.0671 8.49746 0.529061 0.645069 -0.551344
22.0408 23.6718 7.08909 0.0977232 0.902887 0.418623
23.5018 18.6603 14.3539 -0.816896 -0.189466 0.544778
22.3871 20.4219 16.14 -0.912777 0.407741 0.0242055
19.4305 23.0588 17.3947 -0.911125 -0.16396 -0.378111
12.7284 16.1301 19.9713 -0.369215 -0.774121 0.514215
21.157 26.4177 18.2355 0.763445 0.268426 -0.587452
17.438 19.4146 11.0108 0.20835 0.0903689 -0.97387
20.5154 22.8164 16.9055 -0.810953 0.283857 -0.511645
14.6716 21.3931 15.5189 -0.46943 0.792417 0.389501
15.5458 17.9343 17.5038 0.798488 0.112025 -0.591496
13.8901 14.8467 13.8657 0.44113 0.342227 -0.829629
13.9706 18.188 12.4428 -0.644987 -0.523891 0.556354
14.6729 23.2937 16.6312 -0.185164 0.746723 0.638842
17.2974 15.0136 16.5344 0.985056 -0.160432 0.0626562
21.1398 19.2908 13.7844 0.519092 0.300018 0.800333
20.0853 19.6592 15.6673 -0.712797 -0.629116 -0.310054
22.2257 20.386 7.25171 -0.0789162 -0.767993 0.635578
22.5327 25.4795 19.6632 0.59836 -0.210739 0.773017
13.2351 18.5628 13.356 -0.627534 -0.489662 0.605336
15.784 25.9629 12.7352 -0.521369 0.853273 -0.00996916
23.2597 17.6454 14.1722 0.939636 -0.341376 0.0233597
21.7602 15.898 11.3381 -0.195157 0.811494 -0.55081
17.2533 20.2833 15.8857 -0.359188 -0.392382 0.84677
21.1407 20.8589 13.0034 -0.0962432 -0.257606 -0.961445
13.0828 13.7238 14.8484 0.39286 0.104898 -0.913596
22.8761 21.4299 14.9396 -0.87004 -0.406884 -0.278346
11.6779 16.9211 10.6457 0.40144 0.888544 -0.222116
12.7543 17.772 11.1033 0.0025016 0.840919 -0.541154
20.729 18.5762 17.104 0.979168 0.16129 0.123354
21.7857 25.6414 9.35989 0.910556 -0.409624 0.0556359
17.2964 21.9526 9.83202 0.853363 0.40873 -0.323592
14.6727 19.2196 16.4527 -0.320324 0.703422 0.6345
15.7406 13.8559 19.6586 0.195015 0.171412 -0.965705
20.0646 21.0977 12.0989 -0.235861 0.697757 -0.676391
16.6418 15.0987 12.9651 -0.80488 -0.573926 -0.150924
21.7114 20.7152 17.7943 0.940492 -0.00473311 0.339783
13.8245 19.6277 19.0591 -0.0800084 -0.990404 -0.112691
20.4337 15.2243 9.52369 0.805622 0.592428 -0.00117927
20.413 22.7882 8.48403 -0.626275 -0.772054 -0.108225
16.7142 19.1465 13.7335 -0.293555 -0.952588 0.0800106
12.2279 21.0186 18.1755 -0.321865 -0.309728 -0.894691
21.0115 26.4456 7.37558 0.620511 0.24836 0.74383
12.5776 19.8841 7.02853 0.376307 -0.202486 -0.904098
20.3003 18.6011 15.5981 0.671533 0.345168 0.655669
12.6489 15.4737 13.1853 -0.513061 -0.494722 0.70144
22.0209 17.1957 12.6525 0.225097 -0.863904 0.450557
13.17 26.4863 7.50309 0.417434 0.833201 -0.362664
16.8754 16.2474 14.6054 0.100376 0.193886 0.975875
12.0914 14.5243 8.50591 -0.455783 -0.821255 0.343222
18.3751 20.1387 9.69231 0.0841494 0.391422 -0.916356
20.6486 15.2555 13.0221 0.531679 -0.0727072 0.843819
23.8245 20.4967 14.8411 0.890157 -0.153087 -0.429167
17.0304 14.1688 19.3509 -0.486685 -0.0336485 -0.872929
16.1255 22.51 12.7274 -0.488913 0.0826222 -0.868411
21.4663 19.5982 17.5807 -0.964013 -0.265732 -0.00810564
20.7679 15.7501 15.7495 0.581689 0.599972 0.549246
21.7932 24.0894 15.7827 -0.335651 0.915178 -0.223131
23.0296 23.856 11.432 -0.157136 0.739396 0.654677
20.409 23.9449 13.8523 0.47295 0.307187 0.825805
21.4175 15.1569 19.3675 -0.358877 -0.430274 0.828294
22.3861 16.4826 18.1857 -0.00631414 0.2741 0.961681
16.5387 20.7965 13.1694 0.781429 0.204686 -0.589468
23.5589 26.4594 11.7318 -0.937553 0.327814 -0.116333
11.759 18.7267 16.3135 0.332618 -0.355862 -0.873343
22.0147 13.5815 12.6554 -0.0775477 -0.714135 0.695699
18.3023 24.1165 9.51349 -0.859311 -0.193799 0.473315
14.7354 24.0849 8.44959 -0.441852 -0.848395 0.291536
22.7615 18.7564 8.32786 -0.0771228 0.490816 -0.867843
16.6013 18.2504 19.406 0.976556 -0.10458 -0.188152
19.9076 15.7283 8.90309 -0.353605 0.142958 0.924406
14.1035 20.8822 14.6532 -0.235432 0.824771 0.514125
22.5019 20.1115 10.5147 -0.364773 -0.434391 0.823556
13.1779 23.9951 10.0352 -0.243702 -0.682555 0.689006
15.2915 24.516 17.5255 -0.0825388 0.616534 0.78299
10.8724 15.7236 8.78356 0.0980332 -0.309497 0.945834
14.3519 24.8233 16.798 0.142093 0.280307 0.949335
11.7962 17.5966 14.8969 0.99034 -0.132828 -0.0397839
21.0637 22.3414 10.4632 0.78954 0.0528693 -0.611417
17.5649 22.0686 8.79051 0.287908 -0.951698 -0.106677
17.1578 21.5876 7.68368 -0.294071 0.764184 0.57406
12.4665 21.5604 7.8078 -0.223584 0.297654 0.928123
23.1294 16.4051 16.4792 0.0181667 0.206191 0.978343
13.9232 18.9149 7.40998 -0.341507 -0.912902 -0.223569
20.8886 24.7361 9.9104 0.854051 -0.424574 -0.300557
21.1015 22.1981 7.76259 0.334566 0.737305 0.586895
21.6061 14.5846 11.0859 0.608084 -0.791144 -0.0657619
12.0311 19.1883 11.4563 0.0010677 0.96705 0.254586
11.3533 17.4363 17.1673 -0.426722 -0.510443 -0.746563
13.1057 25.2167 7.04779 0.797189 0.514305 0.316196
14.6148 20.8455 7.12185 0.540964 0.81729 0.19848
17.4256 19.9971 9.05707 -0.4963 0.0433874 0.867066
23.1247 24.3628 7.4655 -0.551829 -0.286173 0.783319
21.5917 24.2898 13.7411 -0.00169802 -0.226967 0.973901
21.3284 24.8393 8.78917 0.619072 -0.777894 0.107848
11.8061 15.7537 10.2796 -0.282779 0.381077 -0.880237
11.1147 20.766 13.7054 -0.171133 -0.982308 0.0760519
21.8326 19.3952 10.2355 0.414783 0.508925 -0.754288
22.0817 17.4635 10.9739 -0.308807 0.813333 -0.49308
20.1466 18.9896 9.68186 -0.361199 -0.125021 0.92407
23.241 22.3738 12.1866 -0.481923 0.873748 -0.0656846
17.1308 15.2273 19.8114 -0.784206 -0.454372 0.422571
12.4787 15.4412 18.1985 0.768659 0.638442 -0.0394353
16.6892 23.36 12.226 -0.282132 0.293995 -0.913219
13.3538 26.3902 17.2411 -0.000701331 0.0671715 -0.997741
22.2905 20.3866 19.0626 0.767583 0.621877 -0.155194
18.3582 19.1719 9.41618 0.121028 0.485803 -0.865649
22.4122 23.8026 12.8309 0.374217 -0.473071 0.7976
20.6813 14.7119 10.2924 0.95888 0.105885 -0.263321
14.5108 25.4282 10.3391 0.0961251 -0.870604 -0.482502
11.729 24.9278 14.2709 0.549857 -0.435547 -0.71271
13.1751 17.676 8.9396 -0.758973 -0.417308 -0.499814
12.367 23.3567 16.08 -0.208864 -0.819819 -0.533172
17.2087 22.0328 16.2916 -0.136316 0.30021 -0.944082
19.076 19.2901 10.2907 -0.213385 -0.0565808 0.975328
17.4382 16.0832 16.3894 0.424265 -0.635011 -0.645569
10.9947 19.166 11.129 -0.488259 0.672216 0.556533
14.2457 14.3615 10.3786 -0.199358 -0.967328 -0.156632
21.334 19.9549 11.1997 -0.405486 -0.587819 0.700036
17.8955 16.7641 7.40576 -0.978686 0.00128443 0.205358
15.0712 20.5087 16.9822 -0.640385 0.345305 0.686056
17.5573 19.1492 16.1422 -0.346661 -0.526664 -0.776178
13.3987 24.7555 11.9132 -0.980822 -0.14939 0.125182
19.1262 25.6995 8.87676 -0.677276 -0.729775 0.0934068
21.7235 22.8695 16.6795 -0.68495 0.638821 -0.35036
22.3339 22.4135 12.7694 0.58881 -0.78384 0.197226
11.8648 18.6774 14.5961 0.870409 0.203899 -0.448122
17.4535 20.3716 12.0942 -0.528626 -0.537171 0.657268
17.2998 15.4671 17.4045 0.771043 -0.548721 0.323107
17.117 25.9897 10.8642 -0.319787 0.797214 -0.512041
14.7539 14.0924 11.3827 -0.602255 0.793089 -0.0910945
15.1016 25.5883 13.4434 -0.498189 0.73527 -0.45955
23.1521 21.5053 16.0401 0.428023 -0.881971 -0.197292
22.0574 18.7892 13.7937 -0.637612 -0.452209 -0.623665
19.2163 20.1057 8.6084 -0.161022 -0.0152977 -0.986832
14.0701 14.9785 16.4713 0.206876 0.897928 0.388495
22.7381 23.8289 19.2254 -0.172327 0.718375 0.673974
17.3339 13.7127 11.637 -0.869771 0.107188 -0.481673
13.134 25.8255 15.5943 -0.339333 -0.109554 0.934265
14.8761 17.0991 13.8309 -0.714385 -0.696368 0.0687405
22.5329 18.9 11.0297 -0.703258 -0.567328 0.428448
21.1778 23.3772 7.58281 -0.583701 -0.639407 -0.500451
16.9385 18.7175 7.15801 -0.985684 -0.0224983 0.167098
19.4328 18.9509 18.3566 0.881984 -0.23382 -0.409184
21.2563 26.1706 14.59 0.0517705 0.190593 -0.980303
13.4992 21.0002 9.31721 0.45761 0.0279414 -0.888714
11.5431 20.0417 9.02637 -0.185153 -0.390285 -0.901885
21.5186 13.7455 16.2192 0.754483 0.130504 0.643214
17.709 26.2931 17.1897 0.849518 -0.176236 0.497252
17.7345 24.6949 17.9433 -0.307795 0.0572706 0.949728
19.2266 15.5999 10.8596 0.00272275 0.620346 0.784324
12.0483 15.9403 19.0449 0.424429 0.905365 -0.0131873
23.4218 17.0812 11.0737 0.228237 -0.970014 -0.0835468
19.5688 13.8559 13.0189 -0.782086 0.138307 -0.607629
18.6713 23.4251 12.2898 -0.134049 -0.930619 0.340557
11.7525 14.6523 7.28057 -0.460083 -0.226102 0.858604
11.6095 15.8716 12.9498 0.735618 0.0050413 -0.677377
16.0049 25.3033 18.8084 0.0378829 -0.000101728 -0.999282
11.4235 21.8297 12.044 0.316977 -0.88372 -0.344331
12.163 14.9923 9.51596 0.417866 -0.674344 0.608809
18.3254 17.9743 13.9244 -0.597151 -0.510948 -0.618339
13.0469 17.2362 14.0264 -0.973228 -0.22606 0.0415151
15.8178 16.5328 18.5185 0.83273 -0.453494 -0.317652
13.3955 15.4468 15.5672 -0.504639 -0.619429 -0.601371
23.2066 14.3856 9.51948 0.703476 -0.57315 -0.420263
12.0787 18.7171 9.90602 0.171432 -0.634065 -0.754037
19.1512 14.4075 15.3509 0.836735 0.107716 0.53691
16.8243 16.5902 10.6596 -0.492069 -0.702408 0.514287
19.3612 18.4327 9.13551 -0.349181 0.0240507 0.936747
20.5818 20.1707 13.9759 0.891605 0.26165 0.369566
22.9991 14.5736 15.9874 -0.799174 -0.021252 -0.600724
22.1282 15.2807 7.05097 -0.320757 0.244274 0.91512
11.3184 16.2031 11.7811 0.471713 -0.881748 -0.0025747
23.7173 18.035 16.1901 -0.51557 -0.197398 -0.8338
17.4577 19.1681 17.4456 0.618004 -0.727302 -0.298502
18.9449 19.0998 12.7674 -0.521229 -0.834774 0.177407
11.3561 20.9921 18.5409 0.0826093 0.849186 0.521593
22.7399 15.5153 9.25141 -0.677877 0.567489 0.467374
18.3307 21.2134 12.278 0.218963 -0.973182 0.0705155
15.7734 23.4143 14.6375 -0.438127 -0.0573129 -0.897084
19.9399 13.6431 18.1181 -0.851747 -0.493846 0.175052
22.162 23.1115 11.5555 -0.681063 0.590034 0.433605
11.6778 17.1549 12.4156 0.782361 -0.599192 -0.169941
13.5196 22.5074 19.3927 -0.313079 -0.944998 0.0946625
16.325 26.1306 9.85819 -0.277667 0.795111 -0.539166
13.7312 23.3341 7.1913 0.90669 0.258386 -0.333392
12.8114 23.1618 14.118 -0.275915 -0.815565 -0.50865
21.0539 20.1069 16.7788 -0.984473 0.172651 0.0316819
23.1467 17.4009 12.7996 0.731026 -0.675619 -0.0956024
12.4712 19.8035 16.3433 0.123656 0.610773 0.78209
11.3547 16.6608 8.27503 0.457078 -0.384976 -0.801793
22.4389 17.4199 9.22494 0.400607 0.281182 -0.872038
11.3904 25.7702 18.4979 -0.193546 -0.665608 0.720767
13.0654 18.4972 9.69164 0.301075 0.84319 -0.445404
11.6682 23.9596 8.30076 0.656738 0.412552 -0.631266
23.6882 17.658 8.46876 0.188902 -0.365717 -0.911355
20.4528 26.2368 10.4465 -0.656115 0.66725 0.352548
14.8775 21.0222 19.2643 -0.215551 -0.968964 -0.121023
19.378 21.7731 10.6145 -0.858617 -0.172229 0.482819
18.0701 19.1943 12.1416 -0.356966 -0.715179 0.600911
15.114 19.2349 9.94013 0.48842 0.715527 0.499466
21.02 15.302 16.6062 -0.91727 -0.340538 -0.206518
15.8406 16.3681 13.77 0.270903 0.95508 -0.120142
11.5222 17.9569 19.8868 -0.494669 -0.548422 -0.674193
21.5988 26.2762 10.7208 -0.683365 0.724884 0.0869237
14.0377 24.8591 8.29495 -0.473632 -0.692913 0.54364
11.028 22.1121 9.30405 -0.493445 0.171912 0.852618
21.8357 21.5767 17.4064 -0.973549 0.212009 -0.085171
11.0091 18.7987 19.6686 -0.364234 -0.271998 -0.890702
11.9942 22.3216 18.6011 0.912122 -0.398675 0.0953473
14.7421 15.0649 12.0881 0.0495187 0.960214 -0.274839
19.5509 16.2072 7.84215 -0.520589 -0.388621 0.760238
22.0884 26.0264 15.9067 -0.598185 -0.718125 0.355629
17.5039 16.4665 12.5345 0.861579 0.496884 -0.103868
23.3855 24.6077 16.3002 -0.264914 -0.614943 0.742742
18.9564 17.6149 7.93184 -0.916974 0.0803849 0.390763
16.017 22.3147 14.288 -0.446362 0.381328 -0.809537
14.2645 22.6261 15.1752 0.153453 -0.680337 -0.716654
17.0092 20.3793 11.1033 -0.506561 0.00222328 0.862201
15.1499 17.6639 10.7608 -0.325675 -0.735926 0.59359
11.4203 23.1707 9.70022 0.613671 0.2622 -0.744755
12.4916 20.7796 8.83187 -0.16502 0.0757753 0.983375
15.9541 21.3082 17.2827 0.202237 -0.668719 -0.715483
15.5025 16.0468 15.4825 0.287481 -0.949527 0.125513
21.5966 21.8482 8.70706 0.776075 0.566663 -0.27677
15.2242 21.6895 16.4882 -0.208641 0.821014 0.531418
23.2993 17.5353 17.1582 -0.11721 -0.26249 -0.957789
22.1119 14.3645 14.4752 -0.878829 0.156931 -0.450591
15.9716 14.9811 12.0276 0.58735 0.806619 -0.0662221
17.1216 17.251 19.7601 -0.923194 0.277963 0.265425
14.6136 17.7838 7.52061 -0.920816 -0.274705 0.276831
15.0267 24.5999 12.4377 0.447556 -0.2409 -0.861197
16.775 17.1874 18.0464 -0.987863 0.027525 -0.152867
22.3424 23.9454 16.7002 -0.368003 0.929794 -0.00748364
21.2679 14.1424 13.2862 0.895199 -0.244182 0.372819
12.5889 17.1922 7.50018 0.090025 0.937426 -0.336344
16.0714 21.2199 18.5646 -0.321623 0.910585 0.259603
22.9402 17.1182 11.9089 -0.451964 0.891492 -0.0311471
16.6374 19.7536 7.31755 0.595702 0.496985 -0.630987
11.0437 24.1472 11.2431 -0.394513 -0.475794 -0.786117
12.246 18.1197 8.2114 -0.584471 -0.68348 -0.437321
20.4172 20.1956 9.26081 0.496625 0.435496 -0.750804
22.5351 17.2214 7.56884 -0.162419 -0.438936 0.883717
14.0377 21.0336 16.8969 0.0839959 -0.851878 -0.516962
12.8933 18.5394 15.6826 0.0604939 -0.407968 -0.91099
17.0096 13.5878 7.73681 0.50966 -0.487137 0.709186
12.2297 14.2222 16.3175 0.594967 -0.183328 0.782563
17.36 20.9758 9.50488 0.97884 0.204571 -0.00475717
19.9491 21.5515 7.58254 0.216008 0.975819 -0.0334428
15.7032 24.2316 15.4702 0.285077 -0.154771 0.945926
20.2403 21.6648 14.8268 0.840621 -0.531728 -0.103063
14.8788 15.4266 16.0534 0.59769 -0.485406 0.638081
15.1438 22.6124 10.7199 -0.903303 -0.388898 -0.181112
23.1746 20.2888 19.7509 0.0773163 0.703454 0.706523
20.1764 19.7541 11.9267 0.296292 0.83731 -0.459481
13.9594 22.632 12.8787 0.721217 -0.540427 -0.433342
14.5829 25.9713 18.4339 -0.690776 -0.236655 -0.683244
12.11 14.3144 10.8153 0.599371 -0.638581 0.482668
19.7146 20.6348 19.0241 0.854093 0.51979 0.018521
17.4033 24.4748 13.4274 0.478388 -0.0510744 0.876662
19.3502 20.7878 17.4081 0.821822 0.551766 0.141996
15.9558 24.0178 9.28004 0.87088 -0.481006 0.101003
16.8761 20.8094 14.6355 -0.211897 -0.969125 -0.126083
21.106 22.341 12.8371 -0.115677 -0.475645 0.871998
23.8097 23.7409 15.3602 0.62727 -0.772086 0.102055
19.5809 23.1154 7.96957 0.344239 0.548948 0.761679
12.321 26.1825 8.65371 0.68686 0.615251 -0.386897
13.4 20.3502 7.75907 0.0300889 -0.0678193 0.997244
16.5952 23.9825 8.41373 0.9315 -0.0489754 0.360429
15.391 24.8895 16.2812 -0.584912 -0.0440514 -0.809899
17.7545 15.3864 12.3159 0.623586 0.64287 0.444813
12.3669 20.2058 10.4947 -0.178712 0.749055 0.637949
12.8495 20.2186 18.3963 0.0624223 0.452282 0.889688
19.5306 14.8175 13.1995 -0.765078 0.102689 -0.635697
11.3373 14.4381 9.4669 0.099032 -0.528522 0.843123
19.2743 17.3265 14.7696 0.763474 0.25907 0.5916
12.4755 25.606 14.6485 0.305891 -0.601257 -0.738187
17.7292 21.3934 15.7616 0.944603 0.192027 0.266177
17.4001 25.6684 18.0152 -0.664298 -0.624076 -0.411385
15.6052 21.6515 13.0021 0.0363987 0.0715437 -0.996773
17.8168 25.4518 13.6047 -0.825021 0.501228 0.26098
18.0057 21.5624 10.4201 -0.729603 -0.376478 0.570915
15.62 21.7668 10.655 -0.35762 -0.541147 0.761097
15.7242 20.7033 19.2861 -0.0539268 -0.809655 -0.584423
12.8193 22.3944 12.7993 -0.76966 0.545035 -0.332506
16.1338 15.2765 9.33836 -0.345626 -0.878676 0.32935
12.2652 24.031 11.3777 0.584277 0.559947 -0.587435
18.1027 15.5221 11.0018 -0.197017 -0.518164 -0.83228
17.3853 22.9067 17.8327 0.231854 -0.262972 -0.936531
14.0091 23.3104 10.7115 0.0252017 0.846514 -0.531769
17.779 18.4211 14.6585 -0.58093 -0.402069 -0.707715
14.8573 16.2722 10.2678 -0.45889 0.860624 0.220785
23.4563 20.0536 9.23559 0.091095 -0.632506 0.76918
10.9554 17.6989 10.178 -0.416551 0.778509 0.469478
16.5691 15.1014 18.2106 0.805377 -0.552951 -0.213571
21.1158 25.0767 17.2916 -0.865384 0.427094 -0.262111
21.0619 14.987 12.0868 -0.106339 0.964638 -0.241176
14.1661 17.2076 13.0818 0.74194 0.586125 -0.325549
15.8219 23.683 7.07744 -0.877297 0.175038 0.446891
13.4999 14.8105 19.0599 0.936592 0.162927 0.310241
12.0072 23.4162 14.9014 -0.394829 0.903715 0.16556
13.7608 16.6636 17.1114 -0.475572 -0.733012 -0.486338
17.8714 23.6305 7.48201 0.167258 0.475279 0.863791
10.8915 19.0747 15.9372 0.779353 0.209271 -0.590606
12.1958 20.5847 13.5195 -0.399314 -0.914724 0.0618809
20.2659 21.1655 16.638 0.97735 -0.10545 0.183489
19.9806 25.2184 14.4107 0.629241 -0.40009 -0.666321
18.8242 15.8837 15.9933 0.352465 0.932773 0.0755253
20.0171 22.873 15.6308 -0.953679 0.0958779 -0.285138
15.0709 19.8024 15.7058 0.390621 -0.850503 -0.35222
21.3066 23.5278 19.3714 -0.610704 -0.789195 0.0649018
19.7108 15.5888 16.8972 -0.0519563 -0.31058 0.949126
18.369 20.6027 15.5258 -0.243999 -0.242022 0.93909
12.8792 14.2767 13.0913 0.0641487 -0.2367 -0.969463
19.9748 14.0022 19.2993 0.478748 0.838955 0.258757
15.2916 14.1454 14.9553 -0.302867 -0.863703 0.40285
15.2735 24.4259 19.2672 0.601906 0.0704309 -0.795455
20.5628 21.1708 9.85069 0.824935 0.545627 -0.147556
12.924 22.3554 11.1668 -0.605941 -0.143286 0.782499
19.0242 23.0974 9.94991 0.503355 0.637123 -0.583703
11.6534 19.2603 12.7336 -0.828433 0.0323426 0.559153
13.8038 14.3536 12.3611 0.3451 -0.138509 0.928289
20.0272 23.7574 7.4554 -0.648147 -0.323375 -0.689445
11.3743 16.1796 18.3415 0.314569 -0.530229 -0.787339
14.803 23.1192 18.8554 -0.374225 0.860718 0.345139
19.9565 19.56 14.6483 -0.369527 -0.882296 -0.291554
18.3655 14.13 10.0008 -0.995779 -0.0321744 -0.0859596
21.6378 23.4163 9.91974 -0.894152 -0.202807 0.399202
20.663 23.9198 10.9792 -0.619812 0.780798 -0.0786628
13.2198 21.4247 11.1119 -0.72757 -0.142609 0.671047
16.3009 25.275 13.6606 -0.346213 0.937872 -0.0230662
22.6267 15.8214 8.21872 -0.737583 0.200402 0.644833
14.3865 25.6191 8.80986 0.313636 0.71149 -0.62882
14.3041 13.9751 14.6768 -0.469339 -0.46262 0.752133
22.4159 18.9189 16.0431 -0.75874 0.278199 0.588999
17.0679 13.93 8.84286 -0.0585639 0.569538 -0.819876
18.9442 23.1236 13.7698 0.298691 0.329665 -0.895603
15.7075 19.0687 13.605 -0.349906 -0.868404 -0.351341
16.1398 13.5945 15.1469 -0.0794994 -0.0485113 0.995654
13.6809 20.5884 11.7965 0.994219 0.0244643 0.104545
16.5659 23.2559 14.1277 0.27385 -0.26512 0.924509
14.4852 17.5431 19.5996 -0.998588 -0.0457373 0.0270104
23.3127 25.8105 16.1028 0.835328 0.31182 -0.452765
13.8521 15.9554 13.0578 -0.438247 -0.394971 0.807427
23.536 25.0042 14.407 0.475041 -0.492283 -0.729379
11.469 25.4967 9.93246 -0.115003 -0.924321 0.363875
23.0169 15.221 14.9713 0.269413 0.270372 0.924292
14.9224 21.6956 8.43605 0.442673 0.594666 -0.671128
12.7909 16.0027 14.8331 0.27998 0.880672 0.382137
11.7048 18.3023 12.1376 -0.74416 0.667481 0.0263622
13.7464 23.4106 9.51694 0.546431 0.804941 -0.231265
17.0143 17.0813 13.9395 0.492598 -0.673547 -0.551073
12.8994 19.9535 15.2682 -0.0649058 0.896363 0.438543
23.6687 25.4961 17.4563 0.805129 -0.429638 0.408875
15.0268 25.651 17.0608 0.260699 0.0482698 0.964213
22.2146 15.8976 15.9307 0.61166 -0.564216 0.554557
21.2327 19.7554 8.0619 -0.178138 -0.154718 0.971766
22.7762 25.7929 13.7831 -0.646685 0.658107 0.385608
21.7776 20.8218 8.25034 -0.046707 0.768812 -0.637767
11.5078 18.7407 8.54547 -0.368326 -0.530026 -0.763812
11.7147 23.2542 19.2063 -0.236418 0.410865 -0.880509
17.1916 16.7476 9.42382 0.445585 0.786624 -0.427407
16.8858 24.945 15.3226 -0.743993 -0.107739 -0.659444
21.7831 16.3074 19.8808 0.0979984 0.0684476 0.99283
12.0243 22.7314 8.3903 0.952418 -0.161493 -0.258494
18.9948 13.6582 7.75154 -0.655925 0.674585 -0.33867
16.674 17.2272 12.0228 -0.49766 -0.86673 0.0333718
13.9588 16.8599 14.7359 0.602288 0.618614 0.504545
13.4917 19.5314 16.4853 0.000621134 -0.30413 -0.95263
12.906 16.8176 16.3819 -0.166807 -0.756197 -0.632726
16.2128 16.966 15.4361 -0.238524 0.294237 -0.92549
15.3951 17.4925 8.23997 -0.718534 0.342983 0.605038
16.7489 17.67 12.9441 -0.182865 -0.966978 0.177521
21.6793 14.5695 18.457 0.859869 0.451735 -0.237827
22.8744 18.8998 19.5639 -0.650253 -0.536321 -0.53808
20.9997 24.3179 7.18648 0.535547 0.441607 0.719843
10.969 17.0857 18.0462 -0.176278 -0.80161 -0.571269
11.294 19.9847 10.7198 0.010453 0.461818 0.886913
11.1071 21.1627 19.9415 0.416222 0.296868 0.859435
14.9406 19.6715 13.5086 0.331481 0.447046 0.830825
15.6747 17.1822 16.4979 -0.371597 0.445754 -0.814383
15.3175 13.5744 10.3363 -0.125479 0.992004 0.0135689
21.2438 15.1128 8.50347 -0.538043 -0.137514 -0.831625
12.1976 26.244 16.8575 0.326497 0.298651 0.896776
23.4219 18.0669 7.01078 -0.0411304 0.214756 0.975801
14.3044 21.4494 11.5462 -0.357137 0.0553244 0.932412
14.3091 26.4998 16.8005 0.0700032 -0.18098 -0.980992
12.681 17.8262 17.8747 0.387111 0.618836 0.683511
13.7882 17.1599 16.1359 0.100818 0.691833 0.714985
18.1837 20.2696 7.10502 -0.0147316 -0.438621 -0.898551
20.2111 23.0826 9.54546 -0.666846 -0.722432 0.182781
16.3143 21.0519 10.9605 -0.0517946 0.599176 0.79894
13.0239 16.0189 8.6517 -0.129081 -0.895964 0.424956
18.2602 24.9082 10.9787 -0.118659 -0.760592 0.638294
17.7732 13.5217 13.6549 -0.373968 -0.0822387 -0.923788
15.5833 20.1914 11.4577 0.390284 0.765535 0.511502
17.9581 21.1436 16.7678 0.932675 0.292892 0.21055
18.9932 14.2776 13.8893 -0.626681 -0.308048 -0.715805
23.4434 16.9154 15.096 -0.829109 0.226742 -0.511044
15.9176 18.178 8.91457 -0.437264 -0.491032 0.753451
17.6635 15.725 9.58417 0.623126 0.623463 -0.472237
13.2767 22.5191 15.9978 0.0253877 0.964935 0.261259
11.4913 21.2118 10.0005 -0.203968 -0.132043 0.970032
15.0064 19.8314 9.07557 0.674701 0.3678 0.639924
11.1449 24.7932 16.8043 -0.130078 -0.936188 0.326546
21.4554 17.8453 9.76822 0.751641 0.598142 -0.277962
17.0275 15.0283 8.99544 -0.336357 -0.688254 0.642783
16.5563 16.0269 19.4311 0.912001 0.323809 0.251797
16.5536 24.1054 19.0503 -0.0164459 -0.677776 -0.735085
12.4176 17.9451 16.4942 -0.403661 0.395749 0.824888
20.8449 17.1839 10.9566 0.177101 0.950619 -0.25487
17.1918 22.2175 12.6965 -0.70093 -0.671651 -0.239963
21.2156 16.8083 17.5678 -0.631393 0.382954 0.674306
20.5528 19.2703 7.32746 0.275176 0.458165 -0.8452
16.1553 18.4461 18.3081 -0.886675 0.415832 -0.202217
21.728 16.354 13.935 0.224638 0.524271 0.821388
21.8009 17.3668 19.3105 -0.0710903 -0.118104 0.990453
11.778 23.7877 13.8525 0.703837 -0.377074 -0.60202
23.0991 24.8854 11.0666 0.982419 0.0472556 -0.180609
19.5956 24.6833 8.22286 -0.393611 -0.810396 -0.433969
19.934 17.6647 16.5172 0.777321 0.24571 -0.579135
19.4927 19.7299 17.3428 -0.870265 -0.350267 -0.346341
23.2968 25.57 10.2474 0.518755 -0.544979 -0.658704
13.079 25.5799 11.2373 0.832777 -0.476533 -0.281777
22.7669 18.1829 10.2379 0.0404156 -0.965741 0.256342
23.4282 15.0398 10.3758 0.525736 -0.81925 0.228977
12.6275 16.0129 17.2386 -0.405126 -0.865717 -0.293952
17.9288 19.6198 15.36 0.953496 0.0923223 0.286917
11.4293 24.3749 15.9299 -0.00479036 -0.962223 0.272221
22.6622 19.9093 8.54844 0.0765831 0.739912 -0.66833
20.3565 25.8198 15.3316 -0.0928796 0.474471 -0.875357
18.6223 15.1746 13.5798 0.824872 0.202146 0.527943
18.6738 16.8465 11.4095 0.533791 0.486839 0.691415
23.2187 21.7398 19.6427 -0.589778 -0.245016 0.7695
16.1018 14.4703 14.0786 0.66194 0.0894464 0.744201
13.6557 21.296 7.33006 -0.441758 -0.0588006 0.895205
20.9524 15.7873 10.3659 -0.991182 0.132369 0.00611951
21.0113 13.9996 14.7982 -0.825464 0.0376128 -0.5632
13.3383 24.3559 15.8444 -0.522112 0.62082 0.584792
20.7592 25.297 13.1045 0.186911 -0.723857 -0.66415
13.972 15.1604 8.34045 0.645375 -0.613524 0.455059
16.7262 21.0897 19.54 -0.0933085 -0.862512 -0.497359
14.6472 22.3342 17.7836 -0.405319 0.874907 0.265056
10.8374 25.5126 7.0311 0.433225 0.0101506 0.901229
23.2765 26.281 14.8234 -0.971908 0.233493 -0.029602
14.8707 20.9148 13.8436 -0.119268 -0.571247 -0.812067
11.4354 16.2517 16.8746 -0.554171 -0.467176 -0.688942
