16.1072 0.473083 3.55214 0.470558 0.567877 0.675345
17.5438 0.972003 6.05763 0.343613 0.61703 0.707957
21.204 0.331102 4.46564 0.396805 0.689374 0.60606
22.6171 1.5835 3.56163 -0.409106 0.862814 0.29696
22.1099 27.8629 4.75119 0.382545 0.535535 0.752902
20.2384 3.9688 5.48235 0.368542 0.44838 0.814329
21.1228 3.2372 5.73746 0.392659 0.526296 0.754209
22.9221 2.27495 2.70955 -0.398455 0.862268 0.312614
22.2228 5.21805 3.71604 0.495313 0.426196 0.756982
19.7577 6.7863 4.42105 0.443259 0.195914 0.874723
22.9728 4.43383 3.69038 0.374735 0.383365 0.844159
8.11767 10.3345 5.93805 0.665217 0.460973 0.587358
25.4518 2.83131 2.9481 0.767914 0.135555 0.626045
6.28945 7.98122 5.19277 0.724225 0.340039 0.599893
5.05448 4.21068 5.81941 0.598462 0.264343 0.756284
12.4048 5.50759 5.97544 0.34174 0.457978 0.820652
6.58062 2.84567 4.79157 0.626582 0.0832511 0.774896
14.7373 7.95975 3.88599 0.330048 0.512153 0.792949
14.6758 5.65394 6.48951 0.440366 0.359052 0.822897
15.6409 7.98607 3.22896 0.255805 0.419152 0.871135
8.09425 2.58023 3.49185 0.742818 0.0942428 0.662827
15.5167 7.10296 3.91722 0.41962 0.366449 0.830442
16.0162 3.29388 4.84244 0.400382 0.347941 0.847721
16.9032 5.15376 3.76447 0.684473 0.203639 0.700019
16.4119 4.26348 4.36395 0.375386 0.181107 0.909003
15.9815 5.25161 4.47876 0.630267 0.315274 0.709483
17.1654 0.640346 3.06291 0.494786 0.405098 0.768819
19.096 8.5756 4.21268 0.618234 0.328325 0.714135
17.9047 2.61786 4.60189 0.284095 0.633308 0.719868
18.1954 8.35809 4.8875 0.676881 0.149974 0.720652
19.6173 5.83958 5.0974 0.450886 0.323558 0.831873
18.8793 7.46489 4.47406 0.500206 0.387022 0.774602
21.8913 1.60292 2.6847 -0.218327 0.962007 0.163941
17.7436 6.39383 5.68157 0.467956 0.429618 0.772299
22.1594 4.37888 4.54475 0.413627 0.584396 0.698137
22.3873 6.13217 3.10268 0.181246 0.405865 0.895781
21.2462 5.96425 3.62949 0.614826 0.330511 0.716066
26.1691 15.7838 7.64116 0.440704 0.408201 0.79947
6.34381 9.0284 4.63935 0.536509 0.169365 0.826724
4.01781 9.36812 6.44324 0.59789 0.24826 0.762164
5.0196 10.6909 5.29472 0.724387 0.37435 0.578901
5.53602 9.77312 4.90866 0.659281 0.283192 0.696528
12.4821 6.42646 5.33657 0.34479 0.322108 0.881684
12.0323 9.21823 4.39461 0.418205 0.35153 0.837575
13.8996 9.51135 3.01776 0.449301 0.5409 0.711024
11.6644 7.24229 5.41316 0.280069 0.456064 0.844729
14.4183 6.16074 5.17508 0.428874 0.452242 0.782013
13.7674 8.62817 3.79091 0.383716 0.460197 0.800613
16.759 8.15514 2.83374 0.0905073 0.527689 0.844602
13.6641 7.67038 4.27161 0.275588 0.433436 0.858012
16.3658 6.18099 3.95782 0.42483 0.349317 0.835163
17.9419 13.2193 3.35406 0.702253 0.15481 0.694892
17.4582 4.18331 3.74032 0.604428 0.227699 0.763426
17.8413 11.2247 4.28607 0.688951 0.328964 0.645856
17.7347 10.3219 4.92125 0.821857 0.231279 0.520636
18.6063 12.3115 2.83858 0.540624 0.277648 0.794127
18.4002 9.40939 4.5385 0.601543 0.261532 0.754816
19.3712 9.63498 3.9897 0.46813 0.387696 0.79407
17.8809 7.26705 5.04429 0.464033 0.414805 0.782694
26.0684 14.4558 5.09306 0.383807 0.597072 0.704413
19.9735 7.83935 4.12955 0.454704 0.268226 0.849293
25.4816 15.2781 4.59043 0.469329 0.538327 0.699953
21.4936 7.00065 3.06003 0.49863 0.266606 0.824797
24.9729 14.7447 5.34538 0.382287 0.69133 0.613122
25.546 14.0501 6.01364 0.468191 0.621989 0.627636
27.7309 15.9947 6.40201 0.506756 0.641486 0.575929
4.83468 8.60784 6.238 0.627588 0.349963 0.695456
5.60216 15.3738 2.48303 0.314574 0.446019 0.83792
4.14968 10.4457 6.13239 0.686253 0.242594 0.685715
4.76501 13.7845 3.43652 0.307182 0.226612 0.924276
9.87466 8.77112 5.50556 0.565689 0.378996 0.732365
5.65297 14.2881 2.94518 0.249824 0.226682 0.941384
10.9939 8.98025 4.88658 0.388144 0.363519 0.846875
6.01882 12.2993 6.28011 0.634343 0.289316 0.716872
12.8393 8.47132 4.50658 0.330188 0.346399 0.878057
7.76138 14.8787 18.1961 0.894781 -0.0900145 -0.437337
12.9255 9.3608 3.70552 0.326676 0.344698 0.880038
7.30903 11.0712 6.28119 0.653925 0.275973 0.704429
17.1357 13.0047 4.13307 0.676124 0.264381 0.68772
19.0864 14.4325 2.2621 0.638002 0.100975 0.763385
17.4397 14.0963 3.7677 0.661048 0.158167 0.733484
18.2846 14.2423 3.00865 0.659742 0.127303 0.740631
18.6169 11.3665 3.47991 0.603646 0.377224 0.702363
25.5966 17.9534 5.64144 0.608842 0.70435 0.36497
19.3209 11.5076 2.62452 0.53541 0.409801 0.738512
18.9546 13.6172 5.18769 -0.282492 -0.870399 0.403242
26.0934 15.9691 3.88955 0.485283 0.579872 0.654407
24.9129 16.1715 4.10983 0.465396 0.559553 0.685789
26.5586 13.6485 5.7171 0.483825 0.542795 0.686503
27.7479 17.4508 5.10616 0.442084 0.60155 0.665357
26.6857 16.3292 6.72845 0.492755 0.592183 0.637582
0.0982917 15.0502 6.80551 0.448083 0.599359 0.663317
27.0913 14.2026 4.81872 0.490418 0.596277 0.635566
1.95253 19.3743 5.48748 0.465689 0.657566 0.592233
3.92301 15.6303 3.34324 0.497612 0.328135 0.802938
27.7106 22.4728 20.9454 0.742214 0.420041 0.522191
6.52174 13.5787 2.68252 0.493483 0.536462 0.684605
4.77474 16.1109 2.83785 0.433956 0.241191 0.868049
6.57996 13.0082 5.54264 0.615923 0.181914 0.766515
8.15455 14.3556 4.51239 0.453156 0.387711 0.802701
5.79811 13.1501 3.46787 0.473716 0.408931 0.77998
5.99356 15.1161 5.2971 0.614115 0.311864 0.724985
6.81671 11.9433 5.56072 0.575964 0.23904 0.781745
20.7213 18.8906 0.329255 0.758188 0.00761122 0.651991
8.23185 15.9755 17.6308 0.893014 -0.292057 -0.342386
7.67567 12.4902 4.89373 0.84901 0.0939816 0.519952
18.0414 16.2249 3.22144 0.721513 0.0986827 0.685332
19.1595 18.4882 1.91159 0.744662 -0.0975194 0.660279
19.3834 15.5076 1.94439 0.681716 0.150658 0.715936
18.6408 16.3303 2.25138 0.767294 0.0908455 0.634829
19.8238 13.1549 4.60351 -0.303343 -0.860175 0.409979
21.1375 17.0189 0.163821 0.604046 0.159044 0.780919
26.217 18.6548 4.83033 0.609637 0.648812 0.455397
20.5955 14.8148 0.533855 0.879147 -0.00766823 0.476489
26.7955 19.1299 4.00407 0.418015 0.738233 0.52941
1.48116 18.6872 2.67548 0.282318 0.729016 0.623564
25.5263 16.7521 3.35041 0.449516 0.599325 0.662378
27.9273 18.8283 3.77347 0.429928 0.674198 0.600515
27.1867 16.869 5.88658 0.523376 0.612786 0.59209
1.8173 17.905 3.37759 0.41198 0.63453 0.653946
2.20979 16.9573 4.07334 0.247039 0.501778 0.82897
3.64391 17.8515 2.60303 0.0897378 0.578927 0.810426
3.12017 16.3613 3.66764 0.445077 0.383244 0.809339
2.98315 20.2997 3.76433 0.409387 0.610554 0.677957
27.0195 22.5402 21.8262 0.715537 0.411099 0.564805
4.05113 20.0017 3.51372 0.252544 0.826819 0.502585
6.39199 16.8044 4.34976 0.510923 0.197819 0.836556
27.0941 23.3566 21.0288 0.629437 0.53949 0.559249
7.31374 15.1378 3.82641 0.702269 0.224023 0.675746
6.44008 25.1487 7.1675 0.661824 0.385856 0.642731
7.04652 14.679 4.92733 0.418429 0.386926 0.821709
7.80323 25.9748 5.60958 0.599318 0.42715 0.677023
20.5724 17.8412 0.618832 0.636602 0.0760955 0.767429
7.01294 25.5137 6.27181 0.630965 0.358647 0.687936
19.6189 17.6333 1.24011 0.692223 0.0175616 0.72147
17.9133 27.9481 3.2086 0.419633 0.49425 0.761331
19.9301 18.7074 1.12841 0.757893 -0.0822226 0.647176
18.4726 25.5547 4.90822 0.418314 0.562609 0.713081
20.2799 16.738 0.794055 0.63285 -0.00682274 0.774244
18.535 26.3467 4.19725 0.370786 0.591608 0.715903
20.9431 15.9604 0.333416 0.637033 0.153193 0.75546
21.1405 27.8791 5.41622 0.375485 0.580843 0.722241
27.9895 20.0787 2.20286 0.635361 0.428504 0.642418
3.56131 20.8861 2.92471 0.482063 0.689755 0.540235
0.81731 18.361 3.55731 0.434972 0.668616 0.603119
2.08946 19.007 1.78852 0.216658 0.816038 0.535856
0.439965 20.7092 5.21206 0.51587 0.537764 0.666849
3.26477 18.6652 1.86329 -0.0642038 0.756266 0.651106
2.92227 17.4713 3.34635 0.186351 0.537848 0.822188
22.8697 1.85307 5.91007 0.524899 0.572237 0.6301
2.92579 18.9144 5.2604 0.495047 0.67704 0.544559
24.6805 2.85161 3.84693 0.692342 0.194938 0.694739
2.49893 19.9047 4.70268 0.461896 0.645775 0.607969
23.9648 0.885979 4.77642 0.631912 0.327075 0.702645
5.15082 24.2664 8.79533 0.680575 0.280417 0.676893
6.59732 1.73141 5.0249 0.725522 0.193581 0.660412
26.4436 23.4565 21.9389 0.704524 0.501011 0.502627
5.83218 0.168084 5.97264 0.747072 0.256694 0.613182
6.24256 27.2764 6.52195 0.714797 0.331228 0.615917
8.08187 1.51237 3.86883 0.641049 0.111433 0.759367
7.23315 26.923 4.83534 0.563016 0.32039 0.761816
6.57267 27.5893 5.47745 0.655521 0.410124 0.634106
19.0738 26.7047 7.20206 0.41568 0.459609 0.784838
16.8388 27.1543 4.61352 0.341385 0.560106 0.75481
17.7812 27.1515 3.9807 0.419678 0.420976 0.804145
18.2696 27.4716 7.04236 0.353338 0.564833 0.745732
20.0442 26.8857 6.71065 0.317618 0.562405 0.763426
16.9315 27.9119 3.76911 0.445329 0.509013 0.736605
18.7924 27.2356 3.44099 0.280514 0.541506 0.792517
19.1719 27.5396 6.38148 0.400807 0.572814 0.715009
1.70825 21.767 3.66244 0.468853 0.673278 0.571728
22.1298 0.434707 3.78649 0.444066 0.504781 0.740271
2.52057 18.1754 2.50232 0.125896 0.724494 0.677686
20.234 0.301827 5.04371 0.412715 0.66894 0.618212
1.09598 21.2689 4.44627 0.519746 0.49588 0.695678
21.3606 1.22496 3.70913 0.40429 0.506115 0.761838
21.9978 2.58006 5.9531 0.428656 0.6123 0.664337
4.82166 4.82549 8.72152 0.350177 0.529768 0.772478
8.39253 2.71862 9.55143 0.671925 0.477159 0.566424
23.8433 2.88987 4.57651 0.580259 0.384434 0.71799
24.4679 1.8918 4.36063 0.708574 0.17422 0.683791
8.37769 3.56382 8.80842 0.663322 0.452012 0.596397
9.34943 2.89128 8.8875 0.415337 0.549457 0.724977
5.1576 3.10605 6.0898 0.628931 0.152284 0.762401
5.82251 1.32914 5.76245 0.681132 0.155997 0.715349
11.2721 3.29234 7.60612 0.230691 0.377872 0.896657
14.2499 1.79599 8.8223 0.547215 0.793029 0.267694
14.3817 4.36358 5.53193 0.471549 0.127654 0.872551
7.40965 1.02962 4.58542 0.603016 0.0887013 0.792782
12.9623 2.67635 6.91494 0.467467 0.577642 0.669181
14.9798 1.25485 8.07465 0.387233 0.828933 0.403634
15.0224 3.40817 5.43044 0.439497 0.358854 0.823448
17.433 0.160431 6.84256 0.418989 0.584891 0.694515
14.8385 1.67741 6.87449 0.473512 0.619615 0.62599
19.1281 2.15734 7.61216 0.475067 0.574272 0.666726
16.721 1.70885 5.81112 0.362187 0.62689 0.689804
19.3402 0.244817 5.68954 0.361604 0.625815 0.691084
20.0636 2.26516 7.01882 0.398613 0.63195 0.66464
23.0713 1.32871 8.75175 0.344986 0.635979 0.690301
19.4139 4.77585 5.47451 0.442127 0.445046 0.778754
20.435 1.22689 4.38552 0.365677 0.634773 0.680694
21.0488 2.36587 6.47981 0.44453 0.581612 0.681264
24.6483 1.08694 11.3943 0.460964 0.31835 0.828351
21.3394 5.08768 4.35044 0.48221 0.528932 0.698358
21.2943 4.31849 5.26215 0.379183 0.47767 0.792497
4.7645 6.67128 7.3768 0.535839 0.46785 0.702846
7.65525 4.91768 7.86094 0.512838 0.556295 0.653861
5.49983 6.82225 6.49016 0.653566 0.381422 0.653735
23.04 3.68703 4.65531 0.529075 0.443257 0.723604
5.90994 7.6286 9.38058 0.786925 0.261256 0.559011
11.7031 4.71864 9.75007 0.52851 0.408425 0.744222
13.247 4.68494 5.80176 0.345884 0.354458 0.868748
5.91062 3.51823 5.33685 0.713241 0.108363 0.692492
9.47217 4.65546 7.3399 0.326038 0.396448 0.858212
12.084 2.58294 7.60263 0.537926 0.627455 0.562971
13.3858 5.76026 5.52778 0.304367 0.301015 0.903743
15.0854 5.25319 5.15599 0.60516 0.274664 0.747222
12.2233 4.48559 6.34773 0.434643 0.478203 0.763156
13.9311 2.32094 6.608 0.328483 0.651721 0.683637
16.4457 7.12302 3.28688 0.578932 0.432736 0.69107
16.9276 2.47433 5.04646 0.276285 0.611782 0.741208
14.909 2.4785 6.03908 0.31122 0.562115 0.766269
18.3238 2.89838 7.53511 0.488601 0.48105 0.727915
17.0512 7.90456 5.42807 0.411059 -0.156913 0.898003
17.7289 1.77646 5.29939 0.312755 0.644192 0.697998
17.3899 2.90248 8.19023 0.450795 0.433212 0.780456
19.8285 4.52495 8.95721 0.442343 0.547378 0.71043
16.9184 6.59114 6.4113 0.563887 0.544019 0.621349
20.3525 5.01102 4.95887 0.434761 0.429315 0.791625
20.7985 4.70949 8.24951 0.583501 0.427641 0.690399
3.9703 6.54623 8.27271 0.535501 0.280056 0.796748
20.6144 6.91605 3.75266 0.453174 0.310467 0.835609
20.4298 5.95437 4.36589 0.570828 0.365386 0.735288
27.8693 17.491 8.85842 0.471282 0.700975 0.535282
6.66099 8.84903 8.03678 0.608541 0.3277 0.722696
5.62264 8.85086 5.53318 0.611843 0.356989 0.705838
5.49124 7.80057 5.98107 0.753941 0.315868 0.576021
6.69533 9.89953 7.65828 0.659053 0.344394 0.668612
9.79564 6.7939 6.63663 0.478999 0.346667 0.806463
10.7193 7.04033 6.00599 0.453527 0.306187 0.836996
13.4437 6.72241 4.86923 0.292958 0.391369 0.872356
9.09311 9.58846 5.7243 0.6558 0.374947 0.655242
10.5028 4.99569 6.96538 0.42727 0.401697 0.809988
11.8095 8.21962 4.93597 0.357605 0.365195 0.859506
14.5012 6.94743 4.38805 0.380224 0.529618 0.758244
16.2986 11.838 5.36772 0.651019 0.309973 0.692886
16.7726 5.35752 6.64667 0.317144 0.333632 0.887755
17.0803 12.0235 4.60114 0.780351 0.157095 0.605288
15.3756 6.20058 4.62579 0.483828 0.464957 0.741434
16.5127 13.9037 4.44145 0.576229 0.316417 0.753552
17.5719 4.50938 6.75255 0.399685 0.545883 0.736386
18.5328 10.3999 4.03876 0.604634 0.338263 0.721107
17.71 9.20381 5.41171 0.660171 0.268463 0.7015
18.5832 8.00429 7.56579 0.354997 0.3981 0.845868
19.3755 3.87039 6.18037 0.383603 0.578856 0.719566
24.3864 15.5751 4.89214 0.514112 0.52743 0.676392
18.738 6.53438 5.07564 0.469062 0.491025 0.734081
18.6632 5.60416 5.64921 0.253508 0.457594 0.852256
4.01662 8.40382 6.98291 0.517645 0.293792 0.803573
25.8741 16.8342 7.32359 0.609981 0.301502 0.732816
27.2366 15.494 7.29086 0.438068 0.599308 0.67002
0.220866 17.8655 7.86328 0.483198 0.617733 0.620423
5.83226 10.6403 7.87229 0.543521 0.533613 0.647952
3.89492 14.5776 3.80834 0.63904 0.268115 0.720931
4.80612 9.63608 5.7333 0.676324 0.271711 0.68466
3.20158 16.5497 6.80428 0.480644 0.234686 0.844928
7.48472 10.0684 6.8453 0.624112 0.348165 0.699475
5.13759 12.6914 6.84057 0.648558 0.164855 0.743098
10.7944 8.05401 5.47063 0.451605 0.455337 0.767282
5.30042 14.4186 5.90502 0.560997 0.142326 0.815491
9.04201 8.55375 6.28291 0.565558 0.290071 0.772012
5.81829 11.6974 7.20754 0.641486 0.25756 0.722605
12.6992 7.52417 5.05777 0.237021 0.359161 0.902676
12.0963 18.4283 9.5685 0.327657 0.714262 0.618442
15.567 12.7247 5.7261 0.730776 0.455179 0.508702
17.7168 15.1606 3.41344 0.695765 -0.0616705 0.715617
17.901 12.2321 3.82659 0.652879 0.270633 0.707465
13.7473 17.038 10.0093 0.307075 0.63679 0.707251
20.0384 8.96866 6.45947 0.139164 0.438579 0.887852
20.0009 13.3435 5.69857 -0.0422438 -0.88205 0.469259
19.3984 10.5603 3.28274 0.535389 0.47569 0.69791
25.5164 21.8309 6.21322 0.338316 0.413756 0.845191
20.3588 7.32571 6.96762 0.372922 0.418167 0.828291
26.704 17.7783 5.36121 0.56094 0.604905 0.565187
26.5127 15.0154 4.26353 0.421493 0.514064 0.747049
27.4356 19.7265 6.91341 0.280046 0.492452 0.824054
26.1694 17.1301 6.16308 0.55781 0.586067 0.587685
0.0641063 16.5205 5.53615 0.506639 0.634456 0.583766
0.689934 15.7335 6.08017 0.536383 0.418351 0.732991
1.36432 18.9887 6.35942 0.426102 0.642749 0.63664
2.83206 17.5682 6.43219 0.463927 0.480965 0.743938
3.07038 15.3354 4.0997 0.650797 0.315414 0.690635
4.64682 14.8297 3.04718 0.555879 0.312492 0.770291
4.57761 17.76 5.40241 0.45884 0.407386 0.789622
3.36145 15.2237 6.94008 0.579364 -0.146845 0.801732
5.75557 16.1902 5.18021 0.496872 0.297955 0.815071
5.72507 13.393 6.20599 0.596112 0.247823 0.763698
4.14486 15.9718 6.30292 0.644808 0.196553 0.738641
11.2376 19.1247 9.2815 0.35916 0.703298 0.613495
6.40501 14.1125 5.61983 0.589305 0.249061 0.768563
7.80355 11.3701 5.31081 0.688563 0.395449 0.607866
10.474 19.3383 10.1073 0.362003 0.665771 0.65246
12.726 16.8896 10.4334 0.366238 0.630624 0.684239
18.7674 17.4352 1.95636 0.583 -0.0864765 0.807857
18.5438 15.2951 2.6649 0.634977 0.0156788 0.772372
22.2834 23.3024 7.20834 0.112413 0.650301 0.751314
24.861 21.139 6.85568 0.273455 0.385466 0.881271
19.8688 14.675 1.45122 0.677364 0.231627 0.698232
18.7418 13.3869 2.53139 0.623259 0.0241538 0.781643
23.1325 23.613 6.61903 0.312744 0.362456 0.877962
25.8809 20.8287 6.58926 0.199773 0.296238 0.933988
27.5192 19.5852 3.10615 0.526728 0.643754 0.555102
27.3156 18.3439 4.60038 0.484707 0.706904 0.515118
24.489 22.1821 6.45363 0.426078 0.144114 0.893134
1.84466 17.9718 6.6648 0.554697 0.447532 0.701446
0.237164 17.9966 4.3786 0.472631 0.596777 0.648442
1.2001 17.4236 4.27528 0.337239 0.545988 0.766921
23.7434 25.8818 10.7141 0.496718 0.588596 0.63783
5.2096 18.2868 4.57067 0.323394 0.432303 0.841743
4.64496 19.2944 4.22344 0.12316 0.652555 0.747665
3.88793 16.803 3.00024 0.343687 0.470207 0.812886
5.1226 21.9854 10.5762 0.641708 0.432226 0.633555
4.79062 16.6732 5.6057 0.604443 0.335291 0.722654
5.82519 24.708 7.96095 0.666614 0.344248 0.66115
6.65482 15.7273 4.63268 0.596991 0.373167 0.710174
6.42779 22.5162 8.86284 0.429476 0.669855 0.605677
9.66241 20.7521 9.08679 0.23351 0.673045 0.701772
6.26649 26.193 6.82677 0.770805 0.287721 0.568398
7.38917 13.5506 4.93821 0.415379 0.186869 0.890247
7.3682 24.61 6.7755 0.567144 0.34996 0.745571
20.6152 25.0077 7.30774 0.481168 0.343311 0.806607
19.8671 25.8664 7.28184 0.390938 0.476437 0.787512
19.4107 16.5458 1.47782 0.735208 0.0710683 0.674106
17.2756 26.799 8.62029 0.533569 0.533932 0.655912
22.5751 25.3433 6.11856 0.423448 0.38332 0.820827
20.9553 26.9134 6.02263 0.365342 0.625275 0.689605
20.0146 15.6938 1.08341 0.778167 0.0797993 0.622967
21.9607 27.1082 5.61522 0.387049 0.500111 0.77465
24.1595 23.2844 6.36392 0.354579 0.361184 0.86245
1.05108 19.5431 2.02426 0.318161 0.751341 0.578153
0.457957 19.1822 2.89638 0.390794 0.73253 0.557386
23.5021 27.7086 9.73037 0.26086 0.532715 0.805088
0.921188 19.8787 5.77126 0.485572 0.575583 0.657969
1.48784 20.3487 4.96813 0.497842 0.57203 0.651871
2.10352 20.8114 4.17756 0.503149 0.531952 0.681079
25.2048 27.5386 12.3515 0.247459 0.556886 0.792869
4.12236 22.5179 10.7173 0.59686 0.530682 0.601777
23.699 2.01801 5.17749 0.596621 0.445098 0.667781
3.51351 19.5376 4.43514 0.363551 0.695799 0.619431
10.2652 2.30853 8.93785 0.364994 0.501427 0.784443
5.71532 22.2053 9.67162 0.441327 0.575161 0.688782
5.02235 0.902459 6.41067 0.677331 0.317534 0.663622
5.66894 25.7953 7.67279 0.704679 0.333059 0.626498
14.3356 1.67153 9.92123 0.451638 0.852647 0.262711
6.04775 23.6691 8.30681 0.580608 0.415823 0.699989
7.23043 28.043 4.67015 0.612717 0.198985 0.764842
6.82992 26.5496 5.88956 0.648163 0.332891 0.684886
16.2716 1.41756 10.0443 0.374499 0.819921 0.43299
17.0761 0.565738 10.5246 0.26758 0.633331 0.726149
18.0955 26.6299 7.86881 0.528509 0.476841 0.702354
17.593 26.3021 4.77009 0.406045 0.619379 0.671935
16.468 0.235961 7.47043 0.525758 0.499467 0.688557
20.8161 26.0276 6.70849 0.379938 0.496859 0.780242
18.3683 0.209322 6.25768 0.438208 0.610721 0.659541
20.1786 27.6794 5.93557 0.427043 0.514314 0.743717
19.8345 0.491129 8.45346 0.462993 0.645117 0.607833
21.0918 27.6886 10.4806 0.445548 0.487651 0.750788
19.468 1.05732 4.91821 0.359444 0.626185 0.691876
2.63353 21.2711 3.35533 0.465879 0.583161 0.665492
21.8636 0.331859 10.0567 0.399357 0.435506 0.806752
23.2084 26.8109 10.4436 0.336969 0.519924 0.78494
21.9351 1.5699 6.56878 0.508031 0.489724 0.708573
23.88 0.621905 9.25277 0.188735 0.732146 0.654478
6.76963 5.80793 9.96923 0.724996 0.562335 0.397694
6.84648 4.33339 11.7911 0.873204 0.336591 0.35245
7.78448 3.76172 9.80869 0.784032 0.356452 0.508169
9.25589 1.9751 9.52664 0.404623 0.413685 0.815564
7.09587 4.01231 10.7167 0.84128 0.239375 0.484714
11.0581 1.47759 8.91961 0.450223 0.297466 0.84191
11.2009 3.94374 10.5498 0.596081 0.364384 0.71548
10.1851 3.27421 8.28831 0.530575 0.388149 0.753545
12.3325 1.85788 10.9125 0.334433 0.681074 0.651378
12.3738 1.6467 12.1952 0.609039 0.60663 0.510951
13.9522 3.099 8.77064 0.69576 0.47215 0.541288
15.2564 1.43238 9.30197 0.522701 0.812669 0.257588
13.4179 2.22007 9.47461 0.475563 0.721383 0.503435
16.3939 2.74826 8.71883 0.303272 0.395054 0.867155
14.0213 1.71793 7.60985 0.355689 0.833126 0.42354
15.7916 1.59354 6.29568 0.368664 0.658123 0.656476
16.5135 3.61737 8.01427 0.452707 0.441453 0.77471
19.7736 2.79482 10.4027 0.491023 0.561913 0.665695
19.2141 2.99509 6.91167 0.437487 0.588907 0.679555
20.0534 1.43496 7.80284 0.480728 0.637246 0.602344
21.4435 2.10698 9.43497 0.41312 0.531372 0.739578
21.3104 1.27571 10.1174 0.517081 0.566505 0.641638
21.6513 4.00193 8.26457 0.548687 0.485957 0.680285
22.7438 0.34866 9.42222 0.423731 0.522593 0.739831
22.4825 3.27932 8.22731 0.235822 0.457269 0.857493
22.6147 0.916857 12.325 0.257707 0.55785 0.788917
3.83619 5.41776 8.54204 0.451765 0.285617 0.845181
5.80816 5.12664 8.18406 0.170465 0.681909 0.711296
5.58356 5.8314 7.16662 0.484239 0.653038 0.582284
7.42753 5.59657 9.12867 0.678116 0.581309 0.449708
5.90037 8.62104 8.83491 0.668988 0.34278 0.659513
7.82184 4.4901 9.02403 0.711449 0.458196 0.53282
7.26942 7.03608 8.10288 0.574901 0.339806 0.744325
10.8376 3.10763 11.276 0.441184 0.419449 0.79336
9.61508 5.72338 6.95773 0.457305 0.275223 0.84565
12.1319 3.73977 9.99987 0.551033 0.327026 0.767734
8.69277 5.3884 7.49104 0.386991 0.357144 0.850109
12.6348 2.66273 10.1579 0.465851 0.572566 0.674649
11.5222 6.22831 5.84565 0.333264 0.325291 0.884941
13.0811 3.71945 6.34299 0.507636 0.318907 0.800378
12.2615 3.67272 7.16808 0.359633 0.603757 0.711436
14.6372 4.23008 8.41782 0.464293 0.462385 0.755402
15.773 5.25441 7.15533 0.263884 0.41131 0.872462
14.0802 3.30197 6.0406 0.368287 0.493611 0.787853
14.6766 4.98779 7.53579 0.499861 0.473824 0.725003
20.5902 2.92011 9.60381 0.522137 0.450329 0.724277
17.4541 3.6635 7.40449 0.426661 0.47462 0.769868
18.2496 2.11409 8.29615 0.429001 0.548597 0.717635
20.755 8.74758 13.6333 0.614457 0.249439 0.74848
21.4458 3.0393 8.77148 0.346212 0.462745 0.816091
19.0797 6.19507 8.08929 0.382682 0.405469 0.83015
20.1806 3.09312 6.28112 0.404883 0.59662 0.692903
19.0314 5.29617 8.89391 0.507687 0.500267 0.701417
4.80722 5.67087 7.98944 0.397751 0.644625 0.65288
3.9969 7.46384 7.56027 0.595865 0.362593 0.71657
4.81102 7.62606 6.8154 0.657815 0.355457 0.664025
25.6223 5.45396 10.0469 0.918749 0.295038 0.262399
9.6667 5.15941 9.44459 0.796925 -0.562189 0.221028
5.80563 9.58466 8.33517 0.606308 0.401519 0.686421
6.63025 7.79351 8.5202 0.64728 0.334142 0.685112
10.668 5.70448 8.91365 0.905479 -0.424383 -0.00267352
7.99576 6.22808 7.83148 0.502362 0.302377 0.810062
7.4256 9.07873 7.27355 0.57353 0.343603 0.74364
10.6056 6.00779 6.53542 0.518236 0.256728 0.815796
8.17124 7.32071 7.47666 0.579449 0.317306 0.750704
10.4149 4.06151 7.60322 0.235833 0.507351 0.828841
9.05409 7.57898 6.88902 0.59171 0.353896 0.724318
11.4619 5.262 6.48385 0.482423 0.27934 0.830203
8.75972 11.4139 15.6701 0.901125 0.287603 -0.324436
13.6952 4.26659 8.9354 0.468369 0.434362 0.76939
16.4337 12.9309 4.98096 0.675638 0.204458 0.708315
16.6179 4.4322 7.2945 0.330372 0.492681 0.805059
13.1934 13.732 13.1987 0.42594 0.588899 0.686858
19.317 10.4255 13.8305 0.646206 0.268634 0.714321
18.6952 8.84388 6.80902 0.53251 0.413301 0.738658
18.4038 3.76104 6.86253 0.406472 0.504015 0.762069
20.2854 10.5649 13.1894 0.582763 0.29556 0.756988
17.6865 5.30018 5.92786 0.229231 0.467122 0.853962
19.2866 7.18052 7.4853 0.311567 0.367109 0.876446
19.9369 5.4091 8.24585 0.505781 0.462394 0.72827
23.9146 7.68757 11.2941 0.709258 0.310011 0.633124
25.1101 6.42052 10.1349 0.91474 0.340364 0.217721
27.9069 18.8044 7.38974 0.396245 0.57422 0.716423
0.664888 17.0178 8.44363 0.450097 0.576626 0.681847
23.8818 25.4085 15.2328 0.150927 0.275685 0.949325
5.02382 9.24049 9.17497 0.616402 0.597628 0.512728
2.33004 17.125 7.30733 0.481193 0.481299 0.732669
6.56187 10.8166 7.05778 0.571697 0.324599 0.753524
4.80234 15.7495 15.9625 0.690279 0.467315 0.552387
11.0777 6.65155 8.49825 0.879101 -0.416884 0.23106
4.60202 13.7091 6.47816 0.416309 0.283281 0.863967
8.17843 9.25462 6.3747 0.555004 0.360955 0.749454
9.09917 17.5472 12.0019 0.543997 0.621 0.564292
8.03076 12.6885 14.4041 0.895021 0.443486 -0.0475147
11.9911 17.6792 10.377 0.426009 0.602296 0.675097
9.80882 7.76139 6.04647 0.580063 0.20779 0.787623
10.8528 16.7687 11.6692 0.481582 0.522911 0.703309
13.3766 14.5694 12.3242 0.461713 0.633172 0.62122
13.5792 16.0911 10.614 0.269885 0.671786 0.68983
15.7363 13.8182 5.25389 0.527707 0.374379 0.762473
14.2381 14.5542 11.6809 0.466069 0.599296 0.650865
18.6536 12.3093 13.2661 0.503161 0.424198 0.752917
24.4777 19.4169 7.55681 0.355676 0.248105 0.901076
19.549 8.10769 6.94317 0.431356 0.272023 0.860195
24.7647 18.3249 7.70318 0.343349 0.278171 0.897069
23.3565 8.62598 11.4917 0.699739 0.289221 0.653235
26.2668 19.8163 6.8277 0.191939 0.373231 0.907666
20.0526 6.32648 7.56272 0.306292 0.354512 0.883463
27.3352 18.2689 8.19669 0.396087 0.6153 0.681557
25.9174 7.04731 8.38271 0.529956 0.27301 0.802878
0.847741 18.4992 7.16704 0.382819 0.611168 0.692765
1.27552 17.541 7.56791 0.394629 0.574276 0.717269
22.164 24.9401 13.0713 0.135938 0.462358 0.876211
4.42474 17.4639 14.6709 0.809099 0.500427 0.308109
3.50037 18.0695 5.70082 0.293713 0.537138 0.790706
3.79526 17.0305 5.94805 0.550077 0.41509 0.724648
4.22908 18.523 13.9602 0.55772 0.365148 0.745396
7.57475 18.4747 12.7881 0.524508 0.535852 0.66163
5.0918 15.5672 5.76347 0.542767 0.0432733 0.838768
4.30601 14.8552 6.20326 0.354378 0.00104164 0.935102
7.59948 19.2482 11.918 0.503246 0.688939 0.521639
10.9637 17.5709 10.8717 0.400221 0.679302 0.61512
9.52691 19.8683 9.73941 0.308444 0.638811 0.704828
11.1454 18.3295 10.1036 0.390126 0.650943 0.65121
10.1842 18.3538 10.6561 0.403548 0.631233 0.66234
12.6487 16.1042 11.2803 0.348539 0.681929 0.643034
20.6644 24.1389 8.14568 0.398361 0.45257 0.797802
12.9017 17.6785 9.56456 0.342934 0.643057 0.684744
12.2749 14.2662 16.1002 0.0418073 -0.285495 0.957468
23.3912 19.7539 7.76199 0.428722 0.223293 0.875407
22.3309 24.3678 6.56997 0.33781 0.406693 0.848814
25.1939 20.1435 7.08101 0.233704 0.296993 0.925839
24.1448 20.4838 7.38953 0.370309 0.164165 0.914287
25.5764 19.1153 7.36855 0.257803 0.317865 0.912414
23.4764 22.6318 6.94371 0.56427 0.255801 0.784962
26.9339 20.5772 6.2309 0.207301 0.401536 0.892074
20.822 23.769 13.7752 0.193677 0.429907 0.881856
22.9282 24.1131 13.2934 0.104998 0.685729 0.720244
0.371325 19.3643 6.61532 0.436009 0.54005 0.71989
28.0986 20.2869 6.1549 0.476142 0.510579 0.715959
24.733 26.557 12.844 0.0395396 0.365565 0.929945
3.85217 20.409 12.7279 0.514076 0.544389 0.662847
4.8084 22.8262 9.8529 0.461955 0.552514 0.693776
4.0565 18.6639 4.88961 0.186103 0.633667 0.750887
4.47056 21.6178 11.3976 0.487013 0.487916 0.724401
6.26486 18.7056 13.6116 -0.00609849 0.500984 0.865435
6.70484 21.6348 9.48882 0.497353 0.635972 0.590068
5.46372 17.2844 4.92406 0.533868 0.348767 0.77029
6.73607 19.9128 12.0124 0.374977 0.744488 0.552386
8.39117 19.2001 11.0677 0.515631 0.649288 0.559061
7.01407 23.2146 8.06988 0.629547 0.52916 0.568911
10.5385 20.0502 9.21109 0.236904 0.62719 0.741963
15.1274 0.621378 11.3881 0.432843 0.695198 0.573887
13.3479 14.027 15.7591 -0.0079214 -0.28834 0.957495
17.9736 0.0107408 10.8222 0.340991 0.610783 0.714611
21.3069 24.1402 7.06404 0.458427 0.436886 0.773935
18.1979 1.30501 9.03195 0.336358 0.639661 0.691156
22.7692 21.8627 7.62818 0.393249 -0.0116814 0.919358
21.5598 25.1456 6.63494 0.437526 0.427311 0.791187
23.4984 24.4488 6.08337 0.562056 0.211992 0.79947
18.9087 28.0809 10.168 0.277695 0.627983 0.726996
21.3964 25.6908 12.7538 0.146004 0.639497 0.754803
21.8854 26.965 10.8049 0.324955 0.604559 0.727264
25.2171 23.0144 6.19418 0.304238 0.228841 0.924701
20.5443 26.1586 12.0522 0.154372 0.637521 0.754809
21.8657 23.9274 13.4144 0.0392835 0.540401 0.84049
22.6112 26.0238 10.9826 0.510036 0.526187 0.680434
24.2518 26.7261 9.81663 0.153766 0.318951 0.935215
23.3296 0.095767 12.4253 0.321663 0.56256 0.761617
4.61078 20.7207 11.976 0.47995 0.497881 0.722331
10.0883 1.28465 9.43134 0.395281 0.59327 0.701273
6.01945 21.3315 10.3176 0.535146 0.573324 0.620418
7.80763 2.99527 10.5443 0.822555 0.348853 0.449115
5.57236 20.1032 11.8771 0.386012 0.699039 0.601946
11.1402 2.40768 8.28961 0.482809 0.272855 0.832133
5.5006 23.1181 9.04861 0.495321 0.565047 0.659833
11.9354 0.658664 8.74125 0.334774 0.550529 0.764751
14.1745 0.767451 11.9731 0.298095 0.801195 0.51887
15.2435 1.21727 10.4506 0.254637 0.887199 0.384757
6.53826 24.061 7.45791 0.713148 0.414035 0.565681
14.2847 1.36381 10.9999 0.35958 0.80843 0.465986
15.6578 27.1541 12.3843 0.308725 0.652471 0.692077
15.6968 0.998651 7.25519 0.526109 0.584136 0.618057
16.4468 27.5247 8.28994 0.523669 0.505366 0.68584
17.3098 1.33665 9.7088 0.341762 0.567288 0.749255
18.9277 0.553057 9.21826 0.377392 0.683667 0.624639
19.0671 1.27763 8.3497 0.440684 0.572257 0.691607
21.7587 26.1024 6.07205 0.422338 0.489034 0.763201
20.5316 2.05178 10.3164 0.530606 0.542507 0.651263
21.6168 26.3338 11.8444 0.0687438 0.695491 0.715239
22.1456 1.25999 9.34819 0.450806 0.49264 0.744366
22.4628 27.5476 10.048 0.371993 0.438188 0.818299
23.9118 1.94311 11.1624 0.515306 0.179615 0.837973
22.9012 27.1688 12.8558 0.407549 0.284839 0.867623
24.3766 0.13856 11.9715 0.222931 0.443404 0.868156
23.5833 0.967379 11.7504 0.387613 0.389028 0.835712
25.4128 2.42368 16.6093 0.325985 0.684688 0.651871
25.0606 1.36247 17.1994 -0.110098 0.420927 0.900388
6.75157 5.03737 10.8952 0.780375 0.291098 0.553423
7.38548 3.2538 11.6104 0.890887 0.395399 0.223561
26.6012 2.43309 13.7391 0.487532 0.690405 0.534466
11.7316 26.6914 18.0576 0.506587 0.511612 0.693991
11.3825 2.12451 11.3845 0.296655 0.472659 0.829813
11.8146 1.49408 8.06073 0.521849 0.538491 0.661589
10.2081 4.11777 10.9903 0.670468 0.160274 0.724421
15.3452 0.0988095 15.0683 0.19685 0.62336 0.756751
13.3865 1.79498 10.4593 0.416552 0.807153 0.418317
13.276 1.31819 11.5131 0.480713 0.698367 0.530281
15.378 5.37433 10.4713 0.583495 0.0960842 0.806412
15.9062 27.8888 11.5465 0.293133 0.743338 0.601266
15.3661 3.34463 8.53819 0.37389 0.342049 0.862096
17.3192 2.0858 8.92694 0.295925 0.591082 0.750367
16.8557 4.10705 9.90906 0.666078 -0.269967 0.695311
18.7165 1.27293 13.1643 0.167453 0.642651 0.747635
20.7295 3.89716 9.02901 0.534476 0.465066 0.705726
19.7605 2.01974 11.2913 0.430573 0.649855 0.626335
20.8126 4.5993 11.8401 0.59662 0.424121 0.681297
21.3932 0.101166 13.5857 0.253829 0.646174 0.719743
22.2821 2.26347 8.67101 0.352318 0.410604 0.840997
23.1713 2.88884 11.2628 0.501415 0.180051 0.846265
22.6039 4.67919 10.5118 0.538882 0.368142 0.757679
23.6114 1.53993 14.2811 -0.0196758 -0.17637 0.984127
5.95714 6.60335 9.91626 0.778918 0.412465 0.472397
6.72505 6.85386 9.12289 0.752901 0.242743 0.611732
23.6293 3.17168 14.0446 0.484746 0.745695 0.457123
26.4992 2.14665 14.8312 0.286414 0.755859 0.588765
9.54592 5.36753 10.8268 0.682297 -0.289712 0.671221
7.47855 4.88918 10.0953 0.764 0.337013 0.550205
25.5172 2.44304 15.3308 0.415713 0.735437 0.535084
9.48936 4.39939 11.8171 0.696537 0.296316 0.653478
8.51763 4.24401 7.76551 0.363041 0.37078 0.854824
11.7282 2.92345 10.668 0.446851 0.419722 0.790037
12.222 2.38229 13.3797 0.76369 0.266199 0.588146
14.349 3.87316 11.7706 0.458834 0.320783 0.828595
12.723 4.52111 9.40871 0.576972 0.331457 0.746485
13.0206 3.39951 9.45784 0.611645 0.510833 0.604102
12.8516 5.10941 12.0455 0.384121 0.354397 0.852557
16.4686 5.17042 10.0886 0.626083 -0.118991 0.770624
13.817 5.07122 8.20329 0.591756 0.433445 0.679669
15.6178 4.38704 7.80194 0.408282 0.531059 0.742484
14.3622 5.62126 10.9523 0.43 0.224661 0.87443
20.8682 3.88712 12.7673 0.565768 0.327353 0.7568
20.0667 9.61336 13.7394 0.528111 0.302538 0.793454
19.8049 3.65846 9.64755 0.508289 0.485159 0.711521
20.0347 6.76616 14.4601 0.532602 0.137932 0.835051
21.6646 3.82144 11.9793 0.550077 0.32846 0.767808
18.3111 7.0157 8.00776 0.364153 0.471869 0.802952
23.3857 4.97384 9.61408 0.289979 0.53973 0.790319
21.4521 5.81448 13.83 0.537339 0.297177 0.789274
23.6638 3.2888 15.2824 0.391909 0.86083 0.324622
24.6133 6.7194 11.2103 0.795351 0.369799 0.480276
25.2834 5.81047 11.1525 0.771139 0.417502 0.480663
24.1556 4.97016 12.6466 0.545122 0.301802 0.782149
24.6104 3.14528 13.3464 0.373471 0.66309 0.648715
10.6222 5.64089 10.2811 0.743332 -0.47289 0.473109
6.77442 5.60857 7.75997 0.387941 0.585062 0.712183
4.84093 14.7428 17.5939 0.62649 0.705747 0.330804
11.4 4.43683 13.2718 0.529059 0.308862 0.79038
7.36092 8.03544 7.66574 0.500039 0.416087 0.759495
8.93995 6.54107 7.30204 0.465697 0.280357 0.839361
9.3284 13.4303 16.5989 0.279822 0.749859 0.599509
12.4138 4.31673 12.8004 0.481101 0.346494 0.805285
7.68526 12.0538 15.4232 0.923797 0.375463 -0.0750094
11.4101 4.34363 7.25679 0.244008 0.388972 0.888347
11.0362 12.9976 15.2076 0.329889 0.686939 0.647524
12.2535 6.03514 11.8082 0.318446 0.287872 0.903173
12.2142 13.7287 13.7526 0.465968 0.716743 0.5188
12.9308 5.40911 8.72555 0.506686 0.330354 0.796326
12.7934 12.1474 14.7679 0.382727 0.696865 0.606547
18.4848 7.43299 15.1847 0.339826 0.35158 0.872301
18.5104 11.2391 13.7282 0.480215 0.339238 0.808895
20.9142 9.66039 12.911 0.681771 0.285442 0.67358
19.8051 8.71637 14.3329 0.545143 0.269788 0.793746
22.9464 6.92412 12.9706 0.502627 0.339617 0.795001
23.017 7.66238 12.0483 0.588517 0.274391 0.760498
18.5222 4.57329 6.08613 0.328085 0.479831 0.813709
22.2066 7.82752 12.8202 0.617094 0.21329 0.757432
23.2635 5.0202 13.3442 0.506295 0.302232 0.807664
24.9791 7.13039 9.32368 0.828706 0.371928 0.418229
25.5357 6.16105 9.08335 0.842516 0.235319 0.484554
2.97714 17.2357 17.6964 0.718584 0.522562 0.458875
4.34642 15.6767 17.0047 0.783041 0.483236 0.391574
4.77392 16.6935 15.4693 0.764162 0.376153 0.52399
11.5768 6.18889 9.71563 0.846528 -0.532344 -0.000731239
4.15393 16.5962 16.4001 0.772698 0.456417 0.441159
7.32082 13.534 16.4541 0.332767 0.729537 0.597529
8.38716 17.711 12.7925 0.564474 0.5216 0.639768
8.20742 8.33203 7.01498 0.525376 0.270004 0.806894
7.75516 15.8212 14.0364 0.0187376 0.703393 0.710554
11.1654 13.6161 14.2625 0.332274 0.708934 0.622099
10.0556 17.5605 11.4581 0.408183 0.687616 0.600476
8.61278 11.6476 14.5821 0.897644 0.414216 -0.150532
9.5308 14.5368 14.6911 0.455699 0.652421 0.605546
11.9572 12.8801 14.5261 0.480577 0.722306 0.497312
12.4928 15.2407 12.0422 0.314609 0.597354 0.737692
12.3971 14.4449 12.876 0.312794 0.593196 0.741807
11.5824 15.2396 12.7218 0.327135 0.727205 0.603453
18.3581 10.3771 14.4832 0.660916 0.374517 0.650329
22.2769 19.9133 8.24413 0.153673 0.410607 0.898769
19.4688 11.4211 13.2059 0.479122 0.293362 0.827273
20.1142 11.5449 15.6647 0.409724 0.166464 0.896892
21.6128 8.74273 12.9192 0.620477 0.180712 0.76312
25.894 18.0432 7.57799 0.382912 0.332767 0.861768
24.6108 7.50445 10.331 0.810956 0.260404 0.523965
22.6849 12.6212 16.9804 0.43965 0.411543 0.798336
23.7947 6.78397 11.9865 0.759907 0.286038 0.583716
23.5509 24.3633 15.4005 -0.0240093 0.250643 0.967782
23.3186 25.172 12.9567 0.060222 0.544372 0.83668
2.17489 20.8334 15.1843 0.766759 0.422175 0.48358
3.5052 17.4207 16.7078 0.731887 0.623715 0.274446
4.15885 19.5523 13.5379 0.581765 0.457035 0.672806
5.47043 15.8736 15.1006 0.721092 0.363753 0.58967
3.33353 20.2304 13.8086 0.698237 0.495081 0.517069
7.42603 14.2157 15.5701 0.182907 0.82334 0.537267
7.16858 19.6327 13.2029 0.42347 0.628692 0.652242
8.4473 18.4934 12.0211 0.584825 0.570359 0.576776
3.58827 18.2562 14.9185 0.656968 0.417569 0.627718
8.67763 15.2109 14.4286 0.243451 0.677103 0.694452
9.22347 18.3063 11.2124 0.448253 0.592614 0.669237
11.8192 16.752 11.0522 0.347224 0.643497 0.682164
8.89231 16.0029 13.6505 0.307418 0.671758 0.67397
10.4723 14.4742 14.0444 0.397618 0.648418 0.649195
13.0646 15.0647 16.0264 0.0739033 -0.119893 0.990032
13.4414 15.3736 11.4782 0.34254 0.63222 0.694957
18.6832 15.8972 17.5832 0.549837 0.472687 0.688656
19.5666 11.8762 19.4433 0.506442 0.428604 0.748208
22.9657 20.7887 7.67675 0.367406 0.0932429 0.925375
23.7007 18.6364 8.11509 0.534922 0.420314 0.732935
20.2913 15.707 16.4865 0.605638 0.428813 0.670314
21.2927 14.0338 16.5142 0.420041 0.513503 0.748252
20.3166 25.4745 12.9675 0.18965 0.680341 0.707933
26.7631 18.9596 7.47144 0.154312 0.531237 0.833052
20.7068 13.6872 17.3868 0.592905 0.298728 0.747813
2.47518 18.9843 16.38 0.740619 0.489377 0.460427
21.63 23.0567 14.1619 -0.104077 0.474262 0.87421
22.6807 23.3717 14.1202 -0.0458859 0.586262 0.808821
24.2365 27.6524 14.9654 0.0707675 0.351717 0.933428
4.43187 21.7614 15.9019 0.715286 0.567434 0.407903
5.46522 21.0524 11.2643 0.43636 0.679329 0.590002
4.73976 19.7944 12.635 0.49717 0.585997 0.639867
4.98653 20.8469 15.4754 0.728516 0.460062 0.507551
5.13334 19.9943 16.1363 0.751847 0.48926 0.441985
5.85454 19.3738 12.6811 0.337362 0.759679 0.555945
7.3082 19.7726 10.9242 0.65718 0.661911 0.360539
5.7103 19.0352 15.871 0.729232 0.615288 0.299402
9.96388 16.8159 12.2658 0.531156 0.5483 0.645942
14.0048 0.056043 12.802 0.38258 0.705141 0.597
9.44618 19.1751 10.5888 0.352889 0.599157 0.718666
15.4604 26.4674 13.2558 0.384305 0.527961 0.757342
17.0839 16.1444 18.7706 0.297083 0.541252 0.78663
16.5262 26.4122 12.7287 0.176902 0.637057 0.750243
11.654 16.003 11.864 0.410374 0.667279 0.621556
17.8446 27.3402 11.5602 0.102386 0.685815 0.720538
19.5252 15.3043 17.2214 0.603704 0.474654 0.640504
18.1062 0.650454 9.95428 0.363012 0.642575 0.674774
23.7318 21.5171 7.00611 0.415572 0.275356 0.866879
19.481 26.0173 12.3802 0.13987 0.670076 0.728996
21.21 15.1421 16.2114 0.531703 0.475404 0.700916
20.8116 26.9886 11.3077 0.106263 0.620599 0.776894
21.0963 24.7543 13.2824 0.0550838 0.552668 0.831579
23.0208 26.2225 15.2847 0.0928176 0.567558 0.818085
1.61836 20.7549 16.2547 0.66598 0.459598 0.587572
23.6683 26.189 12.6213 0.123867 0.463715 0.877283
24.0897 27.462 12.7272 0.205863 0.459313 0.86409
23.4297 0.303001 14.8242 -0.0847163 0.194606 0.977216
5.70532 21.0243 14.5934 0.820737 0.228779 0.523498
7.88208 2.26984 11.3945 0.864829 0.369883 0.339494
3.70401 21.3791 12.2148 0.514926 0.562248 0.647092
25.2883 27.939 14.7358 0.242101 0.259138 0.935005
6.51738 20.1508 14.3207 0.91351 0.139808 0.382038
10.7959 0.378245 9.11061 0.426502 0.361884 0.828937
6.34327 20.3752 11.0689 0.552744 0.67953 0.482403
10.6443 0.975081 16.8852 0.404865 0.479551 0.778534
13.5928 27.1761 13.3009 0.22453 0.659826 0.717089
13.1427 0.729277 12.4423 0.324116 0.808309 0.491514
14.9783 28.039 12.2312 0.516875 0.609133 0.601495
16.3742 0.183491 14.6533 0.143242 0.626056 0.766509
17.6095 1.01857 13.3447 0.173793 0.569837 0.80317
15.855 0.629686 8.51041 0.426926 0.858407 0.28438
16.7431 27.2553 11.9853 0.219249 0.693862 0.685919
18.9456 27.6802 11.3264 0.289009 0.625251 0.724938
18.6939 26.7825 12.0053 0.0483896 0.626072 0.778262
20.702 0.88892 11.0092 0.780695 0.148854 0.606925
19.7431 27.7775 9.26128 0.374809 0.804581 0.460616
19.8052 1.38018 12.7642 0.00690582 0.586985 0.809568
22.0576 26.8119 14.8985 0.00178195 0.600607 0.799542
22.9064 1.89963 11.8235 0.346332 0.371891 0.86125
22.5094 25.8409 12.496 -0.00629319 0.540088 0.841585
21.2205 27.4389 14.3975 0.200268 0.588125 0.783582
23.0974 27.0355 14.5889 -0.0424101 0.61208 0.789658
22.3765 0.143206 13.1058 0.426867 0.520775 0.739309
24.4659 0.716052 14.7756 0.118368 -0.000143894 0.99297
23.1831 1.623 17.0267 0.12357 0.386389 0.914021
9.03097 1.39857 18.4656 0.484183 0.46547 0.740881
26.1268 1.65101 15.7755 0.613816 0.639658 0.462674
25.9871 0.613954 17.2175 -0.15305 0.0659213 0.986017
8.59494 26.2236 17.7896 0.511129 0.437353 0.739912
9.05021 27.5944 15.9681 0.564185 0.605465 0.561344
10.3858 2.22876 11.8823 0.264281 0.305375 0.914824
11.1811 27.5905 17.9891 0.576643 0.56678 0.588425
10.5095 0.302192 17.8168 0.552193 0.525136 0.647546
14.7533 26.497 16.5108 0.281072 0.554826 0.78305
15.2549 3.50677 11.1275 0.679751 0.0324241 0.732726
16.1532 27.4602 15.4436 0.293556 0.668987 0.682848
13.0422 27.3525 16.7943 0.352051 0.653312 0.670256
14.0926 27.4749 16.4502 0.360257 0.550933 0.752787
15.7882 4.28744 10.4838 0.760262 0.0420391 0.648255
16.615 0.973591 13.8712 0.164674 0.543731 0.822945
12.6033 0.938639 15.9376 0.382035 0.70703 0.595111
19.3252 27.8658 14.2439 0.185327 0.599697 0.778471
20.3268 2.84846 13.1982 0.590765 0.44869 0.670578
20.0229 27.7438 10.8782 0.432336 0.525548 0.732725
21.5379 0.822427 12.733 0.320429 0.565109 0.760248
20.5594 0.715973 13.2029 0.258278 0.574614 0.776603
18.9021 3.43024 10.3608 0.46781 0.656622 0.591609
22.2391 27.561 14.0166 0.202883 0.611073 0.765133
22.4417 3.77199 11.1901 0.508221 0.356497 0.783977
22.9424 0.515605 17.2852 0.151901 0.37144 0.915947
23.4424 2.73328 16.3076 0.247368 0.734651 0.631742
24.4578 2.74564 15.8008 0.132254 0.811152 0.569685
22.527 3.2966 14.6617 0.163268 0.8368 0.522598
8.74691 0.650286 19.1842 0.592746 0.421759 0.686128
24.6725 2.8956 14.6375 0.223537 0.811935 0.539253
27.0414 1.25648 15.2936 0.575993 0.767964 0.280112
25.1847 4.74188 14.9606 -0.939965 0.340888 -0.0161791
8.17964 27.8082 16.6756 0.552262 0.585162 0.593794
10.9417 3.5576 13.9965 0.596317 0.554809 0.580167
9.89535 3.27847 11.8083 0.463685 0.277873 0.841298
10.2965 4.45026 13.6627 0.490936 0.454003 0.743547
12.001 27.3618 17.2363 0.382609 0.568448 0.728339
13.3763 4.11157 12.2816 0.47895 0.383225 0.789776
14.9719 4.65367 11.2342 0.554649 0.265308 0.788654
13.8631 3.12269 12.4441 0.445756 0.245916 0.860713
11.5748 0.938979 16.2839 0.385098 0.55077 0.740507
13.8424 4.88285 11.6348 0.319687 0.41257 0.852987
16.1213 3.19252 10.4099 0.787798 0.147783 0.597942
17.3821 7.34287 15.577 0.341675 0.361273 0.867606
21.9391 1.98805 12.4307 0.44811 0.1367 0.883465
19.2777 6.63486 15.3052 0.572605 0.467381 0.673557
21.4043 2.93045 12.6404 0.491178 0.289446 0.821563
18.0423 5.44159 16.0482 0.51308 0.18225 0.838769
22.3251 2.87301 11.9777 0.463337 0.200753 0.863144
21.9473 6.81993 13.3958 0.472924 0.112927 0.873836
21.7964 4.69615 11.3008 0.510252 0.437681 0.740323
21.0732 6.78035 14.0517 0.537816 0.152213 0.829207
24.226 2.07166 16.8027 0.196456 0.619821 0.759755
23.0226 4.18193 14.0725 0.500164 0.472893 0.725402
23.836 4.10429 13.2299 0.570566 0.445138 0.69015
5.58758 13.5264 18.9808 0.62401 0.760405 0.17999
25.3444 4.51044 16.066 -0.880479 0.463335 0.10039
3.90977 15.4329 17.999 0.730935 0.430853 0.529245
25.7731 3.07121 14.3385 0.461326 0.523737 0.716155
5.55664 13.8947 17.9369 0.534892 0.808733 0.244626
8.22493 1.99849 10.3377 0.820072 0.2628 0.508349
8.25949 13.0696 16.9658 0.293724 0.775394 0.559009
11.9535 3.49555 13.504 0.603486 0.359177 0.711897
9.20192 12.5898 17.3321 0.391944 0.712072 0.582523
12.9114 3.34986 12.9461 0.551084 0.332298 0.765431
10.2521 13.7118 14.8638 0.357383 0.716187 0.599461
11.7761 5.20297 12.4144 0.425502 0.291724 0.856648
10.2445 13.2218 15.9637 0.441767 0.667393 0.599523
17.0311 6.18834 15.7319 0.186028 0.329126 0.925781
11.9717 12.4256 15.598 0.491695 0.695104 0.524468
13.373 5.87512 11.4385 0.359564 0.36941 0.856884
16.2953 7.04208 15.9188 0.237539 0.379663 0.894109
18.105 6.51052 15.6393 0.281453 0.351337 0.892943
18.8238 8.55118 14.8452 0.499086 0.323346 0.803965
19.4919 7.68306 14.8565 0.450152 0.284643 0.84637
18.0915 9.37316 14.9123 0.643716 0.237086 0.727612
20.4253 7.78932 14.1327 0.673414 0.131842 0.727414
21.354 7.79837 13.5035 0.608361 0.263478 0.74865
22.6616 5.91649 13.4269 0.558389 0.293956 0.775752
21.1173 10.5923 18.465 0.395294 0.262429 0.880269
22.3057 5.0671 14.0546 0.365439 0.264918 0.892342
23.4906 5.87222 12.6264 0.619681 0.266629 0.738176
24.4673 5.84598 12.0228 0.780916 0.157607 0.604426
2.08008 18.9509 17.453 0.789261 0.435398 0.433007
4.94475 14.4899 18.7243 0.495211 0.851174 0.173977
3.54588 16.3868 17.306 0.685174 0.554071 0.472802
4.37669 14.4795 16.1963 0.642336 0.613803 0.458967
6.41698 13.5618 17.1053 0.380032 0.78474 0.489652
8.12152 12.2704 17.7733 0.435265 0.585715 0.683727
6.53031 14.9001 15.2124 0.326684 0.764627 0.555539
8.40087 13.9369 16.1963 0.262884 0.704007 0.659747
6.45258 14.1903 16.1 0.271107 0.858518 0.435256
9.37082 14.0089 15.686 0.298507 0.800215 0.520144
8.47514 14.611 15.2968 0.217551 0.67074 0.70907
11.0198 12.4464 16.2182 0.485634 0.646108 0.588816
7.23904 12.9258 17.3825 0.397278 0.789687 0.467508
16.6109 8.16175 15.3217 0.34175 0.614408 0.711132
11.4284 14.4528 13.5193 0.371918 0.741563 0.558356
12.8284 12.7934 13.865 0.557827 0.590311 0.583405
16.2434 15.6024 19.3272 0.301044 0.43949 0.846298
17.7287 8.27707 15.1077 0.472321 0.253989 0.844039
20.2285 11.154 18.8132 0.467505 0.227743 0.85415
19.0433 9.50322 14.3707 0.608299 0.346763 0.713952
20.0371 13.3429 18.2046 0.529436 0.349178 0.773157
21.9557 11.0693 17.9695 0.480264 0.318164 0.817385
21.6369 13.0682 17.0498 0.426805 0.421862 0.799919
22.6309 8.77157 12.385 0.623104 0.295039 0.724357
21.7513 12.0453 17.4226 0.454805 0.335669 0.824911
6.23866 12.9897 18.1526 0.610952 0.76594 0.200183
2.83912 18.2223 17.1365 0.763944 0.469192 0.442999
2.97318 18.0346 15.9246 0.748284 0.549465 0.371697
3.76377 21.6489 16.8355 0.781603 0.462548 0.418505
7.25223 15.353 17.3557 0.807959 -0.188052 -0.558425
2.82821 20.013 14.8346 0.735902 0.421405 0.529968
3.87275 17.4166 15.6573 0.736563 0.51115 0.442945
2.80316 18.9809 15.3054 0.697309 0.485531 0.527276
5.56961 14.7769 15.7649 0.392712 0.729946 0.559425
3.3565 19.1539 14.2991 0.72514 0.474563 0.49896
7.58591 14.9564 14.7045 0.124984 0.7084 0.694657
12.4081 25.805 18.2952 0.58139 0.441331 0.683529
8.03491 14.0015 18.8313 0.900442 -0.0530757 -0.431726
9.03264 16.7693 12.8591 0.392655 0.580982 0.712939
9.69715 15.2942 13.8864 0.420193 0.684101 0.59619
5.60036 14.2842 16.8528 0.388692 0.859553 0.331793
17.527 14.0531 19.6675 0.492673 0.424347 0.759738
17.9802 15.4882 18.3263 0.419882 0.578177 0.699579
10.5879 15.1679 13.1735 0.452169 0.620916 0.640317
18.2766 14.5262 18.8846 0.512277 0.560471 0.650726
19.2438 12.7918 18.8698 0.560146 0.314606 0.766329
18.8585 14.8457 18.0462 0.504719 0.660486 0.555894
20.0926 12.5791 15.3324 0.390644 0.237932 0.889261
19.0996 13.8468 18.4976 0.523177 0.518985 0.675973
20.8109 12.6228 17.7012 0.573103 0.31308 0.75732
20.5132 14.7364 17.0032 0.523091 0.502925 0.688072
22.3398 13.5554 16.3788 0.52489 0.409634 0.746117
21.0373 11.6275 18.17 0.508344 0.357592 0.783399
2.37368 18.0242 18.1662 0.805247 0.540234 0.244387
1.74741 19.7744 16.8271 0.79225 0.446628 0.415768
2.28881 19.913 15.8027 0.707251 0.403947 0.580192
21.7118 24.7558 15.8649 -0.0666736 0.521571 0.850599
4.47386 20.8031 16.5493 0.725193 0.54797 0.416921
4.95608 21.867 14.9024 0.762381 0.35225 0.542859
2.66276 21.061 14.2471 0.775377 0.410266 0.480076
2.97947 21.1227 13.1387 0.655073 0.561202 0.505897
14.8117 24.1014 18.2042 0.439692 0.533532 0.722506
5.87676 20.1017 15.2539 0.807898 0.417376 0.41605
5.37078 19.2055 16.9085 0.763228 0.561066 0.32045
13.934 24.7121 17.7321 0.44305 0.576506 0.686548
7.3852 16.2587 16.6559 -0.952638 0.122397 0.278389
14.3584 26.4381 13.6458 0.274971 0.594898 0.755306
9.84341 16.0084 13.0281 0.369896 0.651131 0.662726
15.1849 24.7386 17.3229 0.1522 0.627829 0.763325
17.2395 15.0713 19.2545 0.225677 0.532404 0.815853
17.4234 25.8541 13.1618 0.214497 0.627811 0.748228
17.6014 16.3411 17.6334 0.447384 0.452717 0.771294
17.3968 0.219721 14.1724 0.225524 0.615447 0.755225
18.4566 13.4887 19.3661 0.494371 0.48697 0.72004
18.4225 25.9479 12.7195 0.164439 0.687541 0.707282
19.7934 14.3535 17.739 0.472739 0.548873 0.689388
19.0439 27.0587 15.0554 0.0607898 0.517289 0.853649
20.1027 12.2712 18.4836 0.567599 0.399623 0.719814
20.9743 26.6341 15.0835 -0.0610747 0.545144 0.836115
22.1735 14.5715 15.9404 0.543654 0.482127 0.687018
20.7384 25.4566 15.4005 0.161418 0.495398 0.853537
4.34432 22.7511 15.3287 0.711036 0.473114 0.520184
24.0555 26.422 14.8541 -0.0662077 0.367207 0.92778
22.4321 1.18929 14.9884 -0.172987 -0.405474 0.897589
24.0416 0.848219 17.1438 0.0305178 0.321271 0.946495
4.91471 22.7772 14.2739 0.688617 0.325285 0.648072
25.1774 1.32026 13.6859 0.366641 -0.49049 0.790565
5.68198 21.9982 14.0155 0.730548 0.309258 0.608818
8.74865 26.8541 16.8205 0.648199 0.496949 0.576957
13.748 26.5716 17.1018 0.391036 0.579106 0.715351
11.3479 0.154294 17.1027 0.397379 0.655787 0.641898
4.97407 18.796 13.2172 0.369419 0.492362 0.788105
13.3351 25.6361 17.6536 0.41231 0.471773 0.779378
14.4775 25.7277 17.3101 0.0906111 0.560828 0.822959
15.0833 27.4136 15.8927 0.31348 0.595198 0.739912
14.6573 27.2059 12.9004 0.305034 0.648738 0.697204
15.8766 26.7255 16.3036 0.187142 0.528876 0.827809
17.1733 27.5217 14.9418 0.233567 0.680588 0.69444
15.6316 1.07849 14.4621 0.147618 0.669272 0.728206
