23.0376 13.9296 5.40513 0.137383 -0.684725 -0.715735
11.224 14.5627 5.01461 -0.380713 -0.0760592 -0.92156
21.6134 13.2693 17.161 0.76285 0.0983185 -0.639057
22.1302 14.7629 16.4968 0.261414 -0.744254 0.614613
20.6818 11.8523 4.75869 -0.941512 -0.318748 0.109337
12.4937 13.78 16.4832 -0.657042 0.750989 0.0656592
22.3997 16.3158 5.13845 -0.776477 -0.147435 0.612656
11.6294 18.0616 5.2755 -0.41477 0.808234 -0.417999
12.7435 17.931 15.4391 0.29025 -0.71953 0.630897
16.0297 17.1623 4.63542 0.97812 -0.191468 -0.0813762
12.7462 17.8994 16.9987 0.0292295 -0.542561 0.839507
12.3859 17.8814 6.71913 0.157147 0.270266 -0.949874
14.2691 17.9263 6.38763 0.397277 0.728346 0.558285
12.3884 18.0209 18.3033 0.716901 -0.346602 0.604913
16.7232 16.0354 6.79435 -0.452085 0.702508 -0.549638
22.0589 18.386 15.5505 0.213502 -0.564793 0.797136
14.8762 16.4668 16.5516 -0.66639 0.49939 -0.553655
14.6924 16.516 4.64979 0.750437 -0.551622 -0.364084
16.9333 16.4547 16.921 0.295803 -0.471461 0.830798
16.6131 18.9753 6.38538 0.539664 -0.841843 -0.0079281
16.694 14.6011 7.37384 -0.0684972 -0.0770499 0.994672
18.7966 19.6939 15.9943 -0.143584 -0.979668 -0.140124
17.2477 17.7364 16.932 -0.0462806 0.708341 -0.704352
18.1842 17.2125 6.67135 -0.177236 -0.241853 0.953989
22.507 14.9561 17.5963 0.295881 -0.884398 0.360964
19.0073 17.5851 18.0498 0.452184 -0.546009 -0.705269
19.4146 15.7863 4.73217 0.989687 -0.0398509 -0.13759
19.2994 17.3484 5.86976 0.286646 0.679913 -0.674947
22.9064 16.8701 16.5191 0.395771 -0.118713 0.910644
20.6504 17.2244 15.9901 -0.488842 -0.657392 -0.573471
23.1794 15.7897 16.1166 -0.914727 0.184849 0.359312
22.669 19.4172 4.96867 -0.625221 0.6187 -0.47572
23.847 17.0634 6.72438 0.501634 0.168454 0.84852
22.1383 17.0845 17.4451 0.357573 -0.849821 0.38723
20.8758 18.3554 17.3245 -0.622524 -0.771208 -0.133052
10.8679 17.5724 4.83428 -0.197075 -0.284567 0.938181
11.7905 18.0179 16.4172 -0.0142767 -0.371502 0.928322
23.6061 10.5866 17.7734 0.100707 0.610853 -0.785313
15.1155 18.0723 5.62012 0.166877 -0.0828256 0.982493
14.9385 19.107 4.66245 -0.379825 0.112712 -0.918166
12.9937 16.0706 7.12146 0.430663 -0.065178 -0.900156
15.9295 20.6461 15.6923 0.187872 0.0981244 0.97728
14.6443 17.9025 15.9012 -0.450616 0.539432 -0.711307
15.9312 16.2821 5.33434 -0.722503 -0.681003 -0.119267
17.7723 17.9618 17.9311 -0.240802 0.892068 -0.3824
15.769 21.8416 14.4712 -0.477799 -0.60153 0.640211
21.0254 15.3743 5.30833 -0.0270774 -0.981834 0.187799
16.7389 19.6398 16.6101 0.0899978 -0.515109 0.852387
16.1955 16.3769 17.7366 0.367888 -0.511545 0.776518
15.3481 19.9028 16.0475 -0.754166 0.495176 0.431317
17.8444 20.5482 14.7673 -0.244103 0.801582 -0.545784
18.9773 18.9652 17.0244 -0.490535 0.86006 -0.140259
19.3557 16.8104 4.95451 -0.964146 0.159135 0.212366
19.3409 21.3118 17.6633 0.377217 0.312958 -0.871645
18.5328 17.4828 16.9333 0.455054 0.652232 -0.606233
17.766 18.157 5.68845 0.237914 0.798397 0.553136
19.9547 16.0085 16.1948 0.390676 0.741551 0.545412
23.8953 18.881 15.0394 0.893864 0.448326 0.00343476
22.0199 18.5962 5.0475 0.114856 0.413805 -0.903091
20.9578 17.8265 6.13173 -0.685252 0.482144 -0.545864
10.4417 16.5054 16.2898 0.109357 -0.0674163 -0.991714
23.0137 18.0228 16.8642 0.744707 -0.57903 -0.331866
23.8997 17.8766 17.5488 -0.161238 -0.818175 0.551899
21.0485 20.9356 16.971 -0.992948 -0.105639 0.0538023
12.3002 19.0027 5.4638 0.0392291 -0.0513039 0.997912
10.8152 11.906 5.71531 0.122537 0.23911 -0.96323
11.229 23.5143 17.33 0.604456 0.785176 0.134653
12.1738 20.0572 16.8998 -0.794928 0.417654 -0.440063
12.831 20.5953 8.17272 -0.512141 -0.59263 -0.621693
10.4683 21.7585 15.989 -0.496671 -0.63288 -0.593954
15.1921 19.6265 6.59237 0.19592 -0.109147 0.974527
16.2224 18.5447 7.20763 -0.829629 0.181597 -0.527957
16.4778 19.8429 17.9745 0.0242058 0.865787 -0.499827
14.1601 23.1112 17.3277 -0.319805 -0.930807 0.176985
15.6298 20.9836 17.527 0.545121 0.735762 0.401866
16.8081 20.1602 5.45583 0.508462 -0.409114 -0.757689
17.8264 19.2942 16.4639 -0.147867 0.86372 -0.481791
14.3828 22.4019 4.91196 0.881441 0.39615 -0.25715
13.361 19.7675 5.91824 -0.340009 0.25325 0.905681
16.7851 21.6055 16.1466 0.906085 0.0273011 0.422213
19.683 19.3379 17.6173 -0.837917 0.122081 0.531968
19.8633 21.6131 4.78433 -0.21842 0.935626 -0.277303
19.7669 17.6256 16.4366 -0.446734 -0.893814 -0.0390624
19.5066 21.0833 5.78578 0.566065 -0.640928 0.518441
22.4828 21.9012 4.96011 -0.129736 0.362862 0.922767
20.7514 19.548 15.6036 0.345875 -0.473259 -0.810183
23.4054 20.425 16.598 0.360163 -0.797229 -0.484467
22.8896 21.8397 16.3951 -0.83483 -0.497866 -0.23492
11.685 19.9985 15.6867 -0.286528 -0.951888 0.108675
12.1501 12.5156 17.525 -0.0766607 -0.989238 0.124623
11.0189 21.7733 17.2827 -0.366351 0.483026 0.795282
20.8126 22.7878 16.1458 -0.552504 0.810472 0.194617
10.6607 23.195 5.69484 0.313542 -0.750792 0.581379
11.8097 10.5799 4.58096 -0.279331 0.954332 -0.105944
14.677 22.5159 16.348 -0.973079 0.183851 0.138979
10.2471 21.1304 6.19561 0.78052 0.529319 0.332581
12.0213 20.7332 5.56755 0.559834 -0.810941 -0.170179
12.0798 22.2605 5.59448 0.364952 -0.0574886 -0.92925
11.3022 23.9824 5.98344 0.463292 -0.639855 -0.613145
13.1235 22.8006 18.1764 0.00343562 -0.070265 0.997522
16.0251 21.1815 8.6192 0.560734 0.29204 0.774784
14.394 10.7048 18.078 -0.434747 0.816195 -0.380554
15.7267 18.9932 17.6747 0.00624382 -0.726656 0.686973
16.9403 21.5738 5.67323 0.648228 -0.214908 0.73049
17.4677 20.8648 4.85855 0.131939 -0.2046 0.969913
12.8137 20.3293 18.1788 0.176119 -0.908788 0.378267
17.2664 22.4747 17.3408 -0.359862 -0.924602 -0.124941
17.6762 23.7325 7.5334 -0.11115 -0.797523 -0.592961
19.2627 20.227 4.99016 0.456333 -0.0406568 -0.88888
17.9394 23.5337 4.80356 -0.199824 0.724422 0.65976
19.6514 19.389 16.3683 -0.0392075 0.752436 0.657497
20.2549 10.6387 17.7702 0.565448 0.302815 0.767185
22.4917 10.3853 15.6605 -0.264144 0.713882 -0.648537
22.1826 20.1951 16.5983 -0.159492 0.454709 -0.876243
21.1808 18.7181 16.1572 0.734714 0.333361 0.590818
22.5988 11.104 16.9692 -0.449505 0.865477 0.221119
22.7666 23.0403 4.79588 -0.00801305 0.630731 0.77596
20.6242 23.4233 4.69231 0.928011 -0.242942 0.282445
11.6494 13.6496 4.89156 0.0454435 -0.180062 0.982605
11.5202 10.7175 7.8952 -0.770711 -0.137897 -0.622084
23.7067 22.0658 7.29828 -0.337159 -0.819472 -0.463454
12.3314 15.4486 6.15298 0.100369 -0.894371 -0.435921
12.7884 22.6646 7.79431 -0.501272 -0.55461 -0.664179
10.8215 20.6751 5.19253 0.697732 -0.714472 -0.0519695
16.502 22.5573 6.26596 0.985324 -0.0178063 -0.169763
15.9624 11.671 4.62106 -0.683304 -0.505559 -0.526789
15.2167 10.7118 5.41251 -0.885898 -0.46384 0.00615747
12.2292 11.6862 5.93389 -0.465318 0.278755 -0.840104
15.8665 21.7668 7.40393 -0.754496 0.557449 -0.346391
14.667 23.3923 6.70124 0.139786 0.702268 0.698054
16.2916 19.9574 8.88595 0.518033 0.728882 -0.44763
18.4605 11.4036 5.03344 0.300374 0.421927 -0.855425
17.5775 10.7143 9.05091 0.462075 0.769333 0.44115
14.1786 12.8798 6.22648 -0.415884 -0.372764 0.829511
16.469 11.0435 12.1623 -0.179521 -0.0729565 -0.981045
18.7572 21.0857 7.66058 0.591184 -0.654975 0.470648
18.9509 10.5854 7.9104 0.36317 -0.260535 -0.894555
20.9265 13.3017 8.23031 0.24596 -0.342696 -0.906677
20.6277 21.5777 17.9437 0.243871 0.969678 0.0158788
19.2337 23.454 5.24831 0.331451 0.404741 0.852247
18.3734 23.126 5.85326 -0.670081 0.682968 0.290769
22.0514 11.2952 4.71272 0.454299 -0.245067 0.856478
22.7407 11.449 15.9944 -0.924623 0.318174 -0.209376
21.0828 14.664 17.0451 0.451645 0.887797 -0.088504
23.2572 22.5428 8.23075 -0.240461 0.90402 -0.353448
10.3559 12.7483 6.40297 -0.560662 -0.735832 0.379748
10.7259 13.8623 7.85672 -0.511859 -0.54176 -0.666706
23.6653 12.9153 5.55259 0.842467 0.102388 -0.528928
11.4865 11.6478 7.15578 -0.0892406 0.458726 0.884085
23.8214 13.7206 18.0292 -0.659299 -0.0789001 -0.747729
10.8543 15.2545 8.17452 -0.113165 0.268069 -0.95673
12.5874 14.064 7.62674 -0.0954238 -0.313911 0.944645
13.8576 12.1075 8.19425 -0.101827 0.951617 -0.289925
13.4007 13.1589 5.43748 -0.424413 0.792752 0.437513
14.4225 10.9033 6.64934 -0.928916 0.191378 0.317001
13.2472 12.8796 9.62535 -0.409518 0.907076 -0.0975133
12.5651 13.0415 7.60164 -0.909996 -0.163004 0.381231
15.985 13.0474 18.2415 0.746968 -0.548231 -0.37614
15.7486 12.7172 5.46884 -0.959319 -0.256636 -0.117664
14.7794 12.8557 9.95419 -0.446285 -0.887412 0.115451
19.0693 13.3221 10.395 0.117751 -0.842812 -0.525169
16.9879 12.1918 7.09401 -0.518554 -0.78574 0.337215
15.6735 11.706 6.86902 -0.64877 -0.596142 0.472982
16.3641 13.1193 7.07799 0.595277 0.68901 -0.413413
18.3335 21.7938 6.18316 -0.0618913 0.823276 0.564257
19.075 13.301 16.9619 -0.931371 0.201549 -0.303193
19.4733 12.3235 5.27967 0.619268 0.464484 -0.633058
22.0661 13.5829 4.61362 -0.248573 0.543845 -0.801526
10.6033 13.4768 15.7881 0.18975 0.598588 -0.778259
21.4928 16.0352 17.8207 0.386584 -0.417724 0.822228
20.7147 11.2823 6.09341 -0.700724 -0.387664 0.598918
19.4244 14.2538 16.8224 -0.873051 0.260945 0.411933
20.5925 12.5143 5.53416 -0.555612 -0.521345 0.647684
12.2798 15.2358 15.7774 -0.0276316 0.0796578 -0.996439
23.2354 15.5998 5.3232 0.557654 0.817759 0.142448
10.5919 15.5915 11.7125 0.508217 0.508201 -0.695304
10.9928 14.8748 6.50716 0.380064 0.909774 -0.166923
11.936 16.6867 18.1716 0.963785 -0.172448 0.203422
13.384 14.9325 6.28574 -0.161228 -0.27353 -0.948255
11.1288 15.4093 13.1214 -0.990525 0.114445 -0.0759129
13.4109 13.9272 8.76431 0.623099 -0.768836 -0.143661
14.2459 15.4609 5.58575 0.00518627 -0.998772 -0.0492784
12.548 13.0781 4.80025 -0.186733 -0.97446 -0.124731
11.0357 15.6161 9.83974 0.0898844 0.390858 -0.916052
14.386 14.8644 7.25384 0.14861 -0.385549 -0.910641
19.3464 16.1343 5.75766 -0.985032 -0.157862 0.0692269
16.8907 14.3415 5.26959 0.167379 0.732373 -0.660011
16.171 15.1986 5.67859 0.0198928 0.141515 0.989736
15.7773 13.937 6.98456 0.309893 0.382699 -0.870349
17.7428 15.5884 16.1525 0.0724729 0.862957 0.500053
17.6868 11.9223 17.9998 0.425712 -0.58253 -0.692407
16.7828 13.4236 9.49256 0.261105 0.854885 -0.448325
19.7612 14.2949 9.94823 0.212538 -0.524689 -0.824336
22.3883 15.5026 6.46208 0.444708 0.708363 -0.548139
18.6141 13.808 7.73055 -0.290116 -0.215029 -0.932521
17.5093 16.5024 5.62527 -0.139766 0.223129 0.964717
21.7892 14.0623 5.766 -0.339204 -0.93282 0.121604
10.3012 15.0141 5.14233 -0.644006 -0.60192 -0.472174
23.8359 15.4284 17.9853 -0.963527 0.0714932 0.257883
21.4744 15.2781 7.59323 0.605397 -0.462742 0.647584
22.6647 12.7662 17.6518 -0.926878 5.46197e-05 0.375363
11.5039 16.1722 16.6433 0.521429 -0.0131655 -0.853193
22.8628 17.6274 4.61158 0.673371 -0.476607 0.56517
22.2902 20.7846 5.26714 0.832121 0.528343 0.168606
23.5095 13.4121 8.04157 -0.00898492 -0.898553 -0.438774
11.0659 17.3388 16.2886 0.221742 0.0779043 -0.971988
14.1219 15.9877 7.30233 0.479607 -0.0732378 -0.874422
13.3068 18.8197 7.06242 0.0512375 -0.901032 -0.430715
12.7029 16.1763 10.3823 -0.633595 -0.493631 -0.595722
14.0138 17.9048 17.7791 0.599024 0.643113 -0.477049
15.2925 16.5346 6.13833 0.405123 -0.615846 0.675728
12.8788 17.9938 9.70078 -0.959104 -0.227186 0.168836
15.1014 18.0163 10.796 0.67015 -0.632295 -0.388718
16.1685 18.0861 5.82303 -0.251486 0.684216 -0.684546
17.6093 15.6687 8.13082 0.656902 0.517823 -0.548032
17.5443 19.3583 7.24604 0.995937 -0.0827876 0.035435
18.4392 16.1748 8.6926 -0.240838 -0.681121 0.691427
17.0784 16.7729 9.20191 0.563532 -0.158673 -0.810713
19.1641 15.5025 6.69708 -0.0693012 0.488575 0.869766
19.4184 17.2803 8.1312 -0.257213 0.941588 -0.217379
21.2572 14.5543 6.50977 0.0194981 0.974724 -0.222558
20.2343 18.3739 18.1599 0.211542 0.965591 0.151275
17.6539 13.4205 17.4498 -0.869051 -0.451293 -0.202693
20.5062 16.9925 8.96283 -0.24315 -0.965366 -0.0945866
21.213 17.0119 18.042 0.843044 0.141103 0.519006
20.8474 17.6592 4.96658 0.583956 0.570747 -0.577272
22.237 17.4139 5.65832 -0.910758 -0.410927 -0.0407403
20.0804 17.3486 6.53745 -0.434999 0.898914 0.0522418
22.6138 11.0424 7.6687 0.342126 0.905006 -0.252813
22.6084 20.3257 6.45514 -0.237669 0.905318 0.352012
10.862 18.3226 5.97961 0.636322 -0.634888 0.43819
21.2373 20.2667 6.47389 0.707434 -0.301708 -0.639148
11.4025 20.8765 8.76599 0.0958324 0.979016 -0.179843
23.5673 21.9132 17.9314 0.205375 -0.307021 -0.929279
13.6775 18.3515 5.56749 0.523379 -0.587643 -0.617049
13.5826 20.8285 7.41905 0.462067 0.0440094 0.885752
13.2519 18.7074 17.9384 0.786858 0.0563159 0.61456
14.9698 16.5889 9.13206 0.259331 -0.899778 0.350922
14.0655 19.1143 16.0114 -0.705299 -0.221214 -0.673512
15.8898 19.4454 10.2278 0.225448 0.967859 0.111453
15.0958 17.9667 7.96571 -0.265974 0.931148 -0.249443
16.6989 18.1166 18.0938 -0.110945 0.326145 -0.938787
14.6866 16.8351 7.48097 0.160463 0.425486 -0.890625
18.8255 18.2417 8.89744 0.767004 0.543079 -0.341716
16.3683 20.3287 7.39118 -0.582733 -0.306882 0.752493
18.9071 19.2727 6.17665 0.0908605 -0.713622 -0.694614
18.9584 17.7862 7.00983 -0.383838 0.894358 -0.229766
17.9625 19.6914 9.71269 -0.236765 0.718175 0.654344
20.5189 19.845 8.21189 -0.665043 -0.37003 0.648688
20.776 21.1723 16.0082 0.4885 -0.839483 -0.237985
17.7324 17.339 15.9507 -0.357233 -0.922096 -0.148738
22.398 19.1508 9.51392 0.661269 -0.0250178 -0.749731
21.3382 16.6179 8.34153 -0.353771 -0.211871 -0.91102
21.0624 19.1958 5.31516 0.399638 0.269678 -0.876107
21.8086 16.2108 6.96872 -0.596192 0.4999 -0.628216
21.4118 19.2324 6.67515 0.790408 -0.223321 -0.570423
23.8243 18.1971 6.632 -0.771193 0.321825 -0.549263
11.6229 19.2088 17.1437 -0.398838 0.218313 0.890656
21.9042 18.0799 14.2348 0.401225 -0.473065 0.784365
11.4776 20.5302 18.0054 -0.66301 0.738417 0.123119
13.6745 19.7111 8.38869 0.441024 -0.546998 -0.711541
11.2753 23.2311 6.99892 -0.436293 -0.895736 0.0854711
13.6086 20.0932 16.6512 -0.750544 0.193731 -0.631785
12.9602 21.992 10.1709 0.145056 -0.759471 -0.634163
11.7634 19.732 6.17214 0.588658 0.483095 0.648152
12.878 22.6145 11.9823 -0.449314 0.442351 0.776172
14.1908 19.3561 6.46843 -0.231033 0.511869 0.827414
13.8363 22.6571 7.01808 -0.812659 -0.0823167 -0.576896
16.686 19.0212 9.65583 0.40051 0.658451 0.637209
15.7579 20.7903 5.28467 -0.66721 -0.249814 0.701729
17.8751 22.1368 5.12055 0.379061 -0.893138 -0.24211
18.3853 22.5526 11.7214 0.511322 0.440571 0.737867
17.8136 21.0019 8.45825 0.225945 -0.259708 0.938883
19.4305 23.3363 17.3296 0.892867 -0.346638 -0.287457
17.5179 20.0731 17.2048 -0.617997 0.649626 -0.442794
17.4878 19.2033 11.1443 -0.693366 -0.637904 0.335145
17.8386 19.7062 5.81204 -0.736577 0.115248 0.666462
21.5952 21.5231 18.2512 0.126203 -0.840014 -0.527682
20.8109 21.2942 5.41335 -0.108088 0.972015 -0.208574
19.1667 22.1746 6.92342 -0.398059 0.1085 0.910921
21.1605 19.9527 17.2726 -0.222166 0.194612 0.955389
22.6517 23.6049 17.5156 -0.00396678 -0.911591 -0.411079
19.7967 19.3356 5.26408 0.515142 0.626653 0.584752
23.807 18.4044 15.99 0.807844 0.52215 0.273399
22.4038 21.8195 8.30121 -0.28754 0.129871 0.948923
11.8059 22.4225 17.8155 0.355048 -0.346478 -0.86827
10.8115 24.0321 18.1485 -0.00215831 -0.986602 0.16313
22.3309 22.543 7.17425 -0.923169 -0.381949 0.043284
13.0618 11.9997 8.83838 0.132434 -0.929428 0.344418
14.5551 21.6415 7.34567 -0.246077 0.394294 -0.885425
12.3957 21.5521 7.95039 -0.0210077 0.539485 0.841733
11.5601 21.9724 7.58516 0.22252 0.847755 0.481453
15.1028 21.469 4.6782 -0.534247 -0.403931 -0.742577
14.4252 20.8007 5.20817 -0.0797328 -0.932207 -0.353033
14.4914 20.6306 6.97653 -0.37962 0.542066 -0.749702
12.9163 23.6161 7.24139 -0.896307 -0.273001 0.349435
18.2364 21.1319 10.716 0.588102 -0.284333 -0.75716
15.7222 22.9373 5.4289 -0.895583 0.419512 0.148125
15.2213 20.4575 8.95737 0.730045 0.165681 0.663011
16.8016 23.9079 7.1478 0.378676 0.925025 0.0305458
17.2572 22.744 8.26372 -0.857472 -0.0862932 -0.507243
18.9331 11.3274 9.90945 0.0484129 0.147462 -0.987882
18.3397 21.6822 17.7285 0.435275 0.613359 0.659035
17.5174 12.1591 10.0173 -0.0452395 -0.987476 0.151147
21.0625 21.4025 6.76694 -0.780945 0.163238 -0.602892
18.8606 23.2787 7.13983 -0.466462 0.226685 0.855001
23.1165 20.1555 17.6777 -0.59236 0.653246 0.471571
19.6584 24.0233 8.70678 0.0701161 -0.454186 -0.888144
23.6334 22.9844 17.7239 -0.168528 0.0494423 -0.984456
23.1958 12.2814 16.5411 0.973485 -0.220516 -0.0608253
21.9112 23.4279 16.6723 -0.0481616 0.907505 0.417271
19.2993 10.7887 18.2349 -0.462151 0.215118 -0.860314
21.519 21.9541 5.94947 0.357396 -0.930951 0.0748214
21.6844 23.4765 17.8512 -0.314605 0.949183 -0.00861229
21.5902 10.3642 6.28085 -0.311458 -0.918087 0.245173
21.3297 10.7047 7.47448 0.407338 -0.86373 -0.296725
12.5024 23.9373 11.9491 0.0775218 0.0048132 -0.996979
23.2808 11.9427 8.40822 -0.621355 0.702802 -0.346392
10.6768 22.5645 8.48475 -0.122625 0.873087 0.471891
12.2851 12.1281 9.52462 -0.660319 0.341478 -0.668858
15.5505 22.9471 8.92834 0.644863 0.322821 -0.692776
14.8762 12.0568 8.15776 0.0300063 0.997836 0.058514
13.5228 23.7856 6.02866 -0.257562 0.947528 0.189348
12.9492 10.6415 7.94333 -0.619644 0.251656 -0.743445
14.7976 23.1037 12.9102 0.289248 0.950797 0.111002
14.4363 23.5829 9.6767 0.05653 0.525288 -0.849045
16.7326 10.2898 5.50003 -0.218902 0.583293 -0.782209
15.1045 12.597 6.82207 -0.691937 -0.516893 0.50403
18.4053 11.0239 12.0657 0.333878 -0.317542 0.887521
17.9211 12.3757 5.483 -0.778492 -0.0888099 0.62134
17.6879 12.4929 7.93065 0.0964178 0.97037 0.221553
18.035 14.0179 14.3169 -0.142151 -0.31845 -0.937221
18.5178 23.8483 11.7271 -0.72099 -0.554479 0.415603
18.3553 11.2268 7.3244 -0.594357 -0.575588 -0.561639
20.4749 11.1536 10.4816 -0.852418 -0.522746 0.0109287
20.8483 12.8313 10.6281 -0.620549 0.247539 0.744072
21.0865 22.8174 14.5448 0.479821 -0.850937 -0.213726
19.3606 13.0311 8.93666 0.349552 -0.683047 -0.641296
22.4161 10.8885 9.9542 -0.839403 -0.0719078 0.538731
20.0147 12.0872 10.318 0.845048 -0.00117859 -0.534689
20.9035 22.9742 7.5868 -0.972569 -0.118392 -0.200233
20.3754 23.8557 6.90192 0.00978451 0.263312 0.964661
21.4077 10.3547 5.23687 -0.884857 0.147026 0.442054
11.9154 15.8487 11.302 -0.503547 -0.857165 0.108208
10.9768 12.7087 7.25992 -0.687578 -0.658908 0.305086
11.7346 16.1288 12.258 0.800906 -0.45522 0.389003
10.8346 13.1788 10.3112 0.221755 -0.258768 -0.94014
12.2539 14.5827 10.4045 -0.478282 0.872412 0.100714
13.4971 15.0199 13.6715 -0.9603 0.194539 0.199944
15.6121 14.6827 10.6823 -0.703085 -0.155655 -0.693861
14.0234 23.9821 7.8333 -0.0956553 -0.979946 0.174805
13.0334 15.33 10.9645 0.165881 -0.658127 -0.734406
13.7652 12.1691 10.8381 0.791532 -0.512155 0.333427
14.351 14.0382 8.10311 0.130498 -0.696358 -0.705731
15.6296 12.3393 9.78941 0.186863 0.573794 0.797398
14.5052 13.0718 10.9072 -0.90729 0.22406 -0.355839
19.1181 11.894 13.6606 -0.024251 -0.368128 -0.929459
18.6128 14.446 6.439 -0.257116 -0.24768 -0.934102
18.2401 12.5167 10.9587 0.266758 -0.347531 -0.898923
16.9858 13.9166 12.1573 -0.912116 0.33133 -0.24138
20.193 13.0063 9.6983 -0.255448 0.513918 0.818923
18.3713 14.9981 8.30779 0.831454 0.543683 -0.114424
17.132 11.377 6.32494 0.962542 0.246951 0.111931
16.6026 11.663 9.52146 -0.101682 -0.8005 0.590644
21.7692 14.227 9.26652 -0.497348 -0.831456 0.24764
20.3803 13.6346 4.91745 -0.647633 -0.35355 0.674962
21.1537 14.8938 18.103 0.871705 -0.333867 0.358698
22.8309 14.615 7.58126 -0.187241 -0.388233 -0.902339
23.0274 12.3109 4.86749 -0.916872 -0.10553 0.38498
10.9862 13.2254 12.4282 -0.256049 -0.825312 0.503288
22.8639 11.7322 6.24366 0.722745 0.178598 -0.66764
10.5558 16.2374 6.21572 -0.777862 -0.621658 0.0920398
11.9114 13.3119 10.1752 -0.278342 0.15295 0.948226
23.6078 15.6115 8.03901 -0.325906 0.00956699 -0.945354
11.7918 14.066 9.12319 0.405729 0.800866 0.440451
23.1034 15.5582 12.0308 -0.272002 0.643675 0.71533
11.7387 14.4689 7.49138 0.141574 0.35831 0.922806
14.6419 13.8547 13.4705 -0.783953 -0.444719 -0.433176
13.1892 14.1768 11.117 0.916941 -0.138593 -0.37418
14.0033 13.4338 11.8094 0.151953 -0.987919 -0.0304535
15.3528 14.587 8.80947 0.610228 -0.465367 -0.641136
15.4331 16.072 7.85382 0.608513 0.545793 -0.576039
18.4955 12.9051 6.11877 -0.470126 -0.620239 0.627921
16.6321 12.8343 10.9343 -0.458121 -0.709709 0.5352
17.7663 12.648 12.9106 0.604005 -0.684331 -0.408495
16.7252 16.6221 7.99024 0.751758 -0.209463 -0.625287
19.8264 14.2945 8.27186 0.0324954 -0.972569 -0.230332
19.2972 18.1572 11.5059 0.86554 -0.139938 0.480893
15.7811 14.0232 16.1249 0.838334 0.230315 -0.494117
22.0005 13.6341 7.22573 -0.377766 0.237889 0.894819
19.8981 14.5335 4.56828 0.0885337 -0.613068 -0.785053
17.6018 14.0323 11.2117 -0.275874 -0.928219 0.249606
22.4195 13.6614 8.69269 -0.59756 -0.733233 -0.324486
22.6452 18.0298 8.86935 -0.876459 -0.445345 0.182997
23.492 13.7273 6.46992 -0.569572 -0.34007 0.748292
22.8446 16.0071 11.0655 0.211526 -0.575337 -0.790091
22.1362 12.4805 7.30128 -0.807554 -0.240316 0.538614
11.0889 16.3504 5.10083 -0.828055 -0.095289 -0.55249
23.7658 14.7501 7.03361 0.166317 -0.0787304 0.982924
11.1557 18.2203 11.3693 -0.0899526 0.54035 0.836618
10.4355 14.2668 12.4902 0.53882 0.267834 0.79871
11.7128 15.8501 7.93596 -0.114515 0.29775 -0.947751
11.8582 16.9323 10.15 0.149535 0.467025 0.871508
12.805 17.2354 8.71142 -0.14757 0.986392 0.0724895
14.7884 15.8898 11.9019 0.331402 -0.399769 -0.854609
11.8737 18.862 8.73097 0.0778314 0.937 -0.340548
13.2187 15.3327 9.41703 -0.790607 0.543699 -0.281658
13.8385 17.1426 8.86483 0.0757052 0.266143 0.960956
16.7348 15.1471 15.7455 -0.0954265 -0.454395 0.885674
17.4713 18.9956 8.22996 -0.950941 0.302172 0.0663583
16.136 14.1601 9.95551 0.086765 0.53985 -0.837278
16.4678 17.9557 10.2372 -0.330118 0.213801 0.919408
18.0604 17.2141 13.8591 -0.150708 -0.333536 0.930613
17.2853 17.5113 7.71864 -0.170828 -0.0500134 -0.984031
17.6792 14.2533 7.40872 -0.447764 -0.891966 0.0624867
18.1274 16.8226 9.66701 -0.785313 -0.321827 0.528877
21.471 16.5355 11.4478 -0.588169 0.610743 -0.530142
19.4079 18.4651 10.4815 0.757445 -0.651934 0.0354868
20.3998 13.8057 6.13073 -0.170734 0.947773 -0.269401
19.234 20.0324 12.3003 -0.687199 -0.374278 0.622635
20.7262 14.1718 7.75943 -0.475655 -0.583528 -0.658216
21.6079 18.5375 7.39911 0.606034 0.750712 0.262971
22.2808 17.9075 7.74397 0.561256 0.773468 0.294514
20.1705 20.2745 10.6603 -0.648584 -0.557761 0.517921
11.7907 18.4756 7.79981 -0.493382 -0.76965 0.405233
21.3883 17.7704 10.6351 0.714108 -0.524953 0.463113
10.5757 19.4628 8.58097 0.759797 0.0404802 -0.648899
11.3207 20.0731 7.24291 -0.420312 -0.626495 -0.656386
13.6068 16.289 9.41497 0.738024 -0.598053 -0.312497
10.8668 18.79 7.35093 0.693767 -0.125946 -0.709101
10.926 17.6226 9.4507 0.2311 -0.778397 -0.583687
12.3157 19.0562 12.1038 0.574571 0.120156 0.809587
15.2536 15.1838 12.6096 0.869627 -0.266267 -0.415752
12.3173 20.8452 9.19397 -0.213175 0.923477 0.318978
11.6031 16.9515 7.76907 -0.425263 0.230307 -0.875277
14.5623 18.7639 12.963 0.329152 0.81634 -0.474603
15.6677 18.3874 12.964 0.393542 0.027287 -0.918902
18.085 18.0354 7.59546 0.403127 -0.546767 0.733849
17.6309 18.9068 4.95842 0.861107 -0.1181 -0.494517
12.8766 20.0196 10.2462 -0.660273 -0.627759 0.412259
19.3237 15.8152 9.21088 0.23691 0.96986 0.0569642
17.6793 17.8066 11.326 0.43003 -0.491479 0.757313
17.7945 20.439 7.20316 0.663354 0.318306 -0.677232
20.0932 21.5657 8.50301 -0.299731 -0.93722 0.178268
17.9557 15.3941 6.5007 -0.451511 -0.829244 -0.329383
20.3348 20.3216 9.36502 0.900104 -0.028407 -0.434747
18.0572 22.3023 13.0637 0.873609 -0.223368 -0.432336
19.7852 21.8744 11.8048 0.460938 -0.866424 0.191954
20.8253 19.9489 11.473 -0.529025 -0.618767 0.580741
19.7711 21.3114 7.12523 0.607409 0.651596 0.454396
20.8784 17.517 7.99316 0.710619 0.608612 0.353003
22.7144 18.8135 6.92768 0.43702 0.865098 0.24621
10.3282 20.4277 7.07755 0.256233 0.941127 0.220511
10.7175 19.9121 17.0223 0.0723347 -0.160042 -0.984456
21.9773 20.5815 8.04611 -0.298823 0.596053 0.745269
11.8525 19.9821 9.70154 -0.456781 0.883747 0.101697
12.8362 21.6532 6.18801 -0.905167 -0.302498 0.29861
12.2558 23.072 9.60425 -0.550035 -0.355522 -0.755689
12.9695 18.4444 7.99202 0.194288 -0.953144 -0.231882
10.7201 22.1001 10.3227 -0.666087 0.00856454 0.745825
15.3486 19.0249 8.52217 0.808824 -0.525209 -0.264497
11.3764 23.7014 8.54788 0.550338 0.229728 0.802716
15.68 17.4266 9.47051 0.170642 -0.967592 0.186137
16.4385 23.6805 9.23703 -0.12223 0.963356 -0.238757
13.2115 20.9434 12.952 0.522223 -0.852603 0.0187564
14.7794 21.0801 12.3008 -0.132629 -0.432178 -0.891982
16.4313 21.05 11.1099 -0.898358 0.435462 0.0576676
15.0119 22.2398 10.6153 0.717013 0.161426 -0.678111
16.6617 18.4148 13.2884 0.409755 0.162029 -0.89769
18.9336 20.1446 9.06208 0.0790521 -0.956279 0.28157
16.7423 19.6613 11.7813 0.0334555 -0.332281 0.942587
18.9325 23.3241 10.8223 -0.824509 -0.533681 -0.188069
21.4817 18.8246 9.05345 -0.0289679 -0.815776 0.577643
17.5559 18.4683 9.50984 0.430058 0.204314 0.879378
19.8411 19.6394 6.79996 -0.0344813 0.739556 0.672211
20.1346 22.0793 10.8049 0.226178 -0.931084 0.286228
23.0607 19.8214 8.22516 0.876409 -0.122179 -0.46581
22.5525 19.2598 16.1318 0.690577 -0.257855 0.675732
10.1518 19.4286 18.2951 0.572983 -0.607259 -0.550388
21.126 21.6213 8.01445 0.600044 0.777022 0.190219
23.8083 20.4896 8.66496 -0.709109 -0.344284 0.615332
11.0522 21.8927 5.01073 0.809809 -0.380344 -0.446708
21.2995 22.0566 17.0423 0.972989 -0.219214 0.0723698
22.7995 22.5937 9.19392 0.503188 -0.575322 0.644831
22.8528 23.1664 10.1051 0.275431 -0.667154 0.69213
23.2572 23.8055 8.80705 -0.337636 0.911893 -0.233352
23.8182 23.914 7.73044 -0.369793 -0.284951 -0.88434
11.4667 21.4614 10.7593 0.72046 0.595129 0.356032
11.4481 23.598 12.8736 -0.311911 0.758138 -0.572659
14.1265 23.0029 8.92377 -0.791216 -0.187831 0.581977
13.4186 21.9099 7.95621 0.194674 -0.195491 -0.96119
13.4815 23.3291 11.4396 -0.103022 0.203789 0.973579
17.7162 23.6928 10.9351 -0.347063 -0.885323 0.309435
17.2309 21.0191 9.93128 -0.512239 -0.834671 -0.202323
18.2866 21.8762 9.03749 0.252873 -0.122319 0.959736
16.8081 23.3664 10.2635 0.730056 0.565579 -0.383586
16.6942 22.4712 12.5577 -0.205435 -0.607057 0.767645
17.3131 22.1808 9.23611 -0.256553 -0.628588 -0.734205
20.2115 21.332 9.73737 -0.729181 -0.15025 0.667623
21.1746 22.9384 8.74523 -0.196184 0.859089 -0.472735
19.056 23.7587 9.85961 0.797719 -0.594416 -0.101557
21.1296 22.9425 10.5036 0.416123 0.0643943 0.907025
20.2873 22.6021 6.04513 0.36064 -0.27129 0.892379
19.0137 23.1805 8.55701 0.498828 -0.706449 -0.502097
22.5663 10.9291 11.1678 -0.885705 -0.463595 0.0246366
19.0938 10.8298 6.14247 0.656058 0.621251 -0.428527
10.1593 20.8367 17.6451 0.401478 0.0840362 -0.912005
19.4397 11.6205 11.5788 0.901779 -0.373609 -0.21728
18.7911 12.6705 7.64948 -0.218474 0.415007 0.883198
23.3625 22.2654 6.31179 -0.585021 -0.788882 -0.188191
20.3396 11.398 9.39966 -0.771869 0.570201 -0.281227
11.3567 23.4102 9.97439 -0.669608 -0.619747 -0.409315
12.7179 23.0158 14.8529 -0.549312 -0.815508 0.182219
12.432 10.7889 5.5972 -0.121481 -0.515192 0.848422
10.3299 10.5814 11.8118 0.129518 0.933714 -0.333773
13.4962 23.5129 15.5815 0.328647 -0.942054 0.0672778
15.9338 11.675 10.6227 0.991745 0.0178162 0.126983
12.7621 11.7236 7.8419 0.844165 0.0162359 -0.535837
15.6838 23.467 6.70177 0.191421 0.416037 -0.888972
12.1274 10.6391 13.892 0.3813 -0.274701 0.882694
18.5604 10.9248 14.0564 -0.556822 -0.376623 -0.74034
15.0756 12.3602 11.96 -0.328239 0.821528 0.466208
15.6813 23.8852 15.1591 -0.957789 -0.221442 -0.183316
14.9206 11.4962 13.2633 0.340798 0.899084 -0.274782
17.2411 10.4428 14.1275 -0.179845 0.0366576 -0.983012
16.1052 13.2844 8.67077 0.826174 0.429778 -0.364318
19.6628 10.8395 13.598 -0.0587078 0.0876711 -0.994418
17.2642 23.2864 15.9977 -0.794498 -0.543089 0.271711
20.1769 11.7929 14.8069 -0.341034 0.939177 0.0405197
19.2421 12.694 11.9497 -0.316221 -0.134547 0.939096
19.9429 23.3481 11.9689 0.535079 -0.557927 -0.634357
22.4052 11.8938 11.8276 -0.835577 -0.227811 0.499914
10.2062 12.3601 11.9568 0.766706 0.505773 -0.395418
10.661 11.9963 9.88596 -0.404685 0.00443872 0.914445
20.5083 23.8696 9.95923 0.000127566 -0.14773 0.989028
23.0692 12.9615 11.0849 -0.625766 -0.300385 -0.719851
10.1964 22.2245 12.8389 0.593813 0.727071 -0.344606
23.3853 12.8451 9.72107 0.365585 -0.156095 0.917596
21.7681 14.1623 10.3495 0.0934678 -0.992812 0.0747493
22.6013 14.6641 10.8848 0.529754 -0.835595 -0.145401
12.3191 13.3161 11.8423 -0.497716 0.0648954 0.864909
13.5047 10.9095 11.3123 0.179297 0.417952 -0.8906
14.425 10.8597 10.2135 -0.504136 -0.0339775 -0.862956
11.1422 10.9652 9.32519 -0.0916581 0.321166 -0.942577
12.658 11.5542 13.8818 0.478164 -0.537381 0.694681
12.1143 14.3262 13.423 -0.217556 -0.181303 -0.959061
12.2198 12.3647 10.9067 0.620683 -0.0163836 0.78389
14.8424 14.3877 11.4204 -0.380382 0.685848 0.62042
13.155 12.527 13.042 -0.650966 -0.302962 -0.69603
14.3076 13.8156 9.4171 -0.753576 0.108144 0.648404
14.8001 12.7944 13.9102 0.362216 0.0645309 0.929858
14.7221 13.7965 14.5928 -0.8273 -0.32221 -0.460169
16.5294 22.793 15.2103 -0.786837 -0.558516 0.262579
18.3142 13.3257 15.8425 0.772142 -0.595611 0.221457
17.4233 11.6353 12.0027 -0.095368 0.548069 -0.830979
18.8516 14.1539 13.4232 0.586018 -0.0739786 0.806914
23.4564 12.396 14.2454 -0.632997 0.466613 0.617728
17.1901 10.4095 11.849 -0.2343 -0.639083 0.732582
19.9608 13.0328 12.9522 0.189791 0.409587 -0.89231
20.2195 15.1976 11.5006 0.179833 -0.141466 -0.973472
20.5024 10.4572 12.8873 -0.239053 -0.907963 0.344174
22.5574 13.7409 9.75624 -0.467073 -0.843967 -0.263749
22.2435 11.9406 8.70286 0.337882 0.424432 0.840055
20.1975 15.2416 9.46725 -0.284005 0.755124 0.590871
22.6853 13.6349 13.7554 0.238663 -0.0580942 0.969363
23.2038 16.7055 8.76911 0.378498 0.884056 0.274198
10.3851 12.9284 8.72201 -0.270972 0.844231 0.462437
10.468 16.5346 12.6884 -0.524815 -0.279987 -0.803851
10.2623 14.1641 10.7021 0.430017 0.37143 0.822876
22.8282 17.1039 10.5631 -0.682686 0.261418 -0.682349
11.4015 11.9716 11.4488 0.314972 0.51729 0.795741
10.189 16.6181 14.0243 -0.52624 -0.53807 -0.658447
11.5023 16.2146 15.0727 0.449684 0.892699 0.029544
13.6039 15.3868 12.573 0.342164 -0.936089 0.0816177
13.0732 13.932 12.5352 0.180407 -0.914318 -0.362597
13.9135 17.5994 7.2897 0.0988197 0.802446 0.588485
15.7813 13.4394 14.0139 -0.373016 -0.216755 -0.902151
18.8837 16.3922 10.2574 0.716462 0.680073 -0.155509
14.5421 11.6756 9.11973 0.467169 -0.884127 0.00852822
16.7105 15.3647 12.8005 0.502126 -0.532419 -0.681469
18.8738 13.5828 12.0809 -0.520283 -0.102331 -0.847841
18.9653 17.0568 11.5255 0.264746 0.424787 -0.865717
17.2215 14.6661 10.0079 0.407758 0.391548 -0.824878
15.6958 15.9812 14.941 -0.670052 -0.0547945 0.740289
18.0291 12.504 14.0446 -0.217928 0.725038 0.65332
20.5317 16.1404 11.0331 0.167618 -0.0597549 -0.984039
18.2752 14.381 10.1704 0.432063 0.865616 -0.253044
18.4387 15.7312 11.3598 -0.370103 0.755646 0.540391
21.1752 15.4261 11.7843 0.15081 0.211772 -0.965613
10.4315 17.9139 8.46927 -0.503396 -0.736773 -0.451397
21.1709 11.8395 8.75783 -0.348175 -0.898392 -0.267707
21.9236 14.0783 11.41 -0.671657 0.648317 -0.358555
23.4623 10.9461 6.98708 0.740836 0.347582 0.57476
22.7472 16.6833 7.56748 -0.397184 0.29677 0.868431
22.8799 17.5539 11.6692 -0.425749 0.544651 -0.72256
10.9146 18.1341 14.6308 -0.113046 -0.123205 -0.985922
10.6936 15.1844 14.0897 0.986624 -0.0839554 0.139728
11.6721 18.6921 10.2145 0.546622 -0.591005 0.593227
10.1419 14.9637 9.95652 -0.0926196 0.361404 0.927798
12.7686 19.0375 13.9542 0.702089 -0.26912 0.659277
16.0793 17.5449 7.55595 0.450019 0.163935 0.877843
14.1479 15.7993 10.4759 0.315378 -0.939935 0.130611
14.8723 16.8067 10.1849 0.29699 -0.951214 0.0835955
16.1319 16.0459 12.022 0.243046 0.407593 0.880226
15.669 17.0866 15.8581 0.0761162 -0.975238 0.207648
15.8899 19.3946 12.8845 -0.349493 0.230717 -0.908088
17.8856 13.6996 9.06637 0.420056 0.903643 0.0835556
15.8168 17.3889 14.4148 -0.516754 0.69616 0.498324
16.9014 17.2153 13.0644 -0.846432 0.352378 0.399228
18.2864 17.4263 10.4551 0.402628 0.738835 -0.540382
20.7159 14.2735 10.3213 -0.357171 -0.385143 0.850937
16.6451 15.5392 10.3654 -0.849899 -0.337294 -0.404851
20.2476 17.1042 11.8791 0.196511 -0.0501182 0.97922
19.9021 18.3489 9.39135 0.608023 0.721317 -0.331677
19.8012 18.9636 7.56921 0.533395 -0.682323 -0.499924
19.1976 17.9124 14.0179 -0.968632 0.14142 0.204335
20.0066 21.3213 13.2962 -0.814921 0.565801 0.125593
20.5774 18.8249 11.063 -0.975799 0.165153 0.14332
22.4776 15.9895 9.62193 0.14181 0.96714 -0.211023
21.1888 21.6222 10.6463 0.282004 -0.437015 0.854103
21.5515 15.6863 9.12681 -0.547558 -0.279503 0.788707
23.382 18.5681 18.202 0.460381 -0.507813 0.728131
10.2133 17.1053 10.0531 -0.832082 0.442052 -0.335006
23.1688 10.5639 13.1399 -0.476551 -0.878906 -0.0205623
12.1354 20.4123 11.5153 -0.539515 0.820616 0.188449
10.6545 20.1743 6.08265 0.829339 0.478571 0.288387
10.56 16.4418 8.24631 0.273412 -0.0730843 -0.959117
10.4385 19.9509 9.82019 0.233446 0.820571 -0.521696
13.5066 18.073 10.5576 0.649456 0.742985 -0.161804
13.9802 19.8564 10.6276 -0.377899 -0.810522 0.44749
13.8339 18.7481 8.86787 0.919733 -0.369809 -0.131653
13.8334 16.141 11.6919 -0.138082 0.938696 0.315883
14.1518 18.6754 14.0599 0.436698 -0.72726 0.529517
12.391 21.4699 14.0905 -0.403724 -0.13715 -0.904542
15.998 20.3645 13.4113 -0.782524 -0.0039078 -0.622609
15.9774 19.0235 14.7953 -0.250297 0.810548 -0.529494
18.2433 18.4967 15.0386 0.495472 0.866436 -0.0616232
18.6234 20.5242 11.4153 -0.907212 -0.281969 0.312187
20.5849 18.5841 8.20387 -0.639377 -0.661965 0.391152
18.1997 18.7636 11.8944 -0.529354 -0.646635 0.549224
19.9603 19.5192 12.9365 -0.158394 -0.953865 0.255056
19.4009 22.7285 13.5194 0.372371 -0.0750696 -0.925043
20.0346 19.3402 10.0626 0.936567 -0.347838 -0.0430207
20.7847 10.7286 13.9016 0.126684 -0.989641 -0.0675476
21.4306 18.6285 11.9256 -0.929088 -0.0337065 0.368319
21.5504 20.0473 9.9052 0.645966 0.354895 -0.675853
10.762 17.4673 12.1299 0.879096 -0.230217 -0.417362
19.8518 21.142 14.2868 0.946852 0.321331 -0.014765
11.6862 17.8422 12.704 0.305027 0.288984 -0.90744
23.2268 18.4873 9.76191 -0.895743 -0.339949 0.286495
22.9305 20.3351 10.9441 0.342998 0.341963 0.874879
22.6503 21.6875 12.6387 0.0868495 0.871098 0.483368
11.1682 19.6657 10.8075 -0.531577 -0.834281 0.14629
22.2776 21.402 10.0822 0.791884 0.356636 0.495712
23.75 21.381 9.45793 0.787491 0.529228 -0.315873
23.287 22.0624 15.1737 -0.114352 0.740214 0.662576
12.8918 18.2302 11.7848 -0.163756 0.506573 -0.846503
15.5784 10.3313 7.8371 -0.31969 -0.311593 0.894823
14.8846 19.3122 9.75424 -0.101926 -0.989115 -0.106124
12.0399 21.9073 12.249 0.411267 -0.911511 0.00256949
15.0619 20.9748 14.099 0.814641 0.306059 -0.492634
13.5604 19.4112 9.76672 0.661375 0.664619 -0.347654
13.3929 20.098 11.7168 0.0204494 -0.500048 0.865756
14.3328 20.5759 15.5863 0.711237 -0.426828 -0.558533
16.5291 20.6504 12.0452 -0.967448 -0.251982 0.0234302
16.3327 23.6552 11.3277 -0.580851 -0.584866 0.566166
17.9268 19.9148 8.39654 0.726802 0.0895271 -0.680987
16.4111 21.633 12.0635 0.637241 0.27724 -0.71907
21.9773 22.4754 10.3304 -0.0787299 0.41386 -0.90693
18.6355 22.8197 9.77548 0.720498 -0.611855 0.326369
19.6069 22.2555 9.17551 -0.416922 -0.875395 0.244664
21.5312 10.4114 14.706 0.339104 -0.900831 -0.27113
22.3968 21.4386 14.6094 0.10889 0.949479 -0.294334
22.9011 22.9633 12.0878 -0.593941 0.00119076 -0.804507
10.1418 17.6675 10.9915 0.727838 -0.660181 0.18551
21.8953 22.5468 12.4353 0.202059 0.943498 0.262647
12.6602 19.449 15.5328 0.23169 -0.169035 0.957991
20.699 22.2038 12.2955 -0.432441 -0.0389593 0.90082
11.8882 22.9321 10.9761 0.00574938 -0.45486 -0.890544
23.4917 23.3836 11.1549 0.257928 -0.800122 0.541551
11.3567 22.0199 13.6187 0.186395 0.00906858 0.982433
15.0883 21.5312 9.30059 0.804522 0.589125 -0.0753352
12.742 21.2343 11.1494 0.324973 0.384076 0.864221
21.9372 23.6706 10.2746 -0.587339 0.0163658 -0.809176
13.8692 22.4915 12.2515 0.461113 0.370719 -0.80619
14.5599 23.7742 11.3831 -0.637685 0.209941 -0.741136
15.3708 22.1655 8.34438 0.990378 -0.128151 -0.0522324
15.6264 10.6983 10.307 0.036672 0.360467 -0.932051
14.9666 23.0304 13.9117 0.357338 -0.879867 -0.313279
15.3826 23.3606 10.3914 -0.186497 -0.351754 0.917326
16.3951 21.8217 10.2705 -0.742166 -0.607915 -0.282187
13.7231 21.3278 14.0555 0.259751 0.135054 -0.956185
17.0999 19.5714 15.1362 -0.616686 0.615746 -0.490464
20.9735 10.6873 11.874 0.94324 0.266961 0.197561
13.9699 22.1126 9.77174 0.112363 -0.344588 -0.932005
15.4649 22.1935 11.6682 -0.866397 -0.26032 0.426133
22.1943 11.1292 13.0389 0.711734 0.669294 0.213261
20.5727 10.6713 15.6594 -0.459315 -0.868743 -0.185242
23.0028 20.8545 8.00975 0.235122 -0.283358 -0.929745
20.4636 13.9471 13.6606 0.594451 0.595114 -0.540803
22.5294 10.5537 14.0575 -0.0658864 0.994857 0.0769299
18.5375 23.5079 13.2046 -0.937272 -0.235858 -0.256694
21.013 23.2253 12.4375 -0.0301686 -0.41256 0.910431
21.103 12.1133 11.6509 -0.167632 0.870952 0.461889
22.2787 22.6847 15.2256 0.318798 0.918035 -0.235752
21.7856 10.9133 9.06593 0.00875702 -0.848976 -0.528359
23.8905 23.7553 9.81917 -0.125161 -0.97048 0.206162
10.3953 13.0757 14.4036 -0.562955 0.442719 0.697912
11.396 11.7541 13.7524 0.088693 -0.0130939 0.995973
11.7437 10.8825 11.7595 0.206212 0.7581 0.618677
23.8096 10.7635 14.1898 0.579679 -0.779692 0.236754
11.445 14.4618 15.7633 0.317682 -0.94292 -0.0998955
16.137 12.4174 12.8248 0.274776 0.765998 0.581159
12.9241 10.9191 13.0414 0.196555 -0.607507 0.769612
15.4231 10.7724 12.3456 0.625346 -0.779745 0.0306516
13.9619 11.3296 15.1388 0.0819523 -0.986176 -0.144019
14.394 23.5965 16.1083 0.760668 -0.473975 -0.443544
15.1128 11.0662 14.3464 0.417593 -0.870952 -0.258957
17.6038 22.3857 15.6568 0.762637 0.476358 0.43757
13.0601 12.7428 14.4429 -0.86112 -0.288071 -0.418912
14.2971 22.821 14.7799 0.655618 -0.490082 0.574443
17.2964 11.6388 13.5243 0.380959 -0.451597 0.806802
18.3647 23.732 14.5218 -0.0355295 0.757812 0.651505
16.4474 13.0884 15.5521 -0.977459 0.0832422 0.194021
21.8671 13.6283 15.4442 0.232346 -0.363772 -0.902045
21.9338 12.8139 11.8537 0.00680975 0.324551 0.945844
21.0198 12.3366 13.0554 0.154468 -0.970003 0.187708
23.6534 13.4699 13.1959 -0.0107553 0.987509 0.157193
20.2649 12.7556 15.777 0.681135 -0.635959 -0.362781
20.8182 14.0836 12.0366 -0.404461 0.645894 0.647481
10.8473 10.8134 13.2256 -0.350926 0.555615 -0.753752
21.4576 12.8673 16.0449 0.778713 -0.398141 -0.48486
11.0968 23.3837 16.2624 -0.820126 -0.5542 -0.142321
20.0179 12.5851 7.1123 0.479377 -0.134786 0.867197
12.2283 14.9574 12.0908 0.970326 0.0257803 -0.240424
21.8618 15.4394 14.5486 -0.921387 -0.202239 0.331881
11.6011 13.8595 14.4924 0.0190476 -0.889478 -0.456582
10.5431 13.998 13.9862 0.565282 -0.508859 -0.649244
12.5513 10.8777 9.75722 -0.580204 0.433615 -0.68945
13.8437 15.616 14.549 0.629252 0.0996519 -0.770786
13.5204 14.2623 14.4469 -0.814515 -0.578473 -0.0439853
11.8287 16.0861 14.1492 0.908921 0.0310215 0.415814
12.619 13.3251 13.4265 -0.805922 -0.578922 -0.12385
15.6007 14.0204 12.727 0.928863 -0.227037 0.29269
13.8187 13.7447 16.2771 -0.122094 -0.0978387 -0.987685
16.902 14.434 13.5911 -0.62312 -0.0649026 0.779428
14.8359 12.1352 15.4879 -0.338645 0.938375 0.0690732
15.722 14.9675 15.4335 0.446966 0.136409 -0.884089
17.0224 12.2613 14.7362 0.899762 -0.43382 -0.0472068
16.7342 13.7723 16.659 0.817917 0.464513 -0.339469
18.6625 11.8952 15.4645 -0.260112 0.899983 -0.349818
17.0375 13.549 14.4077 -0.148421 -0.828771 -0.539546
17.8099 12.2685 16.124 -0.827498 -0.173143 -0.534105
19.219 14.9863 12.8975 -0.677887 0.734598 -0.0288898
22.6218 12.6347 13.2295 0.268996 0.003381 -0.963135
18.9818 17.6777 15.4187 -0.338237 -0.684135 0.646184
18.9762 15.7653 13.9577 -0.838499 0.393155 0.377291
19.1897 16.5005 13.3793 0.30794 -0.505059 -0.80628
22.7634 14.3856 15.1543 -0.157127 -0.39042 0.907129
16.4677 12.4053 16.3148 -0.752928 -0.640587 -0.150826
21.4835 10.2955 15.9311 0.245569 0.862085 0.443289
11.1509 14.1807 10.1978 -0.338239 -0.105679 -0.935108
23.1933 16.6569 14.877 -0.361743 -0.303877 -0.881363
21.2564 15.7188 13.7261 0.773273 0.619103 -0.13697
22.9413 14.7681 12.7759 -0.0614314 0.772131 0.632487
23.3992 15.6064 14.9483 -0.904433 -0.278605 0.32308
12.1612 11.3189 10.7242 0.495422 -0.203372 0.84451
15.2701 16.3304 13.7163 0.139908 -0.26586 -0.953805
12.9481 16.2018 13.3858 -0.993143 -0.0257654 -0.114035
14.365 17.1814 12.9505 -0.963486 -0.262364 -0.0534822
16.9259 17.1775 10.7487 0.59165 0.328541 -0.736214
13.701 18.4121 16.6299 -0.000708073 0.75792 0.652347
14.6106 14.8305 15.3909 0.129203 -0.950987 0.280947
16.6994 15.7208 9.32758 0.917581 0.136491 0.373383
16.1165 13.173 11.9877 -0.916006 0.367813 -0.160144
15.6011 15.1772 13.7603 0.588769 -0.486442 -0.645543
14.3485 12.7136 17.1491 0.277935 0.459819 -0.843397
18.0078 15.2432 12.1397 0.479528 -0.752991 -0.450618
19.0924 14.0322 15.6656 0.657035 -0.339067 -0.673304
16.9861 17.6621 14.3697 0.428046 0.235691 -0.872483
18.3969 14.9078 13.986 0.580996 -0.259569 0.771406
20.587 17.2431 14.4388 0.552386 -0.323407 -0.768295
19.3625 14.6942 11.7724 -0.294184 0.915045 0.27595
20.2328 16.0805 14.305 -0.103598 0.414809 -0.903992
18.811 13.1803 13.9312 -0.294552 0.0152767 -0.955513
21.8538 14.4835 12.4041 -0.352132 -0.745168 0.566329
22.0045 14.8823 13.4921 0.180436 -0.602734 0.777274
20.7541 14.5045 15.4138 0.896875 -0.103264 -0.43006
22.027 16.6553 14.5718 -0.170026 0.577129 -0.798757
23.3679 17.6322 14.6823 -0.70151 -0.0838886 -0.707705
21.3303 16.7115 10.1303 -0.675723 0.688979 -0.262118
23.4817 19.3359 13.6518 0.844987 -0.10739 0.523894
12.3871 17.0247 12.3796 0.601046 0.176534 -0.779474
10.9088 19.6245 13.2463 -0.84035 -0.184363 -0.509728
23.6903 16.0784 10.1687 -0.386876 -0.321377 -0.864317
11.478 18.8543 13.8932 0.310498 0.313729 0.89731
14.9405 17.7379 11.9139 -0.87287 0.11912 0.47319
14.1426 17.4307 11.2698 -0.380214 0.897279 0.224339
15.5601 16.5923 11.0654 -0.598032 0.232366 0.767049
14.4257 19.3074 14.9432 -0.822043 0.312447 -0.476048
13.6752 14.6714 15.8069 -0.700621 0.002785 -0.713528
15.5059 18.8832 11.513 -0.806507 -0.246664 0.537312
17.1618 16.0926 11.6799 -0.0624032 -0.951822 -0.300233
14.3072 17.0157 14.0723 0.809451 0.551643 -0.201195
16.8852 16.5189 14.8296 -0.382926 -0.24048 0.891929
19.4949 15.9211 11.152 0.112441 0.496198 0.860898
17.5599 15.9375 13.6264 -0.632308 -0.614612 0.471634
18.9767 18.7438 12.6295 -0.586613 -0.446361 0.675757
21.0793 16.1852 15.4209 0.105112 0.188291 -0.976472
17.6837 19.0556 12.9606 0.00571941 -0.472171 0.881489
19.2537 17.5205 12.7334 0.61144 -0.351194 0.709087
17.8301 15.5671 14.9682 0.295672 0.774576 0.559116
21.1904 16.2491 12.7724 -0.905715 -0.345532 0.245536
20.0598 19.2911 14.2491 0.0319703 -0.823631 0.566224
19.9117 14.8882 14.6855 -0.659075 0.740883 0.129278
18.2346 15.8167 17.508 -0.424043 -0.581281 0.694478
21.6291 16.9759 15.7642 0.180638 -0.365218 0.913228
22.5955 18.5808 12.4968 -0.788469 0.422791 0.446725
23.1769 17.2378 13.2587 -0.973599 -0.134651 -0.184321
11.0813 20.8823 13.4065 0.409944 0.223139 0.884395
23.886 18.4652 13.0635 -0.170258 -0.149212 0.974037
22.1282 19.7561 11.2619 -0.236911 0.808693 0.538413
11.2073 19.9938 11.9703 -0.376974 0.717634 -0.585569
13.0963 20.3987 13.9606 -0.996413 0.0411242 0.0739639
13.9601 17.4283 14.959 0.722062 -0.561382 0.404322
12.5762 17.1801 13.928 0.927496 0.235325 -0.290471
13.5359 18.6051 12.8224 -0.322653 -0.416932 0.849743
12.195 20.2916 12.8545 0.7262 -0.486593 0.485655
16.0184 17.7673 16.8797 0.566808 -0.0189678 -0.823631
14.84 19.5455 13.756 -0.315816 0.661282 -0.680416
16.1989 17.4032 12.2108 0.759566 0.578113 -0.29807
15.4597 19.9409 4.72201 -0.697706 0.341145 -0.629941
19.7062 20.0647 15.627 -0.229501 -0.782775 -0.57844
17.0815 18.6704 14.6438 -0.0570458 0.550766 -0.832708
18.3395 19.3172 14.0068 0.820998 -0.520717 -0.23413
19.2069 16.5274 15.1802 -0.456388 -0.364568 0.811665
19.2185 20.4911 13.3043 -0.094596 -0.629192 0.771472
20.5536 20.5317 14.8473 0.888616 0.412797 0.199902
20.9519 18.1806 14.5973 -0.341553 0.22013 -0.91372
22.6196 19.9689 14.1676 -0.64655 -0.598591 -0.472929
21.3315 17.6207 11.7794 -0.809597 0.33207 -0.484026
18.9191 21.8158 14.6432 -0.882131 -0.258836 0.393508
21.1854 19.6006 14.1249 0.434256 0.54336 0.718458
22.9772 20.3961 15.5501 -0.207844 0.977595 -0.033296
21.1634 17.9384 12.8359 -0.997156 0.072152 0.0217586
23.2725 19.224 11.0595 0.132941 -0.167805 0.976815
10.822 20.1796 14.3394 0.904119 -0.0288866 0.426303
10.3133 10.6443 15.4786 0.868275 0.00391372 0.496068
22.8478 19.7925 12.2326 -0.942401 -0.332317 -0.0380336
22.664 20.3864 13.0165 0.87979 0.435134 -0.191384
10.1399 21.3177 11.6377 -0.456786 -0.165289 -0.874086
11.253 21.5349 15.404 -0.494225 -0.432381 -0.75418
12.1213 18.1116 13.9639 0.308751 0.210499 -0.927558
13.8658 21.3034 11.1696 0.00928188 -0.00334483 -0.999951
15.7201 18.6961 16.3612 0.912403 0.284172 -0.294563
12.3658 21.1744 16.6461 0.512793 -0.0811623 -0.854667
16.8867 20.9978 15.0119 0.33997 -0.197877 0.919383
14.6264 19.6781 11.4809 -0.364564 0.492653 0.790181
15.3112 20.6857 10.8164 -0.494271 0.692796 -0.5251
14.2455 22.2337 13.9546 0.349653 -0.596471 0.722471
18.7344 21.5665 11.6533 0.435079 0.164109 -0.88531
16.5165 23.1927 14.216 -0.937258 -0.058248 0.343736
17.7659 20.3283 12.7135 -0.839768 -0.359177 0.407163
18.4707 21.5526 15.9141 0.427368 0.7975 -0.425853
19.3948 23.0308 16.1716 0.0990355 0.981166 -0.165848
20.3424 22.2192 15.0948 0.834459 -0.547209 0.0651228
17.3747 21.4108 12.9139 0.0795239 0.581065 -0.809962
18.2798 21.0778 13.6814 0.104461 0.969479 0.221807
10.3292 20.2189 15.2404 0.590788 0.56316 0.577772
10.2402 19.9018 11.2322 0.227126 -0.551715 0.802511
21.3247 21.5089 13.2346 -0.541548 0.624694 0.562568
22.646 21.4342 11.3811 -0.552238 -0.632235 -0.543426
22.749 18.6857 14.0313 -0.074924 0.582324 0.809497
22.7418 10.4776 12.0821 -0.718408 -0.668448 -0.192527
23.3232 22.607 13.8282 0.181176 0.98106 -0.0685287
11.6975 10.6606 15.1218 0.652597 -0.268899 0.708385
13.0332 20.3487 15.1589 -0.82235 0.481832 -0.302619
10.9666 22.6581 11.5659 -0.0337926 -0.990134 -0.135988
10.3355 21.6506 13.9505 -0.234946 -0.849685 -0.472056
10.2008 23.2924 15.0588 -0.844704 -0.375719 -0.381195
12.6343 22.7379 16.0351 -0.158575 -0.914547 -0.372099
12.3866 23.3573 13.9145 0.728443 -0.0468059 -0.683506
14.0847 10.4784 12.6756 -0.17353 -0.689483 0.703208
15.9141 11.5319 13.6439 -0.215647 -0.927007 -0.306845
13.0619 22.2971 14.1413 -0.633313 0.161006 -0.756962
13.1908 21.9234 16.6007 0.332384 -0.13323 -0.933687
15.8685 23.0213 13.0571 -0.417531 -0.832793 -0.363489
17.0641 10.8528 17.3863 0.238073 -0.841536 -0.48491
18.8277 22.352 17.1168 0.897467 0.0416178 0.439114
15.5134 22.1722 17.327 -0.870795 -0.0325455 0.490568
17.6115 22.4579 14.5861 0.746181 0.503652 0.435371
14.9376 21.4887 15.9979 0.714979 -0.106407 0.691001
19.283 21.0675 15.3265 -0.436934 -0.808571 -0.394084
19.5784 23.6121 14.6636 0.560316 -0.436801 -0.703741
21.8732 22.9377 13.5563 0.209382 -0.977816 -0.00594396
21.4474 13.4083 13.9511 0.156805 -0.95395 -0.255718
21.0686 20.1249 12.4797 -0.0431562 -0.957837 0.284053
20.0866 12.0181 12.6295 -0.0746425 -0.251791 0.964899
21.7068 20.7502 13.8871 0.986351 0.13599 -0.0928336
10.6998 23.3426 13.551 0.526331 -0.499978 0.687748
10.5661 23.9148 10.705 -0.360905 0.931847 -0.0375352
22.9071 11.7977 10.1878 -0.693295 -0.0597744 0.718171
10.996 11.5438 15.7874 0.967104 -0.245779 0.0655954
10.9278 13.1208 17.6013 0.579982 -0.540665 0.609346
11.3631 12.5902 15.8355 -0.241281 0.495038 -0.834698
23.6785 14.2187 15.8923 -0.426383 -0.699424 0.573588
11.368 22.7785 15.3337 -0.77626 -0.596846 -0.202965
12.7232 11.9637 16.1153 -0.508641 0.860779 -0.0185402
14.9213 12.1082 18.239 0.373979 0.688388 -0.6215
12.3076 12.0797 15.1108 -0.267289 0.961895 -0.0575698
13.7189 11.8692 12.3496 0.45534 0.1492 0.877727
15.7618 23.8839 17.9828 -0.554847 0.401187 -0.72883
17.0874 11.7363 16.7822 0.563728 0.717928 0.4084
13.9426 11.3221 14.0903 0.11537 0.985728 0.1226
13.8161 21.2712 17.0398 -0.862159 -0.482098 0.155765
16.8895 11.2235 15.4345 0.967178 0.0591485 -0.247118
15.0609 10.6805 16.1736 0.907786 -0.36567 0.205449
15.473 23.2246 16.8844 0.459821 0.0616392 -0.88587
16.2847 22.9947 17.5381 0.326423 0.567017 -0.756267
