19.6267 11.6424 18.0945 -0.89472 0.413549 0.168682
16.3121 19.4108 18.9458 -0.375886 -0.0414677 0.925738
17.2645 19.5786 16.5998 -0.153439 -0.550309 0.820742
17.4517 20.5451 16.9165 0.210367 0.51643 -0.830088
17.5621 13.4669 18.2486 0.687754 -0.704993 0.173144
16.0917 18.4159 18.2964 0.896045 0.146806 0.418988
19.2414 17.8806 19.2533 -0.268632 -0.793167 0.546556
17.7802 16.8428 19.6446 -0.62723 -0.725094 -0.28429
18.9738 22.3422 17.2482 0.0190849 -0.644294 -0.76454
17.21 17.464 18.7986 -0.490448 -0.821667 0.290385
21.0051 15.3864 18.0137 0.454845 -0.682467 0.57215
18.5651 16.1162 7.38255 -0.800969 -0.281345 -0.528483
18.1968 16.1766 8.4062 0.922326 0.351727 0.160007
17.1446 17.4671 17.8578 0.283224 0.926353 -0.248302
23.0555 15.3963 8.63024 0.00899419 0.965881 0.258829
18.7916 13.997 18.6855 0.839222 0.410408 -0.356751
19.2371 14.4784 19.5447 0.761541 0.62104 -0.185377
18.4609 16.0553 19.208 -0.795376 -0.589685 -0.140174
11.1898 14.2937 7.22885 -0.327883 -0.800096 -0.502333
16.9626 14.7195 17.3492 -0.985518 0.168451 0.0194553
19.0163 14.8856 17.7682 -0.846963 -0.43715 0.302576
22.9367 18.1004 17.5284 0.495106 -0.755323 0.429368
14.0563 18.0037 19.5408 0.675004 0.453828 0.58173
13.1984 17.1808 19.7328 0.246654 0.708694 0.660995
12.6435 21.6787 16.23 -0.162067 0.294568 0.941787
14.795 21.7075 7.52499 0.801212 0.45033 -0.394032
14.5336 19.9456 19.4972 0.132844 -0.478919 -0.86775
13.1566 20.9339 14.2158 -0.426668 -0.822374 0.376373
15.0204 18.9026 19.4225 0.186221 0.538228 0.821969
14.2108 21.1431 19.7627 0.715611 -0.389395 -0.57989
16.01 16.6567 18.5543 0.363437 0.874344 -0.321614
15.469 20.172 19.8497 -0.00211322 -0.21442 -0.976739
16.2857 17.464 19.4241 0.460742 0.885856 -0.0545555
17.7355 18.499 19.5616 0.449224 0.891872 -0.0525617
16.7332 15.9536 7.01557 -0.777611 -0.334556 -0.532348
17.0297 21.3346 17.607 0.293976 0.250898 -0.922295
18.5888 18.8666 18.6123 0.315824 0.850914 -0.419763
18.9137 18.8487 19.6278 -0.460614 -0.587581 0.66527
19.0556 18.8953 16.801 0.0440488 -0.837544 0.544591
19.4659 20.8466 16.0342 0.552915 0.2818 0.784139
19.6868 19.1169 17.7587 -0.649088 0.64834 -0.397921
19.6221 17.9664 7.14398 -0.769847 0.0706909 0.634302
17.9353 15.3744 18.2235 -0.876891 -0.478474 -0.0461028
17.8179 16.6435 18.6122 0.631589 0.768023 0.105998
19.1203 17.0371 17.3512 -0.560211 -0.525353 0.640444
20.3255 16.2714 8.66698 -0.147662 -0.985715 0.0809995
20.1264 15.2361 18.4694 0.500811 -0.786334 0.361754
22.5685 17.0957 17.3392 0.561715 -0.735124 0.379564
12.621 19.4523 17.7361 -0.71866 -0.618965 -0.316876
23.6112 20.1318 19.1759 0.216448 -0.520302 -0.826097
11.6814 18.2974 19.1643 -0.552124 -0.511456 -0.658461
12.2149 20.6837 16.4122 -0.0308536 -0.350049 -0.936223
13.3075 18.9016 18.2343 -0.516268 -0.740318 -0.430577
12.6034 20.6271 19.4041 0.186022 0.664854 0.72344
12.9242 19.5339 6.91884 -0.0213884 -0.0485638 -0.998591
11.6041 22.6628 9.22051 0.553953 -0.472757 0.6853
23.5151 22.1724 16.1053 -0.44257 -0.628725 -0.639404
12.0831 21.0876 8.65072 -0.702574 0.430815 -0.566382
19.0566 20.7952 19.3801 0.321588 0.922363 0.214075
18.2455 21.4338 18.9098 -0.488315 0.762536 0.424367
16.3175 22.2169 17.9994 -0.873446 -0.078396 0.480569
18.1622 21.3704 6.91083 0.640846 0.757064 0.127165
16.9518 17.1827 7.29836 0.830297 0.533025 0.162762
20.3219 21.4553 6.81475 -0.318245 -0.333068 -0.887573
17.5738 23.2569 18.0141 0.50333 -0.641921 -0.578443
17.4155 18.4804 9.42558 0.628348 0.418491 0.655778
21.1303 18.491 18.975 0.624422 -0.157148 -0.765115
21.013 19.4013 17.1362 0.135723 -0.227808 0.964201
20.0648 19.1459 16.7162 0.312876 -0.719755 0.619727
21.1759 19.4376 19.8174 0.0766242 -0.0633022 0.995049
20.2176 18.7425 8.9639 -0.725393 -0.522959 0.447571
21.5411 20.1167 18.08 0.245514 -0.166784 0.954938
10.9024 19.5663 14.9 -0.220883 0.851202 -0.476094
20.7158 21.6024 18.1852 -0.205131 0.12096 -0.971231
22.9336 19.5481 19.6961 0.314463 -0.227957 0.921492
13.5708 19.2531 17.3062 0.728473 0.321352 0.605029
15.4166 19.4019 16.5732 0.466581 -0.267688 -0.842998
23.3583 22.0794 19.1649 0.324322 0.242908 0.914227
11.926 21.3906 9.63555 0.702646 -0.27674 0.655518
13.1834 20.0804 16.9328 -0.758417 -0.302064 -0.577547
13.3837 20.7996 16.2061 0.534124 0.185262 0.824857
23.6397 11.3878 18.7405 -0.227455 0.865101 -0.447062
12.032 22.3995 19.7753 -0.898618 0.282389 -0.335771
11.3695 22.7529 7.64428 -0.220158 0.600742 -0.768531
14.2626 22.5899 7.58471 0.814052 -0.0596531 0.577721
13.7777 22.4564 18.505 0.203474 -0.903375 0.377507
18.2503 20.2497 16.2082 0.064617 -0.489829 0.869421
18.4911 21.8044 10.3014 0.342409 0.703561 0.622703
17.499 22.0607 18.329 -0.649456 0.169035 0.741373
17.2335 22.2021 7.05059 0.940204 0.200578 0.275291
20.1776 19.6113 9.58714 -0.859141 -0.507593 -0.0650142
19.6651 22.4043 7.51283 0.271269 0.256782 -0.927619
20.286 19.4327 18.5641 0.307861 0.554879 -0.772872
16.5049 21.2185 9.42495 0.341416 0.847508 0.406404
20.9138 21.1057 8.11487 0.958027 0.259772 0.121257
20.3508 20.3089 16.6468 0.461034 0.184205 -0.868053
21.2521 21.5 16.7043 -0.440319 -0.708118 0.551986
19.9417 19.4393 8.11451 -0.605123 -0.406067 0.684789
22.4549 21.499 19.4348 0.0374085 -0.0615902 0.9974
21.7139 22.9208 6.9561 -0.303142 -0.00963293 -0.952897
22.4906 20.5606 19.1684 0.164261 -0.0141631 0.986315
22.2002 21.9934 9.03922 0.897598 0.420044 0.133723
11.2265 20.6911 18.5955 -0.455415 -0.0513544 -0.888797
22.1012 12.3989 18.6136 0.589632 -0.212798 0.779135
21.5764 13.2969 15.3863 -0.829794 -0.429952 0.355787
15.2351 21.1993 16.5306 -0.300023 0.736223 0.606599
12.5664 22.0225 8.95102 0.404332 -0.697749 0.591323
14.6802 20.6817 15.4682 -0.279922 0.377266 0.882787
14.6886 20.2049 16.5621 0.0480918 -0.511214 -0.858107
12.4807 22.7743 18.0134 -0.584503 0.755053 -0.29707
13.4556 13.3216 19.0771 0.39898 0.856361 -0.327812
13.2705 21.6666 17.5142 -0.368431 -0.926763 -0.0732714
12.6164 18.5181 9.8669 -0.117637 0.166667 0.978971
14.0846 13.031 7.52098 -0.0687377 -0.321794 0.944311
16.7804 22.9217 7.53263 -0.720419 -0.0801064 -0.688897
12.0579 10.7208 7.07697 0.653909 -0.694842 -0.299329
18.2103 21.6305 8.91097 0.550664 0.741568 0.383204
17.2637 10.8498 8.02141 0.416833 0.075275 0.905861
16.6562 20.8389 8.30019 -0.48546 -0.716337 -0.501189
16.2813 20.2953 18.0977 0.291863 -0.267647 -0.918249
19.2018 21.2913 9.29448 0.720495 0.679302 0.139411
17.9498 23.1123 9.23831 0.655413 0.745135 0.12332
20.8517 10.4418 19.6907 0.492791 0.415596 -0.764484
19.3187 23.3612 7.30995 -0.720476 -0.497928 0.482683
21.992 20.8221 16.8026 -0.411359 -0.386774 -0.825342
22.4445 12.6573 7.77462 -0.764615 0.305421 -0.567523
22.2829 20.4237 8.56786 0.149179 -0.421188 0.894621
21.4913 21.1925 15.6358 0.912771 -0.13489 -0.385557
21.0357 20.5833 8.94004 -0.839002 -0.392025 -0.377349
20.6643 22.1413 8.9743 -0.632444 -0.525248 -0.569323
23.2991 12.219 9.86166 0.500148 0.700154 -0.509545
11.6583 10.528 15.2104 0.452361 0.305819 -0.837761
16.176 21.4166 16.9116 -0.531801 0.702429 0.473055
23.3602 15.0145 10.6413 -0.961025 -0.257834 -0.0997597
11.9237 10.63 8.99779 -0.272463 -0.116828 -0.955047
14.4326 13.1404 18.6561 0.0917422 0.836258 -0.540608
17.2975 11.0877 17.2057 0.85324 -0.511908 0.0996568
11.0817 14.9782 8.81879 0.636392 0.721554 -0.2727
15.1667 11.3332 7.40735 0.623412 -0.196758 0.756732
19.8249 23.1114 16.7789 -0.8283 0.290171 0.479292
14.2938 11.2308 18.7803 -0.528664 -0.834301 0.156388
13.77 10.543 7.45882 -0.985665 -0.0675657 0.154594
16.2199 10.864 10.363 0.700819 0.312878 0.641062
15.6636 23.2426 7.60915 0.726304 0.414971 0.547979
16.5077 22.9019 8.59135 -0.656394 -0.560284 -0.505201
15.2455 12.9096 19.7508 -0.00228438 0.193657 -0.981067
18.5398 13.2224 7.94272 0.414584 0.204224 -0.886799
18.8533 13.1892 17.7789 -0.766787 0.631889 -0.112932
20.0248 11.4034 10.3784 0.837026 0.349372 0.421102
16.9968 21.9398 11.8374 0.507497 0.725706 0.464541
19.0503 11.2697 6.95361 -0.888496 -0.453779 0.0682546
21.1478 14.8765 19.6987 -0.390031 0.767162 0.509252
12.2661 12.9248 18.4593 0.145824 0.342436 0.928156
19.0839 12.3006 7.82678 -0.84863 -0.0297239 0.528151
19.7012 10.9538 9.19983 0.587655 0.78499 -0.196095
14.9683 12.4422 16.8438 -0.804502 0.566177 0.179498
20.3223 23.1194 9.15899 -0.774314 -0.619365 -0.129711
23.011 14.2396 11.3127 -0.876715 0.0703462 0.475839
10.9494 11.0332 17.7343 0.0875096 -0.996111 -0.0102647
13.2499 11.4128 17.487 -0.720836 -0.490686 0.489513
14.1552 11.6493 15.8214 0.778643 0.132138 -0.613397
11.7359 16.232 12.1601 0.208504 0.0349193 0.977398
23.3788 14.2953 9.94758 0.980823 0.122015 0.151982
12.6705 16.4164 7.318 0.111333 0.953726 0.279307
15.7659 12.6062 17.5433 0.91701 -0.340612 -0.20755
13.12 17.2366 11.5676 0.12701 0.135404 -0.982616
10.9677 12.2638 11.5964 -0.970181 -0.0843268 0.227239
15.6399 11.5669 19.1027 -0.684553 0.59389 0.422707
17.2209 23.4009 10.1585 0.428362 0.661577 0.615486
13.1369 15.8131 8.9833 -0.80344 -0.526908 -0.277222
12.7924 11.1459 8.17409 -0.978337 0.117873 -0.170184
16.3811 13.5375 8.12191 0.236741 0.533247 -0.812159
14.4728 23.2296 19.4835 0.726138 0.676405 0.123284
13.3107 15.4554 19.4755 -0.127531 -0.853862 -0.504634
19.1817 11.9629 9.55162 0.306323 0.0613877 -0.949946
21.5892 14.1489 7.35285 -0.682799 0.647329 0.338747
20.8396 16.8553 19.6555 0.394146 0.918609 -0.028383
17.1967 13.2299 10.3923 0.356768 -0.0318326 -0.933651
18.9778 12.4319 19.7932 -0.722783 -0.691072 -0.00189466
20.0858 17.1959 17.8831 -0.292128 0.899667 -0.324439
20.8093 17.1724 17.2724 0.436241 -0.76676 0.470928
20.2536 13.3977 12.5134 -0.635364 -0.680838 -0.364378
23.442 13.4099 10.359 -0.856502 -0.00380931 0.516129
21.0481 16.3548 18.8076 -0.111638 -0.97513 0.191465
11.3512 11.6912 19.4467 0.18957 -0.981188 -0.0365149
11.7587 14.4705 11.0616 -0.37712 -0.618302 0.689553
10.8299 12.8577 8.07429 0.108502 -0.681062 -0.724142
10.7595 15.4818 7.95434 -0.281846 -0.946779 -0.155478
12.3065 14.769 7.56867 -0.0502451 -0.874485 -0.482443
10.7773 16.9879 9.17925 -0.766941 0.459883 0.44756
11.73 17.0417 9.75109 0.658577 -0.734187 -0.165063
13.4802 20.411 6.89602 0.000120599 -0.24173 -0.970344
12.33 15.6185 19.175 -0.00739415 0.916559 0.399832
12.8786 16.4207 14.012 0.260895 -0.0726089 0.962633
12.4374 12.7617 7.09915 -0.968849 0.230378 -0.0908729
14.4599 15.8898 18.8342 0.671339 0.710411 0.211236
15.9571 14.1073 19.7085 0.0926397 -0.84818 0.521544
15.3662 17.6813 6.87582 0.295145 0.930526 0.216821
17.4891 13.5035 8.07896 0.419991 0.378365 -0.824892
17.0132 19.823 7.50698 -0.769426 -0.63825 -0.0249149
17.3144 14.2105 19.6856 -0.0423618 0.995962 -0.0791534
13.4345 16.4739 10.5994 0.37524 0.0165041 0.926781
19.6201 14.3671 11.1842 -0.462714 0.10311 -0.880491
21.6265 13.5456 9.22086 0.833585 -0.219833 -0.506763
19.9394 16.3109 7.32089 -0.106903 0.785969 -0.608953
16.1891 15.4568 8.27235 -0.272405 -0.0980184 -0.957177
21.4385 14.134 8.43714 -0.73279 0.528839 0.428191
18.2921 18.1033 17.7397 0.213073 0.970087 -0.116322
20.6374 17.6725 7.47018 -0.529928 -0.743475 0.407948
22.806 16.5157 18.629 0.151322 0.984751 -0.0858356
21.9105 16.9043 19.222 -0.0459984 0.99829 -0.0360831
18.7851 15.2956 6.85935 -0.782932 -0.577687 0.230857
23.0102 16.1761 7.87125 -0.231697 -0.836723 -0.496197
21.3913 18.5199 7.96705 -0.791086 -0.416992 0.447549
11.7492 14.3162 8.3789 -0.923337 -0.305936 -0.232062
18.8849 17.1702 7.8693 0.880682 0.27306 0.387088
11.3971 15.4 18.8703 -0.180933 -0.980192 -0.080538
11.9937 17.1961 11.9113 -0.311848 0.0976316 -0.945103
13.5952 16.5462 13.0732 0.170769 0.192923 0.966239
11.3742 17.816 7.30662 0.13174 0.969754 -0.205479
13.9355 19.1053 19.5066 0.116863 -0.563887 -0.817542
12.059 18.352 18.1773 0.197124 0.81541 0.544287
15.4305 17.6445 18.7957 0.409152 0.778059 0.476674
15.7066 21.3132 19.4592 0.629553 0.31493 -0.710269
13.862 17.6198 18.0841 -0.994064 -0.0334527 0.103529
15.4044 18.9213 9.11559 -0.749405 -0.66208 0.00653196
18.0669 20.1176 18.5449 -0.327626 -0.127166 0.93621
16.336 18.4423 7.95869 0.20012 0.764549 0.612712
17.4865 19.306 18.5433 0.35258 0.0025803 -0.935778
19.6106 19.1742 7.22173 0.671882 0.418372 -0.611179
18.0025 15.1957 8.76043 0.00966131 0.618007 0.786113
17.106 14.6446 8.77365 0.033202 -0.270727 -0.962084
19.9376 13.4807 10.2864 0.623958 -0.54995 0.555186
17.783 17.4641 9.36301 -0.944665 -0.160274 -0.286218
22.794 16.3367 19.6265 0.0788451 0.99576 -0.0473839
21.3144 18.2939 17.4542 0.455033 0.62503 -0.634258
18.1889 19.1987 16.1552 -0.280795 -0.482675 0.829565
19.2396 20.7467 17.537 0.176582 0.355718 0.91776
21.3056 18.0494 12.1819 -0.22479 -0.117865 0.967253
19.8362 16.0677 9.67197 -0.982443 -0.075311 0.170688
18.5136 14.9455 18.9245 -0.809677 -0.586738 -0.0127124
21.4342 17.4458 10.4603 -0.334062 -0.0523968 0.941094
23.4155 18.0504 8.14289 -0.651399 0.756301 -0.0607293
11.6029 17.8067 9.01341 -0.981432 0.191808 -0.000357288
11.1208 19.0851 19.1221 -0.291146 0.0610902 0.954726
10.8828 20.8098 8.96882 0.637972 -0.740334 0.21189
12.2465 17.5376 19.43 0.116679 0.336089 0.934575
11.0257 21.6616 18.3782 0.225448 0.131941 0.96528
11.6459 20.1141 8.24049 -0.603974 0.766346 -0.218928
12.3797 18.8137 7.78166 -0.859456 0.486652 -0.156542
18.3419 19.523 7.32169 -0.811657 -0.234441 0.535023
12.6183 20.4605 8.01737 0.548904 -0.371478 0.748804
16.6948 21.1304 19.751 0.614222 0.21501 -0.759277
13.3299 19.2778 10.4282 0.0150259 -0.258285 -0.965952
15.874 17.0563 7.88821 -0.816104 -0.331931 -0.47307
14.2957 19.0553 10.437 -0.120884 -0.502678 -0.85598
19.0282 20.9434 7.33672 0.736682 0.600764 0.310454
16.644 18.9873 13.8767 -0.453783 0.030184 0.890601
17.4446 17.8732 10.2712 -0.843102 -0.168712 -0.510603
17.9798 18.1786 8.64831 -0.773052 -0.29407 -0.562062
15.1679 14.782 7.20951 -0.0624579 0.197222 -0.978367
16.1177 19.6492 10.4795 0.218907 0.754717 0.618452
19.3534 18.5399 10.2374 0.9073 0.301245 0.293357
19.9106 20.3188 19.2557 -0.364056 -0.129443 -0.922338
19.8186 18.3688 8.10147 -0.682776 -0.365456 0.63266
19.245 19.0518 11.2501 0.786721 0.308525 0.53468
22.539 19.2131 9.10102 0.581448 -0.142905 0.800935
21.6481 21.918 18.4928 0.0913819 -0.181191 -0.979193
20.4586 14.0467 8.00898 -0.607495 0.699506 0.376354
11.8526 18.9963 9.32752 -0.108644 0.51697 0.849081
23.677 19.7427 9.67396 0.470283 -0.363448 0.804201
11.8571 19.8262 19.5189 -0.313189 0.0207741 -0.949463
11.582 22.3676 18.1166 -0.281668 0.611637 0.7393
21.7335 11.5446 10.4611 0.55802 0.689288 -0.462056
23.2868 20.5945 7.92445 -0.467999 0.828993 0.306183
23.4542 22.483 17.879 -0.176078 -0.424517 -0.888134
23.2551 20.981 18.4973 -0.297819 -0.254612 -0.920041
22.656 11.125 7.40309 -0.0187979 -0.961347 0.274698
14.0371 20.17 8.33357 -0.528633 -0.842436 -0.104152
12.1503 21.5575 18.8854 -0.234299 -0.086484 0.96831
12.5652 21.6176 7.96086 -0.77292 0.352362 -0.52767
15.1326 19.9237 10.5278 -0.296936 -0.485097 -0.822502
15.25 19.5286 14.5481 0.169194 0.246204 0.954336
16.9017 21.9953 8.00107 -0.822178 -0.317143 -0.472699
18.9128 22.005 18.594 0.0953084 0.402612 0.910396
16.8985 22.2957 10.9041 0.558828 0.622513 0.547896
18.1375 21.0424 17.4046 -0.423333 -0.015794 0.905836
18.1902 22.2216 11.493 -0.52963 -0.382143 -0.757271
20.142 20.8025 9.56983 0.739543 0.661686 -0.123482
17.6841 19.4724 9.11122 0.412393 0.637392 0.650894
19.571 19.618 10.4943 0.835366 0.268538 0.479636
19.6014 23.3023 8.29879 0.778132 0.473007 -0.413248
20.7494 22.4172 19.3337 -0.136845 0.0402758 -0.989773
19.586 20.2899 12.3931 -0.570133 -0.57593 -0.585878
21.2387 19.5458 10.7386 0.386357 0.408338 0.827036
22.0316 19.1532 18.6631 -0.0209425 0.00200492 0.999779
21.5986 20.9757 18.9337 -0.12337 0.0267155 -0.992001
21.6149 20.7398 11.3133 0.958209 0.122836 0.258355
22.5893 18.3735 19.2021 -0.159813 -0.307133 -0.938152
22.4348 12.0848 9.171 0.560105 0.791701 -0.243911
11.0722 19.002 8.30493 -0.328446 0.927456 0.17874
21.704 10.6645 12.6066 0.889558 0.321354 -0.32468
22.1581 10.5076 18.7156 0.176264 -0.185065 0.96679
23.0834 23.408 10.2704 -0.538493 -0.759557 -0.364826
13.2147 22.3897 7.96661 -0.819269 0.433398 -0.375452
23.4387 21.9387 7.86085 -0.19349 -0.542339 -0.817576
14.7834 20.7605 9.94122 -0.296799 -0.588584 -0.751984
12.2139 23.2051 18.8704 -0.675234 0.662089 -0.325111
11.1704 20.8172 7.18063 -0.0622752 0.997481 0.0339675
15.2392 11.2626 8.83856 -0.707589 -0.0846048 -0.701541
15.5576 22.3888 9.18636 0.577358 0.568611 0.585951
15.7977 21.4885 8.39988 -0.701305 -0.509452 -0.498628
17.8813 21.5431 7.82093 -0.742242 -0.618131 -0.258826
19.1244 10.7111 12.2461 -0.368897 0.924368 -0.0972618
17.5956 20.9904 11.7797 -0.541577 -0.675886 -0.499872
18.6681 23.3991 11.4115 0.592871 0.168533 -0.787465
17.2197 20.4612 9.15145 -0.252949 -0.675439 -0.692675
16.8863 20.7529 10.3832 0.401158 0.621405 0.672999
18.4991 20.5521 12.0716 0.571588 0.527238 0.628735
20.7253 23.4196 18.4226 -0.608992 -0.157137 0.777455
20.9636 11.7937 19.5577 -0.278731 -0.693684 0.664163
19.6557 11.3514 8.03794 -0.732293 -0.409606 0.544031
19.6015 21.7387 11.3848 -0.290937 0.928398 0.231156
20.9028 23.2478 8.28066 -0.475051 -0.834978 -0.277737
20.5755 20.5907 18.5094 0.439174 -0.295694 0.848346
19.2193 21.1586 10.3023 -0.436274 -0.858271 -0.270251
10.974 11.3093 9.39861 -0.121771 0.344082 0.93101
14.0671 22.7295 16.894 0.162195 -0.986353 0.0283124
22.2572 11.8012 11.2804 0.957729 -0.0485087 -0.283551
11.3262 12.2517 8.88769 0.265 0.588771 0.763626
10.7262 10.6369 12.2793 -0.936796 -0.32699 -0.124462
11.7489 14.7864 12.5284 0.598984 -0.0234828 0.800416
23.6541 11.1865 7.06079 -0.325318 0.637751 -0.698171
13.0509 13.0826 10.8851 0.978252 0.182148 -0.0992183
14.0827 10.473 12.7965 0.401494 0.563569 0.721937
12.9671 14.7731 10.6603 0.139608 -0.116519 0.983327
13.1742 23.2482 8.91217 0.715337 -0.0814692 0.694014
13.4552 12.8369 9.22061 0.50824 0.0653913 0.85873
17.75 11.1663 11.9436 0.4055 0.647443 0.645281
16.7661 12.6439 7.82166 0.0254872 -0.382152 0.923748
17.0987 11.6484 12.8399 -0.258017 -0.160971 -0.952636
14.6568 12.1504 7.97521 -0.273229 0.0611693 -0.960002
19.0409 12.8766 10.19 0.553716 0.0237762 -0.832366
16.7139 11.3799 8.94899 -0.262494 0.0752294 -0.961997
18.2597 21.0474 10.97 0.506035 0.501217 0.701933
16.6924 12.5207 12.214 0.259345 -0.0254897 -0.965448
18.1973 14.6102 10.0016 -0.382338 -0.06483 0.921745
20.0551 12.3776 19.3434 0.709502 0.599896 0.369772
20.5881 12.4998 7.9484 -0.526181 -0.0370337 0.849566
18.8781 13.9409 13.6382 0.284534 -0.480384 0.829621
21.4108 12.5227 9.78594 0.431864 0.139593 -0.891071
20.6455 14.1294 10.5791 -0.745261 0.499711 -0.441445
20.9169 23.0612 10.6032 0.478153 0.631015 -0.610893
23.2449 12.6975 12.5914 0.818379 0.509225 -0.266358
23.3876 23.1811 11.2151 0.93675 0.205201 -0.283535
22.0975 14.6192 9.07948 -0.709575 0.681283 0.179881
23.3014 15.3216 9.64988 -0.952668 0.188643 -0.238407
12.3864 13.0793 11.8735 -0.992513 0.0370583 -0.116383
13.914 14.8695 12.8475 -0.195501 0.0825096 -0.977226
12.7474 13.2218 9.85072 0.478437 0.732917 0.483664
13.9321 15.3538 10.7715 -0.459712 0.0348097 -0.887386
11.6937 13.6409 10.5489 0.617766 0.517133 -0.5924
13.3552 14.7387 14.4135 0.195521 0.272482 0.942085
14.2591 15.7927 12.8291 -0.12098 0.143985 -0.982157
18.4554 10.5816 10.2663 -0.139451 0.935743 0.323942
13.7963 15.0645 7.49586 0.811492 0.258168 0.524242
15.881 12.0791 8.69969 0.357367 0.0122051 0.933884
16.7142 12.1839 19.0829 -0.599366 0.710691 0.368347
13.8197 11.8613 8.6716 -0.667812 0.342624 -0.660784
17.0715 14.1569 11.1633 -0.343969 0.431566 -0.833928
15.5035 12.6117 12.9153 -0.160553 0.170363 -0.972214
18.13 12.5308 9.97275 0.477126 -0.0474418 -0.877553
18.0862 11.5871 9.46427 -0.496798 -0.029467 0.867366
18.1157 12.0607 11.427 0.95555 0.266294 0.126541
19.8595 14.2353 13.264 -0.0213791 0.61948 -0.784721
22.073 17.4048 7.10178 0.201762 -0.960056 0.193867
19.709 13.1261 8.01218 -0.55898 -0.170305 0.811503
21.1269 16.5772 7.82483 0.335243 0.934926 -0.1163
22.3693 14.713 12.489 0.944099 0.00933468 -0.329531
21.8672 15.498 6.99466 -0.383453 0.920685 0.0728135
20.973 14.2706 11.8572 -0.317632 -0.890177 -0.326642
20.3805 15.0512 13.5869 -0.337857 -0.283415 0.897513
22.9951 13.6829 12.503 -0.677847 -0.416041 0.606162
23.2497 13.0308 7.24819 0.242967 -0.524532 -0.815986
11.831 17.0101 13.628 -0.537344 0.0580107 -0.841365
22.4119 17.0515 10.3195 -0.0558023 -0.956095 -0.287696
12.212 13.4674 8.88217 -0.554915 -0.670883 -0.49192
11.6983 16.3446 14.6915 0.68624 -0.412409 0.59916
11.5025 15.9234 9.80309 -0.575045 0.0380201 -0.817238
22.535 16.547 12.8824 -0.7253 -0.247064 -0.642572
12.5849 16.3739 11.5468 0.129909 -0.325655 0.936521
11.7935 14.5551 9.37296 -0.455382 -0.87331 -0.173079
15.025 13.8197 6.98967 0.464267 -0.165342 0.870126
14.2725 15.5415 19.8347 0.00226478 0.789797 0.613365
16.5065 13.7581 9.87183 -0.282027 -0.0857635 0.955566
14.2669 17.0863 6.91318 -0.36975 -0.692085 -0.619922
17.8725 14.0236 9.02705 -0.535391 0.0223971 0.844307
15.8228 15.6196 13.9431 -0.0467439 0.335588 0.940849
19.1518 13.7776 12.3847 -0.279826 0.45492 -0.845426
17.2015 15.9012 10.1642 -0.00555585 -0.316751 -0.948493
19.5143 13.2078 11.2324 -0.706686 0.622732 -0.335858
18.056 15.9355 11.0608 0.130894 -0.424832 -0.895759
22.1847 16.6447 8.23934 -0.0329834 -0.958984 0.281536
17.2467 15.1624 7.4889 0.897928 0.322498 0.299533
22.1012 14.7811 7.96494 0.743394 -0.581193 -0.331028
21.3568 16.8369 8.72819 0.194976 0.973104 -0.122689
20.205 15.1745 11.0912 -0.1845 0.157563 -0.97012
19.4989 14.9228 9.23467 -0.65558 0.745523 -0.120043
23.5351 16.056 11.7447 -0.73384 0.617362 0.283447
21.1812 16.1444 13.3982 0.0724906 0.207037 0.975644
21.3419 15.5617 10.2052 0.863191 -0.458151 -0.212131
22.1873 16.4382 14.5051 -0.233441 0.251387 -0.939314
10.7927 17.0842 11.2066 0.247649 -0.358777 0.899972
10.8653 18.7235 9.5047 0.600589 -0.26557 0.754165
12.4256 18.2543 15.8088 -0.804138 0.00383049 -0.59443
11.2434 17.9113 11.7363 -0.148013 0.126927 -0.980807
12.5438 15.4928 13.9665 -0.232981 0.137902 -0.962654
14.3888 16.8464 12.5839 0.378683 -0.36222 0.851702
14.2891 17.5219 8.42658 0.397074 0.91311 -0.092529
16.8202 20.2573 19.1892 0.491933 0.165952 -0.854671
17.217 18.5869 7.3509 0.87426 -0.097724 0.475519
14.7996 17.881 10.5794 -0.397572 -0.0222682 -0.917301
16.7342 15.0352 14.1662 0.053788 0.110321 -0.99244
14.4101 19.1099 7.7321 0.3709 0.925258 0.0795658
15.2279 15.8555 7.34972 0.0706969 0.164353 0.983865
16.6885 17.1993 14.5147 -0.439959 0.126285 0.889094
17.841 14.6031 12.2377 0.358926 -0.530838 -0.767713
15.6946 17.9148 9.95668 0.627652 0.335078 0.702692
16.4556 15.5596 10.8578 -0.0350794 -0.352614 -0.935111
17.6155 14.6123 14.1999 -0.38092 -0.550006 0.743232
19.3306 14.4275 15.9848 0.294482 -0.852678 0.431533
18.8773 18.8115 13.0783 -0.275966 -0.842928 -0.46186
22.3271 16.9111 9.14109 -0.504536 -0.818867 0.27368
17.6499 15.6291 14.5825 -0.429971 -0.227279 0.873767
20.587 14.7244 17.4102 -0.0366252 -0.663261 0.747492
20.0743 18.7961 12.4428 -0.420135 0.760472 0.495145
21.1926 16.5004 11.2824 -0.40223 0.073172 0.91261
16.976 16.4312 8.8932 0.835194 0.0822939 0.543763
10.6832 16.4759 10.0676 0.824375 0.251192 0.507256
22.3496 19.8557 7.57531 -0.611069 0.227308 -0.758238
23.2117 17.2696 7.36195 -0.531614 0.84252 0.0868736
23.355 19.2807 10.9483 0.475005 -0.527581 0.704293
22.5389 21.2101 12.5832 -0.100302 -0.820317 0.563045
12.4897 19.8235 9.37175 -0.477031 0.635527 0.60708
13.0837 18.4622 19.6096 0.362318 0.381876 0.850233
11.2728 20.4233 12.1539 0.0871113 -0.749699 0.65602
14.0958 18.897 8.69923 0.712891 0.697867 0.0690463
11.984 16.9035 7.99834 0.265522 0.943386 0.198799
18.9927 19.7758 7.99473 -0.653397 -0.613906 0.442935
11.6784 21.3282 10.7145 -0.354316 0.660339 -0.662127
12.9909 22.515 10.0178 -0.176625 0.96799 -0.178323
14.6834 18.7186 11.8446 -0.404385 -0.341193 -0.848564
15.7602 17.9979 8.74783 -0.586946 -0.419213 -0.692643
16.8963 22.7777 13.4153 -0.276287 -0.547634 -0.789786
18.1726 15.1605 15.5577 0.318068 0.0742297 -0.945158
17.7272 20.0121 13.5075 0.244459 0.54672 0.800835
15.4152 16.9162 8.79693 0.712882 0.226692 0.663634
15.138 20.9353 12.7316 0.058609 0.633947 0.771152
17.4877 16.5419 14.8004 0.407777 0.268718 -0.872645
17.4965 18.9703 10.8045 -0.724583 -0.383355 -0.572729
19.3307 17.1053 9.21175 -0.747288 -0.625087 0.225449
14.7327 16.0606 9.06942 -0.452159 -0.0944644 -0.886921
19.5386 16.9338 12.9576 0.0830757 -0.216155 -0.972818
21.982 19.2845 9.96016 0.600139 -0.360188 0.714212
20.3163 17.4879 12.8276 -0.141117 0.309336 0.940424
21.6275 22.8489 8.75456 -0.324036 -0.736763 -0.593448
23.2157 18.2185 10.3269 -0.212261 0.0818782 -0.973777
22.4981 22.4828 19.4776 0.243408 -0.0442298 0.968915
23.0106 20.757 9.63268 -0.431457 0.464739 -0.773216
21.7638 11.0874 6.84223 0.0487426 0.451953 -0.890709
23.6375 21.3076 10.3663 0.0203221 0.430704 -0.902265
22.6496 11.3551 18.7915 -0.281089 0.447499 -0.84896
23.2817 10.9923 8.19154 0.051868 0.917313 -0.394774
11.0158 10.466 9.86069 0.693654 0.401004 0.598364
12.8797 22.1682 11.8114 -0.0784732 0.925901 -0.369526
15.731 20.5466 10.0153 0.310912 0.595227 0.740972
23.5763 18.0249 19.7517 0.00900862 -0.626389 -0.779458
13.8081 20.8987 9.84727 -0.237136 -0.202989 -0.950033
15.2469 19.0772 10.9949 0.0694916 0.49538 0.865893
15.4327 21.1151 9.24727 0.353005 0.697359 0.623761
17.0548 19.5401 9.993 0.422011 0.522573 0.740827
15.8774 18.6676 11.8342 -0.0384892 0.741625 0.66971
15.0001 18.3728 13.24 0.43113 -0.296706 -0.85211
14.1657 18.2117 12.6927 -0.387206 0.463077 0.797265
16.8531 19.3286 11.4784 0.686192 0.456472 0.566369
15.354 20.4206 13.5693 0.0857234 0.645861 0.758627
19.672 21.8658 15.9771 0.33605 0.271127 0.901976
18.6601 20.117 10.9202 0.604432 0.520268 0.60331
18.4099 19.6436 12.5771 -0.392544 -0.667667 -0.632558
21.0133 18.0321 9.22759 -0.43063 -0.870631 0.237822
21.1753 21.8975 11.8506 0.928352 -0.316863 -0.19432
21.0847 21.2865 12.6191 -0.793489 0.470514 0.385994
22.4288 20.8753 10.4785 0.524436 0.513934 0.678851
21.2704 22.032 10.6938 0.561547 0.639001 -0.525683
22.0529 10.4229 10.5851 0.384508 0.663486 -0.641826
22.2297 11.1561 8.36926 -0.225311 0.968517 -0.105875
23.006 11.1164 9.14003 -0.401922 -0.901846 0.158533
21.0246 22.9684 11.9882 0.985628 -0.040756 0.163941
23.4592 22.3419 10.5394 -0.27159 -0.15114 0.950471
21.3169 11.6926 7.64699 0.652751 0.404681 -0.640429
23.2926 23.1089 6.93707 -0.264338 0.121534 -0.956742
12.9707 12.288 12.7564 -0.492238 -0.853237 -0.172302
14.0514 19.988 10.2237 -0.201595 -0.345721 -0.916426
19.4011 11.5436 11.3103 0.926185 0.371628 0.0638233
14.6629 21.7387 9.60172 0.525836 0.376856 0.762546
16.449 10.6726 13.5775 -0.0132023 0.0738308 0.997183
13.9474 22.3513 9.82423 0.455772 0.345766 0.820194
14.3658 10.4863 8.91299 -0.539013 -0.422798 -0.728496
16.2499 23.1248 10.9804 -0.454491 -0.574374 -0.680832
19.0641 23.0744 13.5375 0.514597 -0.749591 -0.416296
17.1153 21.4478 12.7416 0.506184 0.560315 0.655611
17.7962 20.6822 12.8093 -0.752077 -0.398006 -0.52533
18.5041 20.6293 8.28203 -0.702482 -0.711115 -0.0288784
20.5679 13.3383 8.74455 0.892301 -0.276449 -0.356897
16.0376 19.7063 13.7887 0.268268 0.657198 0.704361
21.13 11.7405 9.16957 0.207144 0.518275 -0.829748
18.4442 11.1183 13.143 -0.0854627 0.91939 0.383951
19.315 14.0381 8.06568 -0.292108 0.0995471 0.951191
21.3117 21.4202 13.5635 -0.868998 -0.323528 0.374397
20.3965 21.7518 10.2295 0.236784 0.927625 -0.288869
10.9595 11.167 11.4718 -0.914779 0.263002 0.306609
20.936 22.0238 14.2902 0.880091 0.38137 -0.282835
22.5145 22.0117 10.5841 -0.36522 0.306394 0.879055
21.9675 10.823 11.5211 0.955071 0.0697519 -0.288052
13.2074 12.1045 10.2335 -0.912024 0.164011 0.375915
21.7802 13.7037 12.4846 -0.23143 0.233495 0.944415
11.2495 11.2045 13.2299 -0.975855 -0.209478 -0.0618455
11.8282 11.6334 9.92889 -0.101473 0.0540569 0.993369
12.7218 11.0468 11.772 0.869905 -0.488014 -0.0714704
10.7957 11.7688 12.5139 -0.973981 -0.218909 0.0586442
13.5302 22.3462 11.002 0.140002 0.98705 0.0783074
12.5987 14.0372 11.9488 0.0473243 0.145819 0.988179
13.5725 13.9725 12.0138 -0.0453419 0.038775 0.998219
15.4891 15.2956 9.38775 0.145691 0.0296783 0.988885
13.4401 11.1452 9.51475 0.845537 -0.0738034 0.528791
17.199 12.2614 9.75527 -0.348777 -0.296165 0.88918
17.4076 10.6513 12.8976 0.307312 0.441755 0.842859
15.8801 14.8868 11.3113 0.0222401 0.494203 0.869062
17.7311 22.727 15.4492 -0.945688 0.31841 -0.0654928
17.7371 12.7254 12.2947 0.039332 -0.397197 0.91689
18.3529 13.5737 9.97409 -0.399883 0.0863507 0.912489
20.0034 12.1278 17.1963 0.967538 0.0660241 0.243949
19.625 11.6881 16.1672 0.964888 -0.261299 0.0267183
17.8739 13.7849 13.7891 0.267178 -0.173134 0.947967
21.6914 12.7113 11.1481 -0.760435 0.037487 0.648331
20.0987 22.7671 14.8738 0.198018 -0.864281 0.462393
19.5251 11.3949 12.9563 -0.0458055 -0.574973 0.816889
22.8143 12.9928 11.6828 -0.826234 -0.504074 0.251487
21.6886 22.9534 14.7782 0.898981 -0.337713 -0.278895
21.6469 12.7594 14.5505 0.944231 0.287539 -0.160467
22.0031 14.6506 13.5704 0.780928 -0.601411 -0.168693
11.6503 12.273 13.4128 -0.994257 0.0277731 -0.103355
21.5051 12.2086 15.4439 0.955854 0.284642 -0.0729448
22.0101 15.3782 17.7718 -0.561816 0.6096 -0.559242
11.0836 13.9807 14.1174 0.815611 -0.45999 0.350982
14.554 15.274 9.94195 0.460361 -0.115146 0.880233
13.5566 15.6722 13.9607 0.281999 0.0158565 0.959284
21.6604 14.3473 14.4389 -0.796434 0.584572 0.15482
14.8124 11.8154 11.3027 -0.102997 -0.223298 -0.969293
13.8534 14.4396 9.83331 -0.415709 0.465691 -0.781229
13.9065 12.7606 15.4676 -0.0288598 -0.29216 0.955934
23.1076 13.3387 15.4965 -0.193658 -0.160976 0.967772
15.7641 14.4106 12.7264 -0.393006 -0.00320498 -0.91953
16.0935 14.5309 8.73708 0.0685867 0.0259938 0.997306
16.2552 12.7556 10.5431 -0.228907 -0.0722834 0.970761
14.2795 14.2106 7.40764 -0.452719 0.154445 -0.878175
14.4384 13.3095 12.0907 -0.291171 0.0922947 0.952209
16.8242 14.4565 12.6237 -0.142629 0.274013 -0.951091
15.2894 13.8433 10.9608 -0.407842 0.529979 -0.743496
17.0901 13.3221 14.4992 0.661944 -0.357146 0.658997
19.3936 12.7026 16.1719 -0.69598 0.176496 0.696032
19.9153 13.8066 15.2459 0.428636 -0.438131 0.790135
18.6622 14.2827 14.8374 -0.0983668 0.419657 -0.902337
19.3938 15.4484 14.5493 -0.0916158 -0.599258 -0.795296
20.6901 13.7609 14.2401 -0.230785 -0.652122 0.722132
21.4347 14.8724 11.0825 -0.556814 0.826676 0.0810283
10.892 12.5162 10.5886 -0.923149 0.0161738 0.384101
19.5656 16.1248 13.7824 -0.176149 0.523507 0.833614
22.2292 11.9315 14.3334 0.880461 0.2634 -0.394219
22.4334 15.3931 11.6164 -0.942852 0.310093 0.121951
23.461 15.585 12.5449 -0.990559 0.0488828 -0.128077
22.9967 13.9301 16.9958 0.485131 -0.596365 0.639528
20.4575 15.8753 14.8288 0.043844 -0.0140296 0.99894
22.5508 15.678 13.3519 -0.862814 -0.227819 -0.451278
12.4944 15.2213 12.0337 -0.531969 0.244453 -0.810711
10.9642 15.2533 14.5168 0.894156 0.0913812 0.438332
12.6108 13.8293 14.1545 -0.649751 0.287254 -0.703782
15.7213 16.2737 11.5762 -0.346966 -0.361961 -0.865216
13.0617 15.6655 11.0939 0.333186 -0.0713924 0.940154
12.4306 14.3792 15.1003 -0.909222 0.11749 -0.399389
14.983 15.0119 13.3284 -0.00302961 -0.00542919 0.999981
15.4112 17.2316 12.4477 0.338063 0.103768 0.935385
18.8099 12.6879 12.3857 0.26537 -0.592689 0.760459
15.3505 16.6575 15.359 0.39398 0.442113 -0.805801
14.4328 13.5083 9.32772 -0.290146 0.086885 -0.95303
17.3323 15.3782 11.5245 -0.0346611 0.284053 0.958182
18.5538 13.0896 13.2691 -0.437097 0.470542 -0.766509
19.0663 15.9303 17.285 -0.849795 -0.511279 0.128226
18.9165 15.2591 12.9499 0.180985 -0.397627 -0.899521
18.6328 17.1791 14.2227 0.0208344 -0.26104 0.965103
20.0792 16.0313 11.822 0.263827 -0.0906244 0.960303
19.7827 15.3911 16.516 -0.0892188 -0.929386 0.358164
20.411 14.6655 15.3211 -0.625878 0.722592 0.293492
20.2868 17.0487 14.143 -0.166283 0.481187 0.860702
21.1126 14.6488 9.8762 0.73986 -0.541386 0.399384
23.4447 14.3454 14.8262 -0.846344 0.317345 -0.427779
22.4504 16.0321 16.851 0.390186 -0.415999 0.821401
22.2329 16.9485 11.4563 0.810944 -0.223238 -0.540864
11.0897 16.1585 13.365 -0.60153 0.414779 -0.68273
23.6434 16.1472 14.8384 -0.651202 0.342107 -0.67742
22.9042 15.3066 16.3718 0.602371 -0.175406 0.778705
23.5314 19.7683 11.9355 -0.27933 0.53438 -0.797755
12.9346 16.4676 16.3258 -0.307697 0.148813 -0.939775
13.9951 16.7816 17.4383 0.831278 -0.542752 0.119986
12.2684 14.0414 16.1004 -0.994885 0.0173095 -0.0995187
14.0515 17.1145 10.2149 -0.339455 -0.100791 -0.935207
16.3645 16.1783 13.1423 -0.216429 0.668895 0.711153
12.2829 19.6409 11.1485 -0.210439 0.224798 0.95141
14.6059 16.6388 14.5313 -0.754385 -0.251389 0.606389
17.9411 18.9254 13.3842 0.119175 0.401868 0.907909
15.2572 15.9254 12.5369 -0.231807 -0.347619 -0.90853
16.6047 18.4524 12.5184 0.680644 0.159816 -0.714971
16.0046 16.5208 16.2986 -0.710314 -0.337692 0.617591
17.6118 17.6011 12.1941 0.277942 -0.430314 0.858824
18.2395 16.6107 16.858 0.363336 0.422459 -0.830371
16.5436 17.5414 12.2289 0.0625371 0.260603 -0.963418
20.6595 18.4678 14.0482 0.229198 -0.704938 0.671216
18.1858 16.1618 15.4748 0.505052 -0.0535391 -0.861427
19.8231 13.6053 17.9814 0.560303 -0.569129 0.601791
18.9892 16.2218 11.5416 0.13516 -0.18935 0.972563
20.4699 17.0242 16.2955 -0.254702 0.868911 -0.424405
17.7295 17.034 8.34043 -0.831532 -0.391974 -0.393586
22.8886 15.8993 10.8097 0.996194 0.075006 -0.0443968
10.68 18.3628 12.7791 0.526088 -0.134096 0.839791
20.6163 16.7898 15.3335 0.999288 0.0265755 -0.0267958
11.6329 18.8576 11.7563 -0.17641 0.00113191 0.984316
22.3116 18.9756 11.6551 0.626188 0.122813 0.769939
22.5633 19.2693 13.2571 -0.879914 0.379161 -0.286335
13.5032 19.7018 16.0238 0.684165 -0.160282 0.711497
11.2446 20.2484 10.7925 0.0628464 -0.524048 0.849367
12.8733 20.0053 12.7711 -0.363659 -0.137999 0.921254
11.9868 19.49 15.1551 -0.33516 0.398725 -0.853631
12.4521 19.1382 12.3615 0.477428 -0.276717 -0.83396
12.0496 21.4022 11.9241 0.103704 -0.892708 0.43854
12.4294 22.478 10.8056 0.114111 -0.985603 0.124763
11.5571 20.9238 12.9358 0.274509 -0.807179 0.522596
15.3151 17.3041 16.4072 0.220098 0.287992 -0.931997
16.8957 17.1006 10.9111 -0.727206 0.114742 -0.676761
17.1394 16.5695 12.4923 -0.53742 0.155575 -0.82884
16.7227 20.0293 13.1109 0.122814 0.679548 0.723279
16.6901 18.2925 14.9398 -0.698158 -0.164221 0.696855
15.2949 16.9959 10.3951 0.533399 0.0684792 0.843087
16.7804 16.1307 14.2209 -0.482868 0.304275 0.821131
18.5693 16.6607 12.814 0.115087 -0.288004 0.950689
11.7684 17.4367 14.8673 -0.664648 0.142614 -0.73342
20.5206 16.8571 10.5402 0.639143 -0.137492 -0.756699
16.0422 16.2553 9.91356 0.24251 0.160625 0.956759
17.6046 16.8678 10.3052 0.7921 0.0818944 0.604873
23.4129 17.4309 12.4141 0.324001 -0.0816131 0.94253
22.2883 18.6282 15.0962 0.490412 -0.861406 0.132197
19.3827 17.7731 12.3068 -0.350627 -0.521393 -0.777952
14.611 18.6722 16.8383 0.896256 -0.0959541 0.433034
12.4955 17.5404 10.1564 0.500897 -0.438196 -0.746382
20.8168 20.1617 12.0182 -0.868848 -0.0127308 -0.494915
22.4781 19.9464 11.5994 0.188082 0.016468 0.982015
23.4805 21.4637 14.3955 0.839948 0.521984 -0.148395
12.1671 21.7952 14.6867 0.0356754 -0.986146 0.161998
11.2265 22.9311 11.835 -0.845029 -0.44033 0.303374
23.4193 20.6829 12.4943 -0.0210736 -0.792488 0.609523
23.482 23.3624 13.94 -0.896719 -0.436162 -0.0752182
11.9162 21.2848 13.8383 0.238436 -0.921188 0.307507
12.9723 20.3244 10.6458 0.221311 -0.251278 -0.942274
12.3684 21.5946 12.8766 -0.277977 0.810525 -0.515537
14.5085 22.2743 11.4243 0.0908988 0.58565 0.805451
16.5894 20.5323 15.4906 0.433054 0.819203 0.375992
14.8566 22.8657 9.65414 -0.418399 -0.318198 -0.850701
15.8697 21.4208 12.1432 -0.338475 -0.314162 -0.886982
16.0983 22.3482 11.5654 0.394936 0.569507 0.720893
17.3233 20.8615 14.8023 -0.302787 -0.7923 -0.529698
18.2371 21.765 16.0825 0.421418 -0.473394 -0.773502
16.0391 20.3698 12.4157 0.0468665 0.562142 0.825712
20.6894 18.1017 10.7175 -0.553133 -0.419801 0.719591
10.836 17.0182 16.4082 0.523766 -0.610872 0.593721
18.6367 18.3072 11.8021 0.465116 0.780151 0.418368
19.1502 17.6819 10.7778 0.480205 0.608504 0.631764
19.935 17.5204 10.0294 -0.445843 -0.862268 0.240245
23.4223 19.4626 16.1359 0.00824306 -0.686686 0.726908
20.0069 20.2293 13.7793 -0.659974 0.674208 -0.331478
21.0312 19.0683 11.7392 0.783237 0.362442 0.505149
21.6462 19.9439 14.212 -0.843977 0.529623 0.0848722
22.737 18.2423 13.0761 0.688826 -0.31387 0.653456
21.9127 21.9614 7.62532 0.630181 0.416862 0.655056
11.3245 22.4081 10.914 0.338164 0.530646 -0.777213
23.0885 22.8231 12.8774 0.838056 0.466434 0.283023
13.0731 22.5118 14.5377 0.304419 -0.913368 0.270347
13.1462 11.94 11.3855 -0.723296 0.304429 0.619811
23.0982 20.3038 13.8229 -0.233955 0.914434 -0.330265
15.2032 23.4583 13.368 -0.535845 -0.732831 -0.419319
13.4052 23.1111 13.4093 -0.703746 0.69925 0.125663
15.6729 10.9975 11.3035 -0.554257 -0.102237 -0.826043
15.4624 23.1836 11.8407 0.25254 0.512633 0.820629
14.5536 10.5021 11.2396 0.160211 0.0731323 0.98437
14.7651 21.4078 11.9004 0.0200502 0.593403 0.804656
20.153 12.4396 9.9737 -0.576102 -0.118846 0.808691
13.0456 10.9837 10.6508 0.65808 -0.636619 -0.402053
16.8822 10.4346 16.4508 0.740183 -0.646439 -0.185056
14.6681 22.5281 14.9525 0.559007 0.733647 0.38636
17.9567 22.953 13.4513 -0.0666026 0.583238 0.809567
15.364 22.8081 14.1704 -0.456812 -0.602775 -0.654205
15.9965 11.79 12.5857 0.31189 -0.272463 0.910213
10.8279 18.6219 17.7358 0.401016 0.499639 -0.767819
19.8661 12.4799 14.1812 -0.209165 0.49969 0.840571
21.2568 20.3547 7.66048 -0.30837 0.434119 -0.846433
18.3541 11.3787 16.7288 0.766982 -0.58894 -0.254733
23.019 19.3188 15.057 0.350511 -0.824395 0.444426
22.3322 13.3056 9.88953 0.880697 0.062681 -0.469514
21.1203 22.4978 12.9995 0.949421 -0.00552223 0.313958
20.268 11.0626 12.4083 0.27808 0.888681 -0.364579
11.6958 23.071 12.8107 0.653074 0.7511 0.0966618
21.8334 23.3002 13.5798 0.816737 0.277508 -0.505894
21.4985 10.8518 14.4072 0.986533 -0.158685 0.0396462
21.229 12.1031 13.7968 -0.77656 -0.416119 0.473076
22.6532 11.6954 15.8559 0.75659 0.341821 0.557432
12.8945 12.8631 14.0557 0.886243 0.15424 -0.436788
12.2837 13.1667 12.9788 0.77716 0.448012 0.441936
21.4037 10.6427 16.5084 -0.990255 0.0459765 -0.131459
13.4278 11.4157 13.1748 0.237482 0.736169 0.633764
14.8706 12.5497 10.2134 -0.421539 -0.0222653 -0.906537
13.5228 18.1179 10.0596 0.0587793 -0.355811 -0.932708
22.2064 10.4591 15.6745 0.88169 0.466804 -0.068677
12.1409 13.4422 7.82069 0.984693 -0.0818533 0.153885
13.0802 13.8846 19.8324 -0.496008 0.169263 -0.851661
15.1751 12.9387 8.81183 -0.395764 0.382661 -0.83483
15.5296 13.6011 9.50185 0.0347917 -0.344116 0.938282
13.9636 23.446 15.1555 0.770633 0.622507 -0.136418
16.9713 11.0484 15.5305 -0.686115 0.520831 0.507918
19.4184 22.0294 14.1706 -0.185982 0.509143 0.840347
14.5222 12.4603 13.6853 0.117456 0.146667 -0.982188
16.4748 12.1907 15.3909 -0.95287 -0.0832598 0.291731
17.1035 12.05 16.2381 -0.869147 0.352159 0.347229
18.5587 12.895 14.8453 0.524069 0.353685 0.774764
18.4161 13.9459 16.7276 0.826839 -0.48675 0.2818
19.6247 10.6244 15.6693 0.789724 -0.61334 0.0122572
20.1118 10.5026 11.148 0.525129 0.80639 0.271984
18.8048 11.6951 14.2855 -0.953124 0.201341 0.22587
23.5873 19.9432 17.1637 0.76571 -0.297037 0.570489
22.6464 12.2608 16.8982 0.419841 -0.501392 0.756531
21.0628 12.5912 12.6761 -0.963892 -0.248521 0.0956542
11.3782 14.9529 13.7321 0.866506 -0.24674 0.433921
22.7888 15.4822 14.8531 -0.658872 0.0809344 -0.747888
22.3225 13.2243 17.4838 -0.381478 0.780403 -0.495424
10.932 14.1955 12.7976 0.839252 -0.453871 -0.299428
22.1369 11.3957 13.4429 -0.927268 -0.351371 0.12928
12.8754 15.2498 18.1868 -0.474191 -0.698221 -0.536312
23.4804 10.7425 16.3911 0.0438338 0.783538 0.619796
10.7009 12.9821 16.6908 0.348372 0.462383 -0.815376
15.749 11.7967 10.5295 -0.564576 -0.0248317 -0.825008
12.4072 13.042 16.4941 0.845446 0.195181 -0.497117
14.5271 14.368 11.944 0.057565 -0.19277 0.979554
14.5455 16.2778 10.898 0.291185 0.190166 0.937576
17.1683 12.9935 13.4037 -0.140357 0.568291 -0.810768
15.9319 20.239 16.7068 -0.539471 0.514316 0.666671
15.1519 12.8744 14.7781 -0.418296 -0.395346 0.817759
15.0417 14.0413 14.8298 -0.138589 0.143375 -0.979917
19.1733 12.0158 15.1695 0.965662 -0.133797 -0.222699
20.851 11.2991 17.1245 -0.963292 -0.193725 -0.185849
16.6338 11.5745 14.5691 -0.919158 0.382214 0.095188
19.1608 15.3399 10.8975 -0.342253 -0.0638568 -0.937435
17.5838 13.2357 16.6547 0.602668 -0.793345 -0.086
16.8059 13.2093 15.9461 0.814248 -0.551693 -0.180654
11.1551 20.8725 16.8426 0.446455 0.192004 0.873963
20.3301 13.8172 16.8093 0.169326 0.794898 -0.582637
20.9278 13.1057 13.5685 -0.947137 -0.200202 -0.250699
23.529 13.1752 13.4763 0.929018 0.31338 -0.196771
21.4173 11.6485 12.6629 0.844417 0.154982 -0.512778
21.4215 13.022 16.6919 -0.419176 0.721931 -0.550552
10.7624 14.0427 18.0256 0.575527 -0.740416 0.347207
12.589 14.6712 16.8556 -0.936614 0.141367 -0.320578
12.0376 15.7277 16.9759 -0.719792 -0.179307 -0.670633
14.1357 14.8704 16.6979 -0.792584 -0.113666 -0.599075
22.6816 14.5007 15.4926 0.716073 -0.456562 0.528005
14.5794 14.5632 8.98353 0.743111 -0.118688 0.658559
11.2574 12.4541 15.8477 -0.991087 0.0468138 -0.124718
13.3823 14.2912 18.0474 0.84703 0.500182 -0.179884
11.9619 13.2618 15.2916 -0.959134 -0.236577 -0.155221
14.2831 17.4997 13.9128 -0.391334 -0.0656684 0.917903
14.3946 14.6078 15.478 0.0671129 -0.455667 0.887617
14.8397 15.6848 15.0853 0.133461 0.207962 -0.968989
14.0112 13.9309 14.4424 0.0616907 0.0791907 -0.994949
15.5332 14.8544 15.144 0.381883 -0.00902004 -0.924166
15.8919 19.2997 17.6661 0.48521 -0.0220456 -0.87412
16.4133 15.6468 16.7709 0.808485 -0.0112361 -0.58841
17.8687 13.7467 15.7527 0.515486 -0.833623 0.198361
18.8335 19.818 14.2989 0.147662 -0.934712 0.323279
21.2717 17.1794 13.7178 0.155434 0.112455 0.981425
20.0629 18.9391 14.848 0.383377 -0.839108 0.385901
18.3083 15.3829 11.9506 0.197317 -0.511217 -0.836495
20.7602 18.5933 16.1489 -0.476262 0.683948 -0.552621
23.4907 13.9859 19.0303 -0.32256 0.944906 0.0557531
19.3901 17.5871 15.7381 -0.00850734 -0.808104 0.588978
21.1039 13.5907 17.5378 0.123723 0.636274 -0.761478
21.7402 15.0952 16.577 -0.792272 0.173988 -0.584837
11.5329 14.5594 17.7141 0.401382 -0.524904 0.750579
21.7463 14.1941 15.8987 0.468719 -0.70446 0.532953
12.8873 13.6452 17.1812 -0.878863 -0.135568 0.457408
14.0817 17.6263 16.8037 0.844593 0.210926 0.492111
13.9243 16.8261 15.9904 0.687233 -0.222209 0.691617
13.8144 15.7987 16.197 -0.661406 -0.0052873 -0.750009
13.583 15.5067 17.2706 -0.754943 -0.0151072 -0.655616
14.1263 16.8447 18.6194 -0.505136 -0.669423 -0.544712
15.4512 18.5804 14.8874 -0.161236 -0.0388264 0.986152
13.6761 18.9021 15.4969 0.949527 0.101492 0.296812
11.7809 15.0015 15.7111 0.969398 0.162328 0.184166
10.7228 21.2486 13.3932 0.479612 -0.607344 0.633328
15.9593 14.5971 16.4746 0.901039 0.282004 -0.32955
16.607 17.9828 13.7645 0.651104 0.0882311 -0.753842
15.8884 15.5862 15.9015 -0.67677 -0.0858341 0.731174
15.0112 17.6137 14.651 0.387402 0.223809 -0.894332
16.2509 14.067 14.9227 -0.502507 -0.127014 -0.855192
17.9939 17.4176 15.5941 0.635889 0.555424 -0.535863
18.8324 15.5746 16.3556 0.132305 0.820197 -0.556573
18.3065 18.4261 14.4031 0.584694 -0.313938 -0.748048
19.454 19.1004 15.689 0.28071 -0.778639 0.56118
13.9554 17.9573 15.7913 0.891157 0.148521 0.428696
21.7667 14.091 18.0191 -0.311281 0.73174 -0.606351
18.6007 18.1472 16.1776 0.0966415 0.625253 -0.774415
21.4944 17.1266 16.4107 0.361001 -0.518481 0.775149
21.7649 18.3259 14.3179 0.435283 -0.833279 0.340843
21.4306 15.9 15.4125 -0.0717082 0.253037 0.964796
21.692 18.8583 15.9311 0.292003 -0.895059 0.33705
11.0997 15.7394 17.5785 -0.750468 0.360523 -0.553915
11.1175 19.3027 13.8987 -0.123824 0.826829 -0.548654
22.3151 17.7509 12.0837 0.300666 0.49392 -0.81587
12.8616 17.7 13.4123 -0.896816 0.200934 0.394141
12.595 17.9378 14.5428 -0.675436 0.730208 0.102873
13.5027 20.3664 13.5121 0.113617 -0.708586 0.696417
14.3463 19.4847 13.0756 -0.264211 -0.274278 0.924643
13.0687 22.8884 16.743 -0.0415894 0.468696 0.88238
13.3522 18.1785 12.1741 -0.471036 0.28444 0.834997
11.4952 21.6752 16.395 0.330806 -0.534959 -0.777423
14.3972 20.9271 13.9325 -0.0677849 0.986628 -0.148221
13.7867 21.5854 15.8033 -0.380097 0.433485 0.817078
16.3272 16.5498 17.3405 0.855136 0.090034 -0.510526
12.4945 19.0844 14.1339 0.658037 0.358642 0.66209
16.3361 17.9339 17.3095 -0.733087 -0.540749 0.412521
17.6237 17.7669 16.6254 0.0797182 0.739674 -0.668227
16.6861 17.6105 16.1598 -0.6175 -0.379921 0.688733
17.2566 22.1298 14.1675 0.526313 0.70791 0.471019
17.6973 17.6993 14.099 -0.29919 -0.248767 0.921195
22.5141 17.1743 16.03 -0.601417 0.409309 -0.686122
19.5469 18.3483 14.2029 0.184004 0.832169 -0.523103
11.4741 16.6267 15.6783 -0.691752 0.59347 -0.411428
22.8315 17.3739 14.0309 -0.815216 0.230943 -0.531121
23.1481 19.1083 18.2924 0.141577 -0.190823 0.971361
21.0073 19.145 15.0083 -0.330936 0.93189 -0.148534
22.3015 19.9127 15.7166 0.320202 -0.49289 0.809031
22.1302 18.2871 9.30782 -0.162378 0.0271031 0.986356
13.9253 18.4043 17.5573 0.765537 0.393733 0.508848
12.349 18.1025 12.046 0.391908 -0.0640218 -0.917774
23.213 18.3009 14.4838 -0.749098 0.391731 -0.534228
21.2797 18.9215 12.9962 -0.678758 0.550541 -0.485997
23.6467 11.5184 14.0639 0.831766 0.536311 0.143307
21.5007 22.0523 15.24 0.781945 -0.223278 -0.581988
13.089 22.4156 12.7535 0.491381 -0.770965 0.405163
12.0382 22.6169 16.4131 0.376976 -0.24493 -0.893251
22.8213 22.8594 16.4995 0.422329 0.305506 0.853407
14.8867 21.8372 15.6651 0.0346702 -0.538863 -0.84168
14.1134 20.6633 12.3841 -0.18062 -0.767411 -0.615188
14.029 19.9102 14.9344 0.514965 -0.848586 -0.121299
13.0792 10.9443 15.116 -0.611265 -0.79115 0.0208897
16.4073 18.5721 16.2568 0.801606 0.447159 -0.396833
15.6729 22.5526 12.7769 -0.346602 -0.389448 -0.853345
16.2497 22.3409 14.2223 0.385535 0.778214 0.495728
15.7517 22.2486 15.0825 -0.553825 -0.41421 -0.722294
23.2956 16.3895 15.7488 -0.430104 0.583152 -0.689162
18.0348 21.4388 14.22 0.598719 0.416111 0.684388
16.5333 21.5637 14.8282 -0.336609 -0.62257 -0.70647
15.0456 23.3443 17.4735 0.684944 0.676823 -0.269744
19.7691 21.5557 12.297 0.776235 -0.527547 -0.345186
12.572 16.7478 17.6445 0.57302 0.0636983 0.817062
11.8558 17.5374 16.2054 0.817578 -0.321698 0.477573
11.5648 16.5251 17.9696 0.799935 -0.328431 0.502233
11.8659 18.5063 16.5788 -0.530714 0.600205 -0.598411
21.2507 20.3855 13.3019 0.8321 0.383149 0.401008
19.7073 20.5843 14.8677 0.533447 -0.54656 0.645528
22.925 18.1808 16.3876 -0.356466 0.737754 -0.573281
13.765 18.3573 14.5321 -0.751304 0.101313 -0.652134
10.651 22.5548 14.7344 0.806567 0.497061 -0.319967
23.2804 22.2473 13.7547 -0.894597 -0.415712 0.16395
11.7417 14.0667 19.4046 0.268766 0.903438 0.334013
11.1608 21.8081 15.2729 0.586871 0.808664 0.0405612
10.8342 12.7682 14.3067 -0.87878 -0.227782 0.419359
12.3947 22.6926 13.6656 -0.421393 0.903311 0.0803584
22.1335 22.8999 17.303 -0.594565 -0.125797 -0.794146
13.5362 19.166 12.5137 -0.263712 0.166695 0.950089
14.1491 11.4057 12.2048 0.161348 0.275884 0.947552
13.7982 21.5092 11.9021 0.170123 0.820094 0.546356
15.543 11.2055 15.6328 -0.195411 0.102476 0.975353
14.4848 23.2779 14.2028 0.628246 0.773718 0.081654
12.2984 12.1277 8.31423 -0.604068 0.122924 -0.787395
15.7484 23.1568 16.2769 0.44797 0.496671 -0.743398
16.1936 12.8661 14.7177 0.358907 -0.576381 -0.734146
15.7993 21.2857 15.5165 -0.108308 -0.722866 -0.682447
18.5196 22.2273 13.8094 0.00720467 -0.548616 -0.836043
14.4337 22.989 16.007 -0.574056 -0.634396 -0.517689
18.7963 22.8896 16.3767 0.842664 -0.206058 -0.497452
10.9809 17.9809 16.9341 0.170597 -0.485136 0.857636
18.5381 10.8382 14.8653 -0.64314 0.677373 0.357123
11.9479 20.1729 17.54 -0.129389 -0.481696 -0.866734
16.5333 22.513 16.8482 0.656172 -0.377497 -0.653402
22.3159 19.9128 17.3199 -0.619383 -0.126237 -0.774874
20.2537 22.9878 13.6858 0.0053834 -0.999727 -0.0227462
11.3264 20.3677 15.4232 -0.0421295 -0.593853 0.80347
21.1648 21.1532 14.7231 0.867994 0.0494393 -0.494108
23.5286 10.5571 14.9063 -0.743075 -0.629087 0.228231
12.6654 11.8142 14.3196 0.883952 0.392236 0.254518
11.006 14.0096 16.9145 -0.31264 0.746716 -0.587088
22.9071 13.4648 18.3115 0.220652 -0.838513 0.498205
21.0241 12.1321 16.4323 -0.776018 0.623044 0.0980409
22.3962 14.1539 19.1485 0.321023 -0.937557 0.133908
23.5 11.755 14.983 -0.837561 -0.546276 -0.00862388
