11.6521 13.5417 2.94774 0.148842 0.69406 0.704363
11.262 2.35731 2.00692 0.78151 0.307462 -0.542871
11.8109 2.30961 2.82073 0.622957 0.723719 -0.296911
7.5032 1.588 4.64085 -0.869545 0.126346 0.477419
8.98675 1.00312 4.9352 0.895686 0.371532 0.244359
12.3601 4.84664 7.05167 -0.0196091 0.797096 -0.603535
11.6773 5.62406 3.37177 -0.510586 0.856094 -0.0800296
10.1021 2.29809 4.63258 -0.892224 -0.42465 -0.15365
13.4863 0.925753 3.66287 0.0923306 0.992015 0.0859089
12.6618 3.38277 5.10916 0.992592 0.106414 -0.0586313
0.341646 3.24329 2.41683 -0.995315 -0.0557065 -0.0790244
0.0932376 1.5012 4.67874 -0.414521 0.218907 0.883319
2.00747 1.8053 5.66168 0.444938 -0.437875 0.781214
13.8766 3.1124 1.33734 -0.577098 0.660335 -0.480537
1.67 5.03104 1.80839 -0.730485 -0.42927 -0.531148
3.45235 6.64168 2.19058 0.640806 0.674365 0.366877
3.95642 2.82461 1.60252 0.764087 -0.597763 0.24259
3.63558 0.162278 1.94917 -0.398306 0.849754 0.345357
3.65665 1.26342 3.13652 0.613908 -0.523314 -0.590981
3.79801 4.0745 1.475 -0.809924 0.446987 0.379771
3.00789 0.727308 3.84496 0.967563 -0.250923 -0.0293284
3.91709 1.54637 1.90374 0.0095501 -0.526667 -0.850018
6.14841 4.98943 3.19249 -0.710071 0.120891 -0.693675
4.66975 4.19594 6.14223 -0.302501 0.0623739 -0.951106
4.1122 2.81929 3.89266 0.472534 0.347414 -0.809948
6.32224 5.94917 5.04365 -0.285815 -0.848212 -0.445922
6.74659 1.58226 3.20174 0.345768 -0.928144 -0.137816
4.84805 3.6092 4.74566 -0.0945144 0.471617 -0.876724
10.0478 0.330203 4.49941 0.462322 0.637523 0.616298
8.05732 5.53303 2.22218 0.962558 -0.255254 0.091256
9.15547 3.60559 3.32759 0.194468 0.569986 0.79831
9.22886 3.67889 6.08657 0.465132 -0.461814 -0.755235
10.7049 3.61221 4.32511 0.245276 0.146734 -0.958284
12.988 3.68422 3.16866 0.125723 0.990102 -0.0623817
10.1773 2.38677 5.68529 0.823761 0.566668 -0.0174551
11.0949 3.89972 5.83514 0.422779 0.267432 -0.865874
12.8878 1.60083 4.33824 -0.444505 0.6368 -0.630001
1.73208 6.257 1.77796 0.808738 0.577067 -0.11374
12.621 3.45591 4.1169 -0.546072 0.836488 -0.0457549
0.607238 4.14136 4.93194 0.85715 -0.448405 0.253432
0.821826 2.26883 3.66919 -0.00690152 -0.151278 0.988467
0.731517 6.55471 2.50651 0.478612 -0.0749075 0.874825
2.35443 4.65274 2.89295 0.62752 0.560633 0.540285
1.40573 5.91818 7.76485 -0.0316937 0.915406 -0.401281
3.79572 3.7009 4.25495 0.0626847 -0.0723406 0.995408
4.43498 5.69496 2.48208 0.216906 -0.594211 0.774509
5.56647 5.68633 1.63989 -0.380077 -0.794538 -0.473552
4.07336 7.30593 4.83754 -0.819139 -0.353489 0.451728
2.44228 3.38526 1.97906 -0.813688 -0.414749 -0.407301
4.42583 4.60064 2.27395 -0.00529666 0.594268 -0.804249
2.32841 0.979048 0.808176 -0.552386 -0.351761 -0.755734
4.70247 5.96981 4.03478 0.824144 0.373155 0.426078
5.90988 4.32826 2.17103 0.544495 0.720061 -0.430159
7.57682 4.93919 3.27103 0.682148 -0.272414 0.678575
8.25651 5.57987 4.24262 -0.958261 -0.235051 0.162747
8.50346 1.96512 5.17117 -0.514483 -0.812415 0.27439
8.92043 2.17724 3.58825 0.66634 -0.204257 -0.717127
9.18786 4.48072 5.36621 -0.266393 -0.759031 -0.594059
9.8626 5.42824 4.69148 -0.786788 -0.578915 -0.21406
10.8051 8.74323 4.94491 -0.164307 -0.736467 0.656216
12.6534 5.37989 4.20318 0.380348 -0.899344 -0.215675
8.08242 3.47266 4.22687 -0.107621 -0.527769 0.842542
13.8206 3.17259 3.63556 -0.25975 0.684455 0.681213
0.935708 7.97508 5.89616 -0.653149 -0.543856 -0.526894
13.0057 4.49838 5.23702 -0.846654 0.194304 -0.495402
0.609186 8.09174 1.35214 -0.352758 0.599724 -0.718257
12.3948 4.05849 6.14862 0.614537 0.781611 0.106901
12.9562 7.27638 1.62555 -0.928218 0.00930154 -0.371919
3.17326 4.08312 7.79196 0.70528 -0.0568741 0.706644
0.351551 5.91439 3.62678 -0.00649001 0.197436 0.980294
13.8475 6.66558 2.86013 -0.506856 -0.292646 -0.810836
3.10328 8.09927 2.21698 -0.379665 -0.919375 0.10298
3.63405 5.78194 4.56154 0.665102 0.669469 0.330832
1.08056 4.60689 2.95817 0.199979 0.943442 -0.264436
5.55397 4.63272 0.35603 -0.712567 -0.399346 -0.576863
4.75691 7.45578 3.33711 -0.724202 0.391784 0.567483
3.50665 5.33752 1.8755 -0.0838525 0.271356 0.958819
6.3935 5.89368 3.95803 0.885599 0.373754 0.275721
5.1061 3.21527 1.79868 -0.834378 0.336444 0.4366
6.24889 6.91912 3.77087 0.965338 -0.113146 -0.235204
5.41522 4.28377 5.32259 0.223147 -0.685154 0.693375
4.76306 5.26711 6.67433 0.90013 -0.406965 -0.15539
8.05608 5.86491 3.23235 -0.982736 0.185001 0.00227174
6.86354 3.9695 6.96931 0.426196 0.0307598 0.904108
7.32115 3.38167 5.61593 -0.444584 -0.155701 -0.882101
10.8221 6.66393 4.18286 -0.956885 -0.274384 0.0953156
9.92227 6.64396 5.17367 -0.59836 -0.777941 0.191763
9.67126 7.46566 5.87986 0.0372961 -0.956929 0.287916
13.5002 7.68762 4.63551 -0.778783 -0.580329 -0.23815
12.5458 5.73712 2.56403 0.0825005 0.990138 -0.113226
10.5741 4.72384 5.06345 -0.431078 -0.41559 -0.80091
9.8717 3.08236 3.7832 -0.160776 0.465844 0.870138
0.608656 8.58668 4.10364 0.865939 0.303509 0.397532
1.16597 7.40166 3.52266 0.613415 -0.0779867 0.785901
13.4917 6.5671 4.07003 0.709741 0.447641 0.543953
11.7992 8.65498 4.02234 -0.502751 -0.654986 0.564123
1.89255 6.64538 2.71448 0.131063 -0.858226 0.496257
1.56669 11.7097 2.10761 0.629218 0.0140122 -0.777102
13.8286 5.07884 2.17456 0.447255 -0.641041 -0.623722
3.4958 10.3521 8.78604 -0.594354 -0.674773 -0.43752
3.81798 7.86876 6.04871 0.338758 -0.303164 0.890693
0.0351007 11.1106 1.0797 -0.341531 0.935255 -0.0930325
2.90764 8.62153 3.42685 0.509605 -0.0568324 0.858529
5.00448 8.40059 3.35146 0.0514465 0.126799 0.990593
3.24523 9.67033 3.53225 -0.896107 0.297205 -0.329638
5.09572 10.1424 4.65687 -0.95246 -0.197885 -0.231648
9.03252 6.6269 3.61945 -0.973218 -0.0156699 0.229351
6.45821 8.42852 6.71589 0.0962394 -0.577567 0.81065
7.89996 4.55729 4.80243 0.725345 0.610998 0.317104
10.4146 8.28797 4.1595 -0.602934 -0.460011 0.651813
6.13357 4.8948 5.60428 -0.827208 0.543656 0.142001
8.16446 9.34852 8.324 0.435347 -0.384473 -0.814035
7.47239 6.40638 5.84403 -0.325968 -0.11388 0.938497
6.59536 9.44116 3.69992 0.022072 -0.464291 0.885408
8.89516 6.60993 4.71628 0.538226 0.703926 -0.463467
9.967 9.25693 3.86315 -0.0254318 -0.287742 0.95737
11.3319 7.40516 10.3563 -0.145279 0.0972168 0.984603
11.0737 9.42276 2.47368 -0.501239 -0.333947 -0.798272
12.2425 7.57073 8.89095 -0.19217 0.305208 -0.932694
12.8391 6.95652 6.24136 0.151383 -0.985771 -0.0730706
0.745568 7.02551 8.99164 0.634851 -0.648682 0.419733
12.1661 12.1465 5.37731 -0.722262 -0.66105 -0.203349
13.7345 8.04159 5.84578 -0.670612 -0.623861 -0.401344
12.5426 9.73823 9.10871 -0.828861 0.342547 0.442325
1.56215 9.74704 9.40503 0.589915 -0.312248 -0.744649
0.183728 10.4312 8.03437 0.053039 -0.908691 0.414087
4.35192 12.3989 10.1374 -0.975913 0.211026 -0.0553441
3.99038 9.57944 8.06918 0.45109 0.358191 0.817445
3.24831 10.5198 7.70451 0.961206 -0.00120247 0.275828
2.52841 8.5669 4.78017 -0.539062 -0.342256 -0.769593
2.46047 9.96938 4.45587 0.937382 0.313472 -0.151825
3.24243 10.8545 9.9113 -0.18696 0.963966 0.189249
7.59024 9.84948 7.53412 0.298022 0.583148 0.755726
5.5146 12.9013 3.00567 -0.380145 -0.743481 0.550205
5.26818 7.43355 7.66181 0.810597 -0.0636367 -0.582137
3.79834 9.8331 5.33099 -0.545795 -0.522737 -0.654869
6.74672 9.46482 7.92173 -0.28811 0.949776 0.122143
5.33724 11.0543 8.57288 0.990455 -0.0756913 0.115196
8.75452 11.1609 7.53984 -0.821076 -0.469763 -0.324279
9.20368 10.7123 6.58069 -0.769347 -0.481681 -0.419629
8.85531 10.2026 1.79969 0.825191 -0.54282 0.156225
8.0226 9.8064 5.0996 -0.362683 0.792444 0.490402
9.31833 8.85424 2.31215 0.170369 -0.190386 -0.966813
8.63495 11.0083 5.56343 0.769013 -0.511344 -0.383598
9.07468 9.96072 3.41906 -0.486809 -0.176834 -0.855422
9.11493 13.3141 2.69055 0.746032 -0.289324 0.599773
12.7054 9.97736 6.05273 -0.130954 0.470779 0.872478
13.814 10.0714 4.76131 0.191083 0.129764 -0.972959
13.7184 9.91302 7.16016 -0.0110449 0.652409 -0.757787
12.413 11.1529 3.63959 0.889863 -0.214086 0.402879
11.7584 12.8728 4.86103 0.908272 -0.0510206 -0.415258
11.8007 0.39314 8.48799 -0.318549 -0.0432755 -0.946918
2.18426 11.6593 9.44063 0.103088 -0.741273 0.66324
11.7603 13.9819 4.5886 -0.563343 0.556585 0.610621
0.899038 9.73871 3.68764 0.88935 0.457227 0.000766104
11.6552 13.058 7.03545 -0.448178 0.634098 0.630124
2.93939 11.1727 2.86701 -0.857455 -0.334224 0.391236
1.60299 12.4008 4.82966 -0.199209 -0.650632 0.732798
3.14148 11.1467 4.31085 0.584391 0.166581 -0.79419
2.19351 12.3547 6.01922 0.0451472 0.981095 0.188187
4.04919 11.4074 6.17561 0.371688 0.148786 -0.916358
3.2008 13.2668 4.54944 0.659972 0.520984 0.541306
4.24701 11.0075 4.49092 -0.594748 -0.24695 0.765043
4.94336 12.3278 4.99921 0.158237 -0.321147 0.933716
6.79827 11.3964 6.52342 0.920793 -0.389219 0.0254839
5.38194 11.5361 4.58846 -0.439733 -0.671953 0.595914
7.16714 10.7951 9.42162 0.0589281 -0.694197 -0.717369
7.31262 12.3589 6.63531 0.821691 0.039587 -0.568556
9.6135 11.7505 2.60651 -0.0881023 -0.518841 0.850319
9.21534 9.5492 5.24273 -0.134905 -0.231877 -0.963345
10.4672 10.6374 5.00839 0.634754 -0.371042 0.677802
8.48934 11.6856 2.55336 0.184409 0.189195 0.964468
10.712 10.8816 6.47788 -0.693038 0.184732 -0.69683
7.11385 13.5229 4.78823 0.745448 0.473668 -0.468984
8.9369 12.7273 1.25038 -0.0405562 -0.201561 0.978636
7.83065 0.717604 3.72405 0.91784 0.197116 -0.344549
10.5377 13.2102 7.95223 0.383259 -0.827333 -0.410649
11.6018 2.24195 5.44597 0.769295 0.498173 0.400012
10.8975 13.947 6.54446 0.366086 -0.264827 -0.892103
12.0938 2.34444 6.6639 0.142078 0.958624 0.246688
11.4194 13.0044 8.51788 0.720132 -0.0396911 -0.692701
1.46334 1.73237 2.59411 -0.197306 -0.4263 0.882802
0.228187 10.9947 3.31758 -0.961871 0.00563245 -0.273446
10.828 11.9373 9.57574 -0.799229 -0.426665 0.423309
13.9476 11.5519 6.59154 -0.66837 -0.158921 0.726653
4.85903 13.5997 3.61574 -0.715818 0.519821 -0.466252
1.06549 11.8221 4.21188 -0.592218 0.0859627 0.801179
5.18392 13.909 5.4518 -0.618169 0.527015 0.5832
5.19968 12.9545 5.96168 -0.869443 0.434603 -0.234924
6.77353 3.86871 2.5695 -0.665475 -0.655618 0.356802
5.13504 11.7925 2.511 0.711534 0.636534 -0.297563
4.85858 0.363295 6.95721 -0.612423 0.610515 0.502205
5.40401 12.5687 7.51971 0.428523 0.576187 0.695972
5.64177 2.78387 3.89965 -0.458244 0.722179 -0.518141
7.29465 12.3525 8.01236 -0.332957 -0.605569 0.722791
5.58629 0.39921 4.4149 0.193369 -0.39366 -0.898688
8.84897 11.5336 4.63505 0.0228221 -0.542669 -0.839636
8.43466 0.29463 5.64246 -0.507575 -0.79236 -0.338427
11.222 3.10194 2.72246 -0.466221 -0.459595 0.755917
11.5061 3.99102 6.93948 0.0707053 0.834249 -0.546835
8.32645 12.7207 3.11172 0.659632 0.356105 0.661873
12.2429 2.50196 4.65919 -0.81461 0.219602 -0.536829
8.68749 13.5881 4.63019 -0.627483 -0.606984 -0.487683
10.3347 1.01855 6.98218 0.608417 -0.0349439 0.792848
12.3076 0.877189 7.36855 -0.862176 0.439809 -0.251439
0.789386 3.33247 7.30524 -0.0247603 0.693232 0.720289
0.558981 1.14821 2.49013 -0.382771 0.595979 0.705901
1.864 2.00277 7.01509 0.608263 0.189682 0.770738
3.30701 1.58348 8.42731 0.981882 -0.0202967 -0.188405
0.19654 4.66654 3.75105 0.724898 -0.637214 0.261689
1.75569 0.925773 6.79078 -0.286436 -0.178009 -0.941418
2.43338 2.91811 5.79749 0.676535 0.119995 -0.726568
4.26354 13.2484 6.6893 -0.952997 -0.00528252 -0.302933
3.93537 4.70809 3.65839 -0.485197 -0.0819081 -0.87056
2.43932 1.34594 2.96142 0.0360897 0.945801 0.322736
3.0918 2.42209 2.36623 0.6425 0.705275 0.299635
5.02954 1.58442 7.07269 0.177082 -0.609124 -0.773052
2.66985 3.60326 3.23523 -0.391156 -0.760458 -0.518363
4.26608 1.80194 3.91036 -0.767758 -0.420754 0.483232
4.94462 1.74172 5.80024 -0.495921 -0.822297 -0.279087
5.21205 1.42213 4.48446 -0.460275 -0.516972 -0.721725
7.33267 3.01034 3.08792 -0.0943277 0.923483 0.371861
3.62385 6.43627 8.16335 -0.083662 0.0698796 0.994041
6.00275 1.56498 6.48282 -0.0250235 -0.284991 -0.958204
7.2285 14.034 5.69403 0.0516789 -0.635194 0.770621
9.79203 1.22794 3.70195 0.668669 0.630438 -0.394246
7.7028 1.78883 6.08737 -0.301842 0.586675 -0.751467
8.21149 4.19488 7.90721 -0.383357 0.87338 0.300408
11.0258 1.82225 6.23297 -0.206022 -0.957626 -0.201265
7.51625 2.06327 3.7127 -0.713121 0.480686 0.510293
0.0580146 1.59618 6.59609 -0.426761 -0.401191 0.810506
10.7382 4.10696 9.36034 0.999077 -0.00442452 -0.0427323
13.5412 3.09437 8.65249 0.543609 -0.8233 0.163298
13.9028 3.73042 6.49177 -0.673957 -0.506551 -0.537762
13.6679 4.25106 7.94119 -0.212934 0.823228 0.526266
0.0572187 3.93539 8.84892 -0.499516 0.73194 0.463408
1.63464 1.81662 10.5191 0.879703 -0.475006 -0.0221614
2.84528 5.05311 7.85731 0.886627 0.432825 0.162954
0.865038 2.99924 4.88646 -0.282022 0.375835 -0.88273
0.25643 5.90185 6.01283 -0.788476 -0.155825 0.594999
3.53538 13.8004 7.33793 -0.203764 -0.839853 0.503117
2.266 2.70453 4.62435 0.685123 -0.711997 0.153841
2.99377 3.12579 4.02834 -0.308439 0.669915 0.675336
6.19068 6.2876 7.158 0.0088551 0.499175 -0.866456
4.83712 3.66748 8.55065 0.51788 0.750851 -0.409905
7.27136 6.65238 2.48164 0.923045 -0.151445 -0.353628
3.85101 5.02967 5.21168 -0.48372 -0.617129 -0.620619
7.09008 5.66847 8.98863 0.929249 -0.358564 0.0890416
7.13611 0.49912 7.99598 0.605776 0.721452 -0.335474
5.48495 2.89951 7.39324 -0.334272 0.371466 -0.866185
5.90217 4.01835 3.80034 -0.664136 0.744577 0.0673008
7.69334 3.95734 9.93348 -0.793664 -0.433456 -0.426864
10.6287 1.95062 7.60914 -0.99731 -0.0725573 0.0103765
9.39936 2.61521 6.77411 0.776582 -0.629339 -0.0292094
8.28548 5.21511 7.11799 -0.468701 -0.848831 -0.244549
10.0693 4.34653 6.37824 -0.0538107 -0.25532 -0.965358
10.6036 6.42574 5.82151 -0.388036 -0.914317 -0.115986
12.8612 8.38345 4.09427 0.7149 0.677835 0.171634
10.8002 5.20743 7.06128 -0.727053 0.442159 -0.525252
1.25252 7.94652 4.88421 0.705733 0.353587 0.613936
13.3377 4.63251 7.13846 0.349526 0.891297 0.288827
12.8097 7.28795 3.37843 0.922222 0.223166 0.315759
1.07752 3.73357 6.36488 0.614592 0.252824 0.747233
0.18209 5.26073 5.17967 0.870188 -0.0377555 -0.491271
3.0812 3.91998 6.35981 -0.260444 0.96384 -0.0564068
1.35779 8.16115 2.71607 0.848673 -0.317082 0.423336
2.1176 6.14211 5.87199 0.15162 -0.470569 0.869239
0.441032 6.38848 7.06393 -0.0288325 -0.450206 0.892459
2.82781 5.32264 5.25438 0.0193978 -0.984133 0.17637
3.48759 6.8076 4.1359 -0.960594 0.0388631 0.275225
4.51273 7.19346 5.72201 -0.371042 -0.839693 0.396539
6.44745 7.63612 9.00564 0.0525047 -0.550848 0.832952
6.30555 6.76718 8.38044 0.981453 -0.141086 -0.129786
5.1083 7.28226 6.52398 -0.13386 0.983724 0.119868
5.21903 6.48069 5.36016 0.373816 0.859309 0.349069
5.4154 6.16734 2.99114 -0.940608 0.304862 0.149385
6.60284 5.1709 7.02128 0.871395 0.33362 -0.359679
6.71141 5.59956 5.9389 0.823601 -0.103451 -0.557656
6.0809 3.63853 4.89243 -0.485957 -0.838255 0.247335
6.14663 3.97467 7.88537 -0.423944 -0.0405567 -0.90478
9.55479 5.3292 7.28415 -0.548255 -0.476445 -0.687325
8.69619 7.82542 3.62168 -0.665291 0.480818 0.571141
8.2231 5.11094 6.04267 -0.732559 -0.680569 -0.0135169
11.9128 10.8277 4.38292 -0.595112 -0.558717 -0.577648
1.65751 9.21494 5.44424 -0.89095 -0.453969 0.0109655
11.1643 7.41627 7.82136 -0.0631971 0.256919 0.964364
11.1412 7.71873 3.4223 -0.90741 -0.32895 0.261532
11.7912 8.20179 6.14261 -0.0717635 0.436366 -0.896903
12.3858 5.66748 5.47071 0.428406 0.865809 -0.258541
13.383 8.00027 2.6685 0.925356 0.127737 0.356931
1.1514 6.91056 5.14706 0.231028 0.19561 0.95308
1.1629 10.5769 7.63165 -0.504015 -0.557093 -0.660012
0.238847 7.27095 7.42537 -0.648916 0.40517 -0.644007
1.66695 9.57644 7.25915 -0.509642 -0.368398 -0.777527
3.15429 6.94838 3.12234 -0.361587 -0.92137 -0.142594
2.44103 10.4451 9.18636 -0.0238512 -0.587751 0.80869
2.6662 7.59146 5.10211 -0.515992 -0.162593 0.841021
4.32203 8.8698 9.54585 0.277827 -0.764883 -0.581177
6.19539 7.70339 2.84949 -0.537107 0.113882 0.835791
0.893912 11.1773 11.6313 -0.967057 -0.245398 0.0676857
4.83038 9.15528 5.195 0.7474 0.101992 0.656499
5.52215 9.36556 4.10392 0.482537 -0.000690453 0.875875
5.49301 8.29973 8.06668 0.118328 0.149855 -0.981602
5.45248 10.8991 6.89982 0.281161 -0.330702 0.90088
5.17072 9.09668 9.02419 0.318891 0.00824304 0.947756
8.12241 10.4381 9.64255 0.500158 -0.172279 -0.848623
6.42881 2.81594 5.97344 -0.11866 0.377524 0.918365
9.43809 10.7502 8.53393 -0.0662699 -0.346436 -0.93573
8.86028 6.0071 10.1929 0.83371 -0.141632 0.53373
8.58367 6.81691 5.82785 -0.378471 -0.679358 0.628675
9.92503 7.79537 6.80365 -0.601253 0.788899 0.127014
11.4285 12.009 12.1682 0.162547 -0.98664 -0.010965
11.0133 10.1687 8.76122 0.393795 0.0232059 -0.918905
12.8028 10.358 4.71634 0.388236 0.324127 0.862678
11.1526 8.38606 7.35212 -0.481246 -0.133716 -0.866327
9.80309 6.77786 8.14673 -0.42246 -0.77421 0.471302
0.457484 8.19007 12.3502 0.429653 0.700935 -0.569287
13.6848 8.63507 7.13813 -0.0864239 -0.632272 0.769911
0.728009 8.40483 7.08407 0.215141 -0.930572 -0.296226
13.3356 8.58788 9.6843 -0.816714 0.254025 -0.518121
2.56436 8.62008 6.85632 -0.270162 0.347916 0.897756
1.28966 10.9429 9.51581 -0.25762 0.514645 0.817785
3.37155 9.42209 10.6548 -0.538073 0.837878 -0.091852
13.6541 12.0105 8.56441 0.713482 0.699855 -0.0338475
13.6396 7.90117 11.8747 -0.379534 -0.444281 0.811523
3.12535 8.50905 10.031 0.199705 -0.801372 0.563845
3.68299 8.51265 8.46001 -0.0281392 0.839145 0.54318
2.45811 8.40799 9.12724 0.335293 0.436771 -0.834752
6.21202 7.41053 13.6624 -0.197201 -0.207216 -0.958213
1.71156 11.6549 7.39792 -0.9565 0.276602 0.0927275
6.30647 9.83065 6.93851 -0.691601 -0.680724 -0.24146
4.23326 11.0796 12.6928 -0.294352 0.352582 -0.888281
9.06412 7.75369 9.65298 -0.55315 0.715205 0.427209
8.1129 12.4667 9.8748 0.714151 -0.0618523 0.697254
8.0316 11.5225 10.1559 0.0333202 0.225657 0.973637
9.37636 10.3391 11.4492 -0.0044299 0.333743 -0.942654
10.4647 7.26928 9.49426 -0.194571 0.444421 0.874432
8.68254 11.6727 6.51863 -0.829537 0.024708 0.557904
10.2424 10.2991 7.22596 0.162029 0.262653 0.951189
9.67117 13.119 7.533 -0.169049 -0.777931 0.605183
9.0948 8.56508 8.27361 -0.770345 -0.0113499 0.637526
10.2556 12.2404 8.87521 0.77258 -0.122855 -0.622918
12.8373 8.67149 8.26619 -0.767094 0.40563 -0.497022
12.3365 11.6719 6.96161 0.622399 -0.535887 -0.570477
12.6611 12.6376 9.90647 -0.983076 0.177336 -0.0459826
12.154 13.9923 7.01772 0.340785 -0.295577 0.892468
0.763603 8.24152 9.16947 -0.790924 0.611536 -0.0215188
0.30613 10.776 9.53085 -0.103822 0.975544 0.193738
13.1588 12.9646 8.54319 -0.532702 -0.696027 0.48143
11.9135 13.6668 9.72956 -0.411647 0.213629 0.885951
0.971274 10.1395 11.2147 -0.534903 -0.599218 0.595664
4.64215 11.8879 13.5498 0.750322 -0.0775443 0.656509
5.51247 12.4205 11.3329 -0.0728063 -0.824105 -0.561739
2.64549 12.1812 4.79736 -0.328426 -0.52086 -0.787935
2.76457 11.2659 10.8924 -0.905743 0.369533 -0.207545
4.83365 1.17889 12.3197 0.672973 -0.0240357 0.739276
4.38158 10.9752 10.3155 -0.203474 -0.745997 -0.634103
4.54658 11.81 7.72895 0.0183698 -0.898145 -0.439316
6.84788 12.7305 3.68155 0.569312 -0.686499 -0.45233
1.99667 13.3462 9.53726 0.563257 -0.815167 0.135068
5.80932 9.76361 11.3728 0.93086 0.101285 -0.351056
6.28522 12.4604 9.12611 -0.0691004 -0.0289067 0.997191
8.74767 11.9262 8.78651 0.138598 0.928081 0.345625
9.6009 10.0157 9.23946 0.617851 -0.172804 -0.767072
10.5481 11.3922 10.8292 0.328995 0.8045 0.494513
9.42444 0.502938 12.0568 0.185877 0.977817 -0.0965623
7.82859 11.7078 5.031 -0.058797 0.923357 0.379414
8.74565 2.82936 12.8518 -0.0307915 -0.608295 -0.793113
10.2067 12.1912 6.43014 -0.00021058 0.132785 -0.991145
9.61861 12.0383 4.17231 -0.306496 0.323651 -0.895159
12.5132 9.96148 7.84252 0.382267 -0.481112 -0.788925
10.4271 1.26467 9.79102 0.310259 0.723533 0.616636
9.32533 12.783 5.01105 -0.576544 -0.332257 -0.74646
12.9808 1.48216 6.72899 0.361151 -0.40265 -0.841096
10.9652 0.212513 9.57505 -0.084307 0.375372 0.923032
11.6589 0.761236 11.3209 -0.0961002 0.162126 0.982079
1.94685 0.396475 8.5791 -0.758706 0.0953017 -0.644424
0.913264 1.27836 7.17754 -0.266847 -0.821038 -0.504668
13.2186 13.7932 9.10745 -0.513025 0.522181 -0.681273
0.822798 13.679 7.55897 0.103016 0.13075 0.986049
3.99641 13.3891 11.9137 0.442019 0.871724 -0.211462
0.548755 12.6315 6.4959 0.212781 -0.138403 -0.967248
3.19299 11.8456 5.9383 -0.348793 0.18445 0.91887
1.36028 12.8229 8.0565 0.0457924 -0.111141 -0.992749
1.88009 12.3663 11.3444 0.750362 0.0484281 -0.659251
3.33918 12.3419 8.9937 -0.679673 0.518595 -0.518753
6.89834 11.7851 5.56053 0.0847293 -0.968267 -0.235117
3.02633 1.38522 9.51515 0.779001 0.591385 -0.208377
6.668 12.7014 11.8821 -0.283687 -0.513217 -0.810018
4.26383 1.92012 5.02801 -0.676934 -0.672959 0.298138
7.90474 11.5745 8.01033 -0.705538 -0.649486 0.28352
7.8636 1.83672 11.8558 0.112644 -0.0743585 0.990849
9.38529 2.62165 11.5198 -0.354125 -0.180709 -0.917573
8.80055 12.8939 6.92629 -0.490953 0.400429 0.773706
8.77441 13.4686 6.03272 -0.271955 -0.646424 -0.712865
6.95599 3.04742 7.71715 0.255354 -0.124296 -0.958825
10.0382 1.02943 8.19374 0.42984 0.574369 0.696662
12.2091 1.31347 8.32581 0.947339 -0.311215 -0.0754647
13.0866 2.71992 6.95518 -0.265136 0.369815 0.890472
8.74211 1.18888 7.72456 -0.34723 0.254792 0.902504
11.3898 1.1715 9.49195 -0.403312 -0.331458 -0.852921
13.4547 2.14824 7.89376 0.545617 0.269238 -0.793608
12.2148 1.44165 5.04645 -0.356202 -0.409286 -0.840003
1.65499 2.65098 9.45755 -0.634812 0.23966 0.734558
1.77078 13.7788 7.31362 -0.197502 0.231193 -0.95265
1.53915 3.3384 8.18398 0.35917 -0.0815855 -0.929699
1.43343 0.24437 3.67984 0.89241 -0.346769 0.288713
0.424569 13.7938 5.17489 -0.470872 -0.408078 -0.782146
2.45199 12.9463 7.40379 -0.308579 -0.731676 0.607807
3.96829 2.09286 6.88669 0.339353 -0.850115 -0.402671
3.1361 13.9869 5.6546 0.646973 0.714896 0.265233
4.2612 3.34549 6.70682 -0.03284 -0.436575 -0.899068
4.56304 13.3821 10.3214 0.684164 -0.28733 -0.670344
3.62297 2.6162 8.44898 0.701873 0.267352 -0.660225
3.36681 11.8155 7.91795 0.210788 0.504739 -0.837142
4.68066 0.2866 10.055 -0.0820448 -0.35908 -0.929694
6.55775 0.549018 11.2896 -0.252114 -0.915092 0.314713
6.80394 1.00417 6.71111 -0.391997 -0.0545243 0.918349
5.26415 0.282109 2.26395 0.0496252 0.319761 0.946198
5.15668 0.832998 8.04322 -0.540384 -0.0606999 0.839226
5.68005 3.70874 0.821434 -0.409935 0.532346 0.740649
10.221 2.41067 8.46722 0.853179 0.48403 -0.194425
8.25363 2.40395 7.34831 -0.39847 0.233505 -0.886959
8.09546 3.24507 9.39181 -0.445254 0.176744 -0.877787
12.1311 2.37059 8.87579 -0.12783 0.35742 -0.925154
11.5471 6.04815 5.91904 0.030011 0.127186 -0.991425
0.00476426 2.62581 5.26835 -0.0437305 -0.193806 -0.980065
11.7845 4.23525 12.2607 0.890788 0.0926369 0.444878
13.5858 2.24545 10.0252 0.489709 -0.227077 0.841796
0.307505 1.37537 8.03298 0.0954518 0.995346 -0.0132673
0.331914 5.06291 8.69341 0.19296 -0.153324 -0.969153
12.8163 2.95619 10.9652 0.12939 0.181806 0.974784
0.364876 1.00194 11.6382 0.628156 0.736399 -0.25127
1.4237 4.7385 6.28771 0.828508 0.121916 0.546544
2.01025 6.17473 8.60616 0.174701 -0.984361 -0.0226511
0.535131 2.52223 11.6846 0.315036 0.712502 -0.626971
3.61554 3.45541 11.139 -0.349696 0.0852796 -0.932974
3.18937 6.27381 6.1942 -0.174541 0.968455 0.177848
3.15952 1.5528 7.24516 0.285133 -0.830978 0.477677
4.58258 5.0811 8.19411 -0.257656 -0.516005 -0.816916
6.68793 4.52171 9.83577 -0.663937 -0.746664 -0.0409968
7.17207 5.57736 7.77389 -0.643312 -0.590675 0.487086
3.41692 2.64862 9.81554 -0.332171 -0.720294 0.608965
4.76883 3.13344 9.79033 0.504641 0.861891 -0.0498066
5.29141 2.6845 9.04032 0.733605 0.671049 0.107312
8.48697 5.69834 8.36709 -0.485108 0.719783 0.496571
7.06603 1.90434 7.22645 -0.249328 0.077865 -0.965284
8.71443 6.06439 12.5898 0.207503 -0.16397 -0.964394
8.56051 2.69848 5.9291 0.170972 -0.906845 0.385229
7.88206 4.33482 9.03457 0.941221 -0.319566 0.109452
9.53346 3.77268 7.43526 0.431938 -0.380283 -0.817811
7.86316 7.5391 9.49202 -0.76358 0.627287 -0.153157
9.51979 3.56134 11.2664 0.882313 -0.0499422 0.468006
10.2597 6.37403 7.23475 0.954024 -0.0540531 0.294816
10.2367 3.5747 8.26697 0.350566 0.406407 -0.843763
9.88219 4.26717 10.5476 0.817292 0.205635 0.538283
13.1761 5.38265 11.9196 -0.718499 -0.209174 0.663329
12.3875 6.26353 7.1241 0.465466 -0.694959 0.548064
0.574868 5.23513 6.63825 0.805798 0.544565 0.232677
11.6529 3.93791 11.0592 -0.511889 0.46509 -0.72226
1.29131 0.685084 11.8719 0.340423 0.668228 0.661501
12.0638 5.75171 8.25463 -0.934617 -0.170794 -0.311961
2.00591 4.27208 5.66533 -0.216334 0.613816 -0.75923
2.77782 3.22923 8.19316 -0.0578078 -0.13072 -0.989733
1.94095 5.35309 10.3287 0.769295 -0.578448 0.271262
2.11573 5.94994 4.19548 0.894709 -0.0113203 -0.446507
5.69693 5.1824 9.36576 -0.0376558 0.0155191 0.99917
4.5338 5.54577 10.0182 0.109996 -0.992614 0.0511706
6.81721 6.04171 9.98079 -0.375582 -0.734755 0.564866
7.19445 8.98337 8.8845 0.498706 -0.759269 -0.418095
4.86058 6.40072 7.60168 -0.562104 0.383706 -0.732673
5.96437 8.39321 2.14188 0.0440798 0.462751 0.885392
7.11563 6.16271 11.5493 0.0282488 0.809046 0.587066
6.87947 9.08473 10.074 0.828955 -0.458619 -0.32016
9.29022 4.88326 9.11276 0.357909 -0.0658687 -0.93143
9.80395 5.5795 9.66402 -0.541406 0.773673 -0.329105
10.5069 5.29145 8.75673 0.304143 -0.910137 -0.28133
8.31094 6.93513 10.6 0.90478 -0.217173 0.366344
8.65471 7.9428 6.08377 -0.480282 0.597548 -0.642079
8.71877 8.08454 11.0336 -0.686113 0.500239 0.528214
11.8116 8.6945 10.8808 0.622664 0.455634 0.636151
11.7563 6.71953 8.3186 -0.559967 -0.444944 0.6989
7.77129 7.40793 4.99474 0.0919816 0.11079 0.989578
10.9545 9.60158 7.18118 0.641924 0.424951 -0.63824
10.8914 6.09629 11.9209 -0.106639 -0.959053 -0.262383
13.3466 7.55314 9.8646 -0.097031 -0.00342649 0.995275
13.6767 6.38499 5.29113 0.15106 0.686029 0.71172
0.895457 7.63199 10.213 -0.703448 -0.493575 -0.511414
1.46279 4.56224 10.9054 -0.487602 0.31079 -0.815876
0.530691 9.16224 10.0787 -0.784127 0.296821 0.545016
13.3397 6.70079 7.77075 0.240029 -0.16693 -0.956306
1.28092 9.15078 8.08239 -0.284039 0.733874 0.617049
3.50748 5.01997 12.5378 -0.692633 -0.488626 0.53057
2.37793 9.96085 6.57373 -0.438483 0.399915 -0.804861
5.9075 9.21764 8.29042 0.392835 -0.56357 0.726684
3.96402 4.41863 9.4474 -0.0908506 0.823585 -0.55987
5.77838 7.19611 11.2492 -0.659425 -0.219938 -0.718878
3.99645 9.81664 11.278 -0.715611 0.281806 0.639129
5.42313 10.0909 8.85645 -0.505054 -0.039871 -0.862166
6.9439 8.82003 11.0959 0.919253 0.100316 -0.380672
8.48702 6.97986 7.7233 -0.211806 0.145228 -0.966461
6.62852 10.6955 10.558 0.406381 -0.711467 -0.573297
8.32752 6.80117 11.8583 -0.530058 -0.374382 -0.76084
7.93629 9.25068 12.9302 0.273886 0.738455 0.616174
9.8264 7.30894 11.3489 -0.737157 0.347237 0.579677
8.34859 8.0303 7.0961 0.836304 -0.193789 0.512876
10.5009 8.02532 12.2868 0.0260916 -0.0739498 -0.996921
9.73255 12.0336 13.2956 -0.504274 0.0962102 0.858168
10.8869 9.13992 8.68828 -0.966814 -0.202161 0.156209
12.082 8.27851 9.75336 -0.664426 0.0539203 -0.745406
1.07439 11.9801 9.19116 0.425008 0.198807 0.883088
8.619 1.0758 11.44 -0.166347 -0.561564 0.81054
13.3993 11.0067 10.2095 -0.0650601 0.757884 -0.649137
13.3233 10.4965 8.36793 -0.140149 0.132519 -0.981222
12.9746 9.69885 10.1975 0.704748 -0.129312 -0.697573
0.732179 13.2567 9.91423 -0.397977 -0.763368 -0.508806
0.691627 8.66788 13.2809 -0.193334 0.980441 -0.0368518
12.6958 12.1521 7.97364 -0.881243 -0.0926018 0.463504
2.45708 7.92074 7.75876 0.671834 -0.332771 -0.661742
2.58466 10.8946 11.854 0.655663 0.696806 0.290804
3.75312 8.1664 13.0635 0.0381347 -0.836006 0.547393
2.04862 9.33874 11.9982 -0.48621 -0.688455 -0.538172
2.52139 8.95731 10.9861 -0.530818 -0.214939 -0.819777
1.51796 10.2001 12.597 0.698886 0.705748 0.116093
5.4531 8.0982 13.9878 0.131385 0.408696 0.903164
5.24231 10.3652 10.4689 -0.341002 -0.517107 -0.785059
6.51617 10.2743 12.838 -0.997748 0.0396618 -0.0540941
6.4486 10.8884 12.0041 -0.647783 0.39135 0.653623
7.50353 9.93893 1.40546 -0.774252 0.421778 0.471845
7.79022 9.73876 11.3438 0.813677 0.238605 -0.530092
6.74966 8.10232 10.1975 -0.894774 0.203652 -0.397374
10.0544 10.9123 13.0899 0.84617 -0.348521 0.403148
6.46276 11.5714 0.305814 -0.00942274 -0.724381 0.689336
11.6335 11.027 13.1262 -0.215138 0.961563 0.170621
10.5569 12.8432 12.9625 -0.134353 0.626461 -0.767786
10.6857 0.369955 12.4848 0.448674 -0.296328 -0.843138
10.1629 0.338259 0.443247 0.631226 0.713703 0.303614
11.3792 11.3272 8.85573 0.961371 0.0526639 0.270172
10.6764 9.33628 5.73866 0.610807 -0.408466 0.678285
14.0094 11.6729 10.6799 -0.516469 0.84074 0.16253
12.4928 0.0682202 11.7505 -0.82931 -0.316118 0.460775
11.4137 11.8368 6.24493 0.413098 -0.885908 0.210991
12.4314 10.6964 10.2781 0.142103 -0.0098165 -0.989803
12.7535 11.6043 10.6516 -0.56624 0.19623 -0.800541
0.00328301 12.1463 11.7031 -0.85736 0.177834 0.483021
3.07133 13.2238 12.6558 -0.0751123 -0.930779 0.357784
5.0106 11.5164 11.9827 -0.300259 0.944242 -0.135096
4.04207 12.4749 14.0406 0.866683 0.428064 0.256167
2.66172 11.0237 13.952 0.304833 0.71339 0.630992
3.72879 12.3331 11.2324 0.891594 0.380098 -0.24614
1.90169 11.7478 12.4114 -0.774207 -0.570874 0.273324
4.97593 13.6593 13.3384 -0.0174083 0.0783674 0.996773
6.3555 0.901712 12.3088 0.475784 -0.848551 0.231498
6.20452 0.20326 5.58202 -0.208658 0.166345 0.963738
5.56261 11.1535 9.76615 -0.755363 -0.479506 -0.446655
6.55043 13.6867 13.6106 -0.398888 0.855716 -0.329603
8.03089 10.9348 13.5621 -0.95279 -0.297158 0.0623596
7.08512 11.6714 11.8253 -0.195715 0.377849 0.904945
5.24283 8.9168 12.2868 0.818732 0.574007 -0.0139164
7.41878 12.4719 11.0458 0.336134 -0.0751513 0.938811
9.88025 11.4043 11.6641 -0.19787 0.794564 -0.574034
9.27986 0.324377 13.1056 -0.772056 0.614332 -0.162866
8.99584 1.7999 13.2331 -0.680174 0.601379 0.419173
9.57406 13.9054 9.49327 0.45743 -0.66208 -0.593639
13.4817 10.4314 0.521293 0.330785 -0.915967 0.227124
10.5617 13.8316 10.7934 -0.28764 0.64157 0.711091
11.499 11.294 7.8361 0.986575 -0.0993756 0.129595
14.0475 0.858699 13.7589 -0.20967 0.672335 -0.709932
0.114402 0.0818687 10.6424 0.599852 0.7963 0.0780009
12.6567 1.15457 10.4061 0.116316 0.146875 -0.982292
13.0833 0.237729 10.2039 -0.78084 -0.178416 0.598713
13.5199 1.96037 0.0397011 -0.987406 0.149504 0.0517559
12.4437 11.6195 12.4179 0.401308 -0.687247 -0.605511
1.29854 13.3601 5.3165 -0.0329109 0.166184 -0.985545
3.01228 13.3463 10.5472 0.0213968 0.344734 -0.938456
12.9451 13.2011 0.996205 -0.505397 -0.0530265 0.861256
5.4785 12.3283 12.5956 0.604164 -0.448239 -0.658838
2.75174 0.0640935 7.85431 0.148557 -0.509623 0.847476
5.56454 13.9162 10.8424 0.679248 0.569222 -0.463259
2.61668 12.8025 0.392663 -0.00585752 -0.458535 0.888657
8.72064 13.9442 0.474239 -0.319224 0.306625 -0.896703
4.69355 12.5371 9.19013 -0.792212 0.591282 0.150953
6.26438 11.6233 7.81943 0.867247 -0.297721 -0.399055
5.41145 13.8652 7.64849 0.914463 0.350507 -0.202245
9.12442 12.9754 11.3541 0.932356 -0.0846172 0.3515
6.42246 4.14151 12.5782 -0.26844 -0.668918 0.693173
9.04088 13.2785 10.1973 0.919509 -0.327071 -0.218009
7.87132 0.101601 7.28443 0.916049 0.0504369 0.397883
6.4377 4.19649 0.00185705 0.5773 -0.406163 0.708348
8.31372 3.32903 0.721689 -0.514278 0.529576 0.674587
7.826 3.4275 13.6548 -0.100153 -0.689149 -0.717665
10.6999 5.0381 1.44687 -0.370176 -0.521576 -0.768718
11.1145 1.43767 14.0452 -0.952569 -0.0692091 -0.296347
11.9903 3.63164 8.55181 -0.62699 0.44173 -0.641684
10.4737 1.59192 12.5918 0.235795 -0.561171 -0.793402
8.55103 0.957278 0.828349 -0.774054 -0.608843 -0.173638
12.2545 2.32877 11.8097 0.11624 -0.293592 -0.948837
1.30767 5.39534 9.11861 0.421085 -0.690553 0.588068
8.68312 3.71974 1.84264 0.657605 -0.270415 -0.703158
11.2168 2.11436 0.780955 0.9878 0.153452 -0.0265246
1.13013 0.286774 0.726803 -0.155761 -0.958649 -0.238183
0.81135 0.556704 4.57667 0.991654 0.127974 -0.0156499
2.45855 0.810851 5.52205 0.0831084 0.551524 -0.830009
2.0541 2.75385 10.638 -0.482059 -0.0632693 0.873851
1.97962 13.8132 0.0348461 0.110859 0.0846633 0.990223
1.75151 2.44178 3.78883 0.100095 -0.844445 0.526207
3.2754 0.411969 4.75923 0.929343 0.366738 0.0427281
3.80229 1.6564 13.17 -0.162848 -0.862944 -0.478339
5.48969 1.2999 9.08534 0.0404534 0.4797 -0.8765
7.43709 1.45758 9.52138 0.365413 -0.533422 -0.762846
3.80902 0.932685 10.0961 -0.0786557 -0.894648 -0.439794
6.27887 1.78282 9.71294 -0.246557 0.961539 0.121047
5.74248 0.128825 8.7297 0.615534 0.781239 0.103849
3.81952 13.8407 8.65073 0.0101141 0.971215 0.237991
5.6004 3.66666 10.6362 -0.405243 0.914183 -0.00680614
8.20033 2.92849 11.2148 -0.58428 -0.316006 -0.7475
7.03878 2.51688 11.683 -0.756538 -0.405478 -0.513067
9.92705 2.86664 7.63736 -0.885396 0.0136696 0.464637
10.4198 2.64454 9.64402 -0.528467 -0.801523 -0.279793
9.29549 4.24219 11.9491 -0.955695 -0.278641 -0.0948984
10.6285 3.1904 13.3364 0.00667733 0.595876 0.803048
13.816 3.40268 11.6209 0.348942 -0.35821 0.865982
11.4862 2.46963 10.1786 -0.328231 -0.358863 -0.873774
13.004 3.76071 13.4631 -0.477093 -0.412286 -0.776146
13.496 3.52418 9.67976 -0.73753 0.568524 -0.364458
1.00716 2.21121 8.74948 0.391405 -0.769285 -0.504978
0.819023 1.47459 9.76676 -0.546067 0.812334 -0.204755
1.26052 3.61384 0.994465 0.408933 -0.308842 -0.858714
2.41843 3.55264 11.1471 -0.145561 0.621057 -0.77013
0.715529 4.1099 9.75113 -0.273899 -0.397696 0.875681
0.441445 4.29989 11.3373 0.32029 -0.732049 0.601264
1.17665 2.77997 13.0129 0.00945805 0.748748 0.662787
4.91897 2.02492 0.199621 0.197582 0.182362 0.963175
2.91864 5.97764 10.1073 -0.769526 0.21394 0.601714
3.34502 1.73782 6.02797 -0.21461 -0.894216 0.392837
2.54904 1.09995 11.5075 0.864568 0.227978 0.447825
6.77669 13.5323 9.80023 -0.981412 0.187207 0.0422432
6.40325 6.30456 12.9004 -0.221196 0.153868 -0.963015
4.85899 1.4997 10.2159 0.471111 0.112949 0.874813
7.59478 4.55421 11.4191 0.129875 -0.801677 -0.583477
6.83739 2.23474 8.98428 0.474281 0.565384 0.674832
7.0718 4.80489 13.0941 0.0136434 0.92837 -0.371406
7.84067 0.285711 9.78497 0.755852 -0.547685 -0.358788
8.05749 2.24129 9.38726 0.236907 -0.0947355 0.966902
9.3167 5.05116 1.31387 -0.695144 -0.593898 -0.405044
9.81873 3.01226 10.4662 0.640242 -0.373478 0.671271
9.03919 2.5502 9.29553 0.180904 -0.809853 0.558043
8.5841 8.49703 1.20581 0.323144 -0.672173 -0.666154
13.3939 2.98581 0.0126258 0.757717 0.0816799 -0.647451
8.71964 5.02074 11.5974 0.578514 -0.00223218 -0.81567
13.9001 3.94424 12.8061 -0.822728 -0.112071 -0.557278
12.5236 4.59276 11.5446 -0.943221 0.278663 -0.180779
11.9371 5.67052 13.3203 -0.779321 -0.566617 0.267589
11.2421 5.3136 10.5719 -0.984263 -0.0644061 0.164553
13.1811 2.51251 12.6344 0.479087 -0.130665 -0.867988
0.130726 6.23619 9.31066 -0.0715864 0.275295 -0.958691
0.954587 4.5594 12.4235 0.98079 -0.130875 0.14465
12.4788 5.58161 9.44808 0.429228 -0.789166 -0.439295
1.89806 3.81114 9.52145 0.377664 0.299978 -0.876004
4.44317 6.44475 12.9003 -0.238007 -0.935995 0.259357
2.57907 2.16308 11.3965 0.863123 0.372315 -0.341176
3.25238 6.5271 10.8724 -0.425405 -0.330663 0.842433
4.74305 2.25288 11.4018 -0.934953 -0.354591 -0.0113496
5.28765 6.38933 11.5237 -0.0581692 -0.57322 -0.817334
2.90352 3.31991 12.6662 0.173061 -0.863271 0.474145
7.34226 7.43049 11.3209 -0.742365 -0.282356 -0.607592
5.70837 6.36939 9.99253 0.465472 0.0497702 0.883662
6.71331 8.45773 1.15058 -0.363613 0.0977335 -0.926409
7.70106 10.5964 0.607091 0.0979905 -0.866 -0.490348
8.47487 8.13458 13.8502 0.256921 -0.863775 -0.433457
7.7091 5.81221 13.5709 0.288347 -0.945682 -0.15014
7.75613 6.36115 0.638329 -0.919557 0.304185 -0.248769
8.08969 5.43674 10.8209 -0.0576996 0.353744 0.933561
7.37614 7.32253 7.16042 0.232483 0.0992637 0.967522
9.68766 6.562 12.3786 -0.272499 0.278855 0.92086
11.0109 9.7452 12.7281 -0.128351 0.961598 -0.242601
11.6003 4.97527 9.03411 -0.657436 0.387209 0.646411
10.0966 8.03338 8.94966 -0.748745 -0.346901 -0.564837
9.43731 5.29342 12.3069 -0.561849 -0.224154 0.796292
11.2094 9.25099 9.82451 0.987734 -0.114095 0.106604
0.539562 7.45699 11.2052 0.694722 0.504992 0.512195
12.8357 4.62225 10.0572 -0.988469 0.0363432 -0.146998
12.0657 5.92554 11.9113 0.478237 -0.465155 -0.74493
1.37747 9.25727 10.7696 -0.638516 -0.764358 0.0897493
13.2616 5.871 10.3129 0.23297 -0.335834 -0.912656
0.924683 7.92926 8.00469 -0.770761 0.61019 0.183292
2.58407 5.02479 9.50158 0.412739 -0.910846 -0.00234925
1.11971 9.21132 0.541746 -0.0043952 0.876662 0.481088
4.17998 6.83477 11.1732 0.113667 0.55583 -0.823488
4.0042 5.3559 11.0554 -0.983837 0.141721 -0.109455
1.69683 5.47865 11.257 0.940096 -0.0486481 0.33742
4.26222 10.0956 12.4213 -0.275019 -0.551869 0.787277
7.32944 8.69873 13.6914 0.254671 -0.966521 0.0313055
5.04319 7.85425 11.771 0.790111 0.00966838 0.612888
6.92142 8.19983 12.8547 0.116145 -0.95947 0.256766
8.98543 11.4832 10.8869 -0.130303 -0.223055 0.966058
7.86314 7.04997 12.8321 0.141285 0.967254 0.210853
5.05269 7.2782 9.53389 0.805879 0.132697 0.577018
10.2591 6.46627 10.0584 0.916748 -0.39775 -0.0369854
10.5765 9.56478 13.7899 -0.483606 0.409662 -0.7735
9.52331 8.04729 13.5461 -0.171614 0.460109 0.871119
8.29668 9.43485 9.78086 -0.73298 0.212686 0.646146
10.2914 9.58266 10.7145 -0.969441 0.0498268 -0.240209
12.0455 12.5119 0.877579 0.909363 -0.299269 -0.288959
11.6807 9.64265 11.9077 0.82032 0.545845 0.170673
11.2757 10.5789 11.0794 -0.458958 0.544583 0.701988
12.1224 8.94367 13.4299 0.634952 -0.753182 -0.17191
9.9818 10.4591 1.41049 -0.580609 0.746412 0.325211
12.581 8.00559 11.5857 0.267568 0.466935 0.84284
12.636 0.816978 0.477347 0.356145 0.270048 0.894559
12.6569 9.77206 13.1943 0.033538 -0.53862 -0.841881
12.4869 12.946 13.8774 -0.391467 0.462566 0.795479
2.39798 6.92416 9.97904 0.345559 -0.366418 -0.863902
11.5138 11.3067 10.5003 0.479125 0.323211 0.816072
1.70236 11.1993 13.5304 -0.573966 -0.818466 -0.0259952
1.81517 7.84338 13.2533 0.170337 0.571233 0.802919
2.43945 9.9184 1.06767 0.702232 -0.157262 0.694362
3.76772 11.2665 13.8099 0.662899 -0.0429797 0.747475
4.84709 9.09607 13.2374 -0.21259 -0.97338 -0.0856584
5.22458 7.3556 0.621658 -0.590695 0.672649 0.445671
3.46883 7.58183 12.0347 -0.176134 0.634556 -0.75254
6.11607 9.35196 1.20371 0.493545 0.11155 0.862537
4.50488 4.57245 12.9573 -0.68639 -0.552975 -0.472321
4.22179 7.28227 1.57933 -0.898195 -0.247651 -0.3632
4.19459 6.97311 0.557865 -0.70139 0.669075 -0.245745
7.98515 10.8152 11.4989 -0.530087 0.0804904 0.844114
8.9019 9.21458 11.5402 0.0846657 -0.281233 -0.955897
4.2955 5.55685 0.187425 0.236426 -0.840041 0.488297
9.75976 10.5359 2.48073 0.937691 -0.252166 -0.239058
11.7939 9.99595 0.543945 0.886512 -0.340117 0.313713
10.0678 11.2505 0.122275 0.988055 -0.0557166 -0.143675
6.50805 1.34541 0.271853 0.918725 0.0156434 0.394589
0.0369744 9.29471 1.62694 -0.918265 0.393786 -0.0415056
12.5154 11.2862 1.01715 -0.799793 0.356939 -0.482623
11.3204 11.5918 1.35563 -0.733318 -0.539569 -0.413654
13.4118 13.2398 12.3921 0.196581 -0.15853 -0.967587
13.7581 10.1139 12.1234 0.783651 0.297648 0.545249
11.8271 13.2938 11.2553 -0.986332 -0.0239782 0.163017
0.495709 12.9027 10.8876 0.142508 -0.755187 -0.639831
0.530371 2.10092 0.916641 0.933611 0.34741 -0.0876197
2.55069 8.85581 1.04701 0.623308 0.442071 -0.645027
13.7546 1.28799 9.88074 0.0649395 0.26169 -0.962965
4.64111 8.81476 11.3589 0.894248 0.0880688 -0.438821
13.3337 1.39542 11.7882 -0.205543 0.514886 -0.832253
4.92248 9.90652 0.298605 0.890786 0.336714 0.305161
3.21761 0.415234 10.9724 -0.503758 -0.135887 -0.85309
3.40048 10.3145 13.5216 -0.0146452 -0.228309 0.973478
0.271677 0.325044 12.9292 0.343105 0.81946 -0.459091
5.22554 5.75406 12.5434 0.295524 0.726116 0.620823
8.2406 13.3421 12.6675 0.657578 0.143541 0.739586
6.52568 13.2475 10.8267 -0.936911 -0.283233 -0.204881
6.54399 13.894 1.47326 -0.662921 -0.690693 0.288928
6.45069 12.8715 0.693989 -0.735163 0.67516 -0.0607713
8.69713 12.3713 12.4475 0.0678092 0.181668 0.981019
9.22779 10.3176 13.4236 -0.709194 -0.0171692 -0.704804
8.2188 12.1619 0.57517 0.2477 -0.238256 -0.939084
11.2814 12.9706 13.9681 0.614685 -0.781775 0.104835
8.45337 1.11065 13.8767 0.978414 -0.181115 0.0995142
9.88563 12.9834 13.6981 -0.510611 0.0415406 -0.858808
6.73246 2.28875 0.111569 0.816424 -0.252092 -0.519521
12.0868 9.66756 2.06124 0.170264 -0.869162 0.464293
12.7248 1.26691 12.9609 0.455585 -0.116348 0.882556
11.6478 12.4411 10.7096 0.9476 -0.0293962 0.318104
8.52285 1.99274 2.43094 -0.247276 0.755555 0.606622
12.6369 1.99459 1.8289 -0.515005 -0.501716 -0.695018
10.1768 1.37322 11.0654 0.10985 0.766825 0.632387
12.3203 13.0994 12.5656 0.109596 0.662258 0.741217
10.2779 3.44357 2.49658 0.119477 -0.593396 -0.795994
11.6194 0.453437 0.714682 0.204897 -0.617661 -0.759284
0.170502 12.4612 0.0809343 -0.169087 -0.981548 0.0892974
13.2442 0.184332 13.8125 -0.178891 0.132742 -0.974873
13.9186 1.21654 1.7373 -0.0850837 0.856116 0.509732
13.7232 10.2271 13.6286 0.120201 0.981863 -0.146615
1.42437 13.311 11.346 0.0640835 -0.34639 -0.935899
3.96651 13.5361 13.0103 -0.358887 0.875508 0.323553
7.51471 0.729043 11.9456 0.164823 -0.447054 -0.879191
5.55659 0.508853 11.882 0.0427577 -0.325459 0.944589
5.84112 13.1159 13.3252 -0.190354 -0.53429 0.82359
8.87094 13.9749 11.1562 -0.777078 -0.00919022 0.629337
7.23128 12.9923 1.57491 -0.619855 -0.669104 0.409976
11.4558 13.8989 13.1562 0.000978971 -0.989936 -0.14151
9.06663 13.9418 8.5788 -0.360209 -0.903001 -0.234176
7.76759 11.7209 13.0027 -0.353704 0.118173 0.927862
6.86128 1.9566 1.26421 0.322108 0.894183 -0.31094
7.82413 1.09942 1.74489 -0.366898 0.915094 0.167299
6.22829 3.49049 11.6481 -0.994315 0.0291227 0.102421
6.86398 2.31651 12.7975 -0.0849704 0.714716 0.694234
10.1186 3.96387 1.42841 0.432373 -0.571168 -0.697725
9.81183 0.0889406 1.37848 0.304944 -0.931477 -0.198393
8.89858 1.97447 0.286023 0.982417 0.0236025 -0.185203
11.2438 1.81499 11.6602 -0.120916 -0.457187 -0.881113
9.1332 2.51567 1.10269 0.954593 0.223966 -0.196449
10.841 13.8829 1.66571 -0.482171 0.34366 0.805859
11.6195 3.13404 0.536529 0.443573 -0.0635513 -0.893982
11.2879 2.37668 13.7768 0.849345 -0.284002 -0.444923
1.69724 11.9378 0.604492 0.180837 -0.949314 -0.2571
0.555211 12.5312 1.04029 -0.450776 0.880264 -0.148112
2.13809 2.4191 13.386 0.0595685 -0.130942 0.989599
12.4272 0.0938725 1.62252 0.111125 -0.143103 -0.983449
2.69637 0.263384 13.3183 0.358949 -0.481814 0.799381
0.891628 11.9521 13.6421 -0.38171 -0.838205 -0.389499
3.16936 2.64075 0.0251638 -0.313185 0.839218 -0.444555
1.00366 13.5008 13.3206 -0.0562722 0.87298 0.484499
2.64808 3.00079 0.812638 0.330647 -0.801082 0.49894
5.61056 0.504673 0.396707 0.2969 -0.000616946 0.954908
6.7241 3.75763 10.615 0.0721696 -0.9148 -0.397406
7.35197 0.340436 13.5769 -0.475796 0.128053 0.870184
2.0738 12.9224 12.6193 0.162021 0.178989 -0.970419
7.85608 12.8817 13.6666 0.339056 0.294881 0.893357
8.28107 1.19505 9.96366 0.590511 0.0471885 -0.805649
7.54123 13.6337 8.8261 -0.391431 0.88101 0.265713
9.25035 4.82292 3.31631 -0.796161 -0.14861 -0.586551
6.19504 1.88349 13.3357 0.478894 -0.861237 -0.170093
11.3561 5.14302 0.626969 -0.819924 0.311391 -0.480375
9.71307 4.12721 13.3164 0.718585 0.353801 0.598716
12.9659 4.17826 1.89718 0.950897 -0.305496 -0.0496634
10.1129 1.76378 1.74722 0.516436 -0.812337 -0.27093
13.5302 4.84084 13.3857 0.990417 0.0172049 -0.137037
9.6577 3.36784 13.9942 0.00406433 0.736443 0.676487
11.1412 4.1362 1.3211 -0.170449 -0.0259892 0.985024
7.31991 3.21613 1.83226 -0.942367 0.316287 -0.109124
0.580556 3.20743 0.327287 -0.427945 0.781497 0.45401
0.84153 1.59303 13.2278 -0.670419 0.730897 -0.127781
13.4454 6.25436 0.511127 -0.037431 -0.976703 -0.211307
3.13013 0.956209 0.198252 -0.232044 0.729076 -0.643898
13.8888 5.67988 12.7847 0.657868 -0.157369 -0.736509
1.82531 3.46127 12.4555 0.296951 -0.020784 0.954666
2.40021 5.63816 12.9342 0.0493077 0.629449 0.775476
4.3924 0.89026 13.5985 -0.1308 0.483368 0.86559
4.97577 2.48659 12.3932 0.82723 0.559247 0.0541658
5.60825 4.44257 12.0321 -0.262544 -0.268578 0.926788
4.77538 3.33667 13.4591 0.0802239 -0.242421 0.966849
3.63537 4.41964 11.582 -0.934858 0.253245 -0.248811
9.30054 5.77007 13.7156 0.75299 0.274214 -0.598174
6.07195 5.43991 11.9967 -0.113244 0.189433 -0.975342
6.3554 5.96063 0.941279 0.850278 0.222574 0.476956
7.56682 7.61826 2.32395 -0.330838 -0.074739 0.940723
6.2491 6.95499 1.27087 -0.971881 -0.204834 0.116145
8.81037 8.01911 2.27159 -0.84354 0.533398 0.0626548
11.2899 6.52242 1.72801 0.712814 0.555922 0.427607
7.52043 4.83188 1.25732 0.850995 0.52211 -0.0566396
7.60632 3.77269 12.6123 0.834708 0.525738 0.163896
9.2938 4.74707 0.0670145 -0.666562 -0.55053 -0.502605
10.0986 8.64771 10.3168 0.650846 0.00575843 0.759188
11.5025 3.27839 12.4937 0.264056 0.413171 0.87153
11.6238 6.44876 10.8743 0.933016 0.347723 -0.0925774
12.0603 3.47827 9.94448 0.621333 0.440429 0.648049
10.7888 4.05485 12.8495 0.782086 0.440428 0.440869
12.3036 5.60391 0.271953 0.50046 -0.854458 0.139431
10.8472 5.11124 12.733 0.875052 0.0262204 -0.483319
10.4814 6.32533 0.0892216 -0.829484 -0.0763715 0.553284
2.74126 7.50415 13.7523 0.168638 0.351006 -0.921062
0.989069 6.54317 11.1105 0.37551 0.215409 -0.901438
0.128133 5.19976 0.897995 -0.0789697 0.63096 0.771786
1.58294 5.14223 13.4763 0.110628 -0.970075 0.216138
13.8255 6.51217 12.0727 -0.0606519 0.168255 0.983876
3.7737 3.7274 13.4604 -0.070925 0.818233 0.570495
3.35686 5.84744 13.1194 -0.00572794 0.521846 -0.85302
2.99793 1.9725 12.4289 0.655103 0.537549 -0.530926
2.59205 7.12213 12.0705 -0.184594 -0.195085 0.963258
1.74594 4.57861 0.697327 0.725173 -0.441474 0.528417
4.10649 4.25494 10.6976 0.671544 -0.637083 0.378357
8.25035 7.13721 0.306565 0.860085 -0.462251 -0.215818
1.52807 5.67544 0.943406 0.895067 -0.401588 0.193859
9.85966 6.63733 1.55783 0.795269 0.606093 -0.0141083
10.7599 6.99612 2.45976 0.163377 0.975802 -0.145321
6.99839 5.15837 0.142752 0.944766 -0.24654 0.215952
8.8773 7.10083 1.14332 -0.927057 -0.242099 0.286274
10.8359 4.67918 3.41362 -0.38388 0.0530455 -0.921858
11.0428 7.75461 0.200896 -0.0871724 -0.891408 0.44474
10.2683 8.30686 0.875586 0.0397944 0.341234 -0.939136
12.6888 11.3839 13.5121 -0.656965 -0.418865 0.626857
12.3396 3.85008 0.868966 0.308881 -0.580728 0.753225
13.3444 7.41603 13.7778 0.469254 0.8827 -0.0253435
12.1716 7.43329 14.0372 0.416307 -0.593648 0.688673
11.801 8.13886 12.2546 0.0705114 0.950508 0.302593
1.63652 7.50329 0.309973 0.173841 -0.706645 -0.685881
13.4253 8.97035 11.7936 0.318044 0.0515772 0.946672
12.4888 6.98265 12.4235 0.514766 0.0839119 -0.853214
1.2255 6.85207 0.962529 0.933146 -0.332397 -0.136932
12.9979 5.35426 1.2274 -0.5498 0.832103 0.0729654
1.60606 9.11919 13.0522 0.160525 0.813442 0.559055
1.52025 6.05063 12.0788 0.554929 0.521576 -0.648083
2.71173 9.419 13.5 0.565988 0.159336 -0.808869
3.50656 3.73937 0.562226 0.511754 -0.833223 -0.209397
2.39426 8.24583 11.898 0.0208175 -0.281461 -0.959347
2.35093 5.17154 0.0357232 0.476729 -0.868773 -0.134028
4.06238 8.73524 0.392352 0.820961 0.278333 0.498553
0.614581 6.43138 13.106 -0.27999 -0.785443 0.551983
6.03758 11.0564 13.5788 0.777871 0.187635 -0.599758
7.27347 9.19517 0.671481 0.533855 -0.839308 0.102765
4.80996 6.91909 13.805 0.33068 -0.943382 -0.0261098
9.23013 6.34667 2.60487 -0.662832 0.739592 0.116867
9.31061 8.54792 12.2613 0.315878 -0.199272 -0.927638
6.00085 9.38289 13.4696 0.318302 0.81608 0.482386
8.78472 10.1967 0.458217 -0.0720054 -0.776734 -0.625699
9.65053 9.33069 0.0946678 -0.212658 0.058463 -0.975376
10.1906 9.497 12.2496 0.137054 0.640899 -0.755291
9.97547 11.9673 0.841683 -0.958524 -0.165946 0.23172
0.994692 10.7156 6.26682 -0.867689 -0.0718204 -0.491893
10.8584 5.613 4.01234 -0.831431 0.225185 -0.50795
13.3848 9.97293 2.98953 -0.219793 -0.305694 0.926414
10.4368 7.23679 13.5097 0.787302 -0.0858799 -0.610557
0.551432 13.6779 1.66616 -0.967546 0.164013 0.192236
11.5823 10.726 2.56254 0.678455 -0.606504 0.41455
14.0019 12.5967 12.9153 -0.554247 -0.29764 0.777316
2.76134 7.80315 1.30949 -0.934444 -0.320653 0.154905
12.2913 11.388 2.43514 -0.455766 0.819339 0.347793
2.68632 10.8593 1.14071 0.982477 -0.0302131 -0.183918
13.8436 11.1794 12.5766 0.810633 0.577189 -0.0986295
0.584159 10.4289 0.221056 0.234991 0.957957 0.164613
1.93163 9.64668 2.15857 0.892637 -0.20207 0.402947
0.770034 6.98669 0.0445121 -0.332277 0.942546 0.0346164
4.09528 9.79284 1.13664 -0.606133 -0.774296 0.181848
3.19534 7.37163 8.91094 -0.593453 -0.312579 -0.741693
