14.6288 11.3883 16.5589 -0.322256 -0.603202 -0.729588
10.6562 12.6093 3.21119 0.283873 -0.801205 0.52677
10.8985 23.6331 3.70638 -0.540639 -0.051378 0.839684
11.1269 11.0727 14.2055 -0.514442 0.85524 -0.0625642
15.8821 11.897 16.1711 0.559785 0.735983 0.380748
13.6437 14.4523 3.14618 0.028151 -0.237404 -0.971003
11.838 11.4323 5.21649 0.210334 0.0911833 0.973368
14.1788 15.5397 4.94871 -0.612904 0.343848 -0.711419
15.2364 14.3533 5.69781 0.195935 -0.260543 0.945371
14.6711 12.3283 6.75817 -0.495563 0.556597 0.666796
16.7454 13.0326 5.79717 -0.112017 -0.512735 -0.851208
15.4716 13.2222 3.62694 0.102549 0.635849 0.76497
17.9434 9.91713 4.25914 0.0950195 -0.242854 0.965398
15.077 13.7506 7.90789 -0.231565 -0.371233 -0.899202
19.2003 11.642 4.79589 0.184069 -0.440027 0.878917
16.2671 11.7207 3.93837 -0.549626 0.0894533 -0.830608
16.8994 11.5169 16.0736 -0.0534411 0.138579 0.988909
19.8162 12.6833 6.98798 -0.299238 0.270586 -0.915008
20.2173 11.9695 4.27856 -0.426419 0.135764 -0.894279
20.3301 14.2203 3.29131 0.925346 0.0286205 0.378042
21.2097 10.8422 10.9654 -0.219395 -0.67089 -0.708359
19.5712 14.158 15.9829 -0.921494 -0.238975 -0.306169
22.2035 10.3234 14.9512 -0.011186 0.994113 -0.107773
9.76861 13.6263 14.7359 0.350195 0.791733 0.500522
22.5883 14.9374 15.1188 -0.992204 -0.0341214 -0.11986
22.2706 15.441 3.80551 -0.134319 -0.735694 0.663862
10.5713 13.5687 15.8042 0.928456 0.333946 0.162631
11.2243 16.279 12.533 -0.821928 0.374202 -0.429427
11.1948 13.373 14.8363 0.740034 0.587101 0.328117
10.4652 15.0067 3.48983 0.440084 -0.0816384 0.894238
13.3373 14.8778 5.49286 -0.828853 0.415554 -0.374589
16.3216 14.4804 5.4995 -0.159719 0.279832 -0.94667
12.0591 13.3363 4.50658 -0.0963384 -0.294903 0.950658
12.7245 20.4885 16.7885 0.630205 -0.725129 0.277541
12.8178 13.8518 15.7971 0.151475 -0.733578 -0.662509
11.5355 15.9488 6.98131 -0.13824 0.361263 -0.92216
15.3062 15.5806 4.5077 -0.449691 0.275866 -0.849515
12.198 16.3747 8.05768 -0.335936 0.629899 -0.700268
14.0537 15.3688 7.56849 0.544261 0.220583 0.809397
13.693 16.0214 16.353 -0.878646 0.181951 -0.441446
16.0864 14.8382 6.96136 0.51051 -0.319824 0.79818
14.429 15.618 6.4336 -0.804527 0.0587978 -0.590999
19.3257 14.0225 4.61382 0.128689 -0.373561 0.918635
19.3322 15.299 3.17317 0.238414 -0.238947 -0.941309
18.2701 12.6593 3.75664 -0.23607 -0.622388 -0.74626
16.519 13.1118 4.20632 -0.197095 -0.564091 -0.801845
21.7325 13.7271 14.4135 -0.85564 -0.49967 -0.134942
19.5523 14.7507 14.9238 -0.964477 -0.263128 -0.0234061
22.6415 12.9713 14.8605 0.22147 0.890702 0.39699
21.4101 13.4198 17.0741 -0.155497 0.642847 -0.750046
23.5508 12.8398 17.1498 -0.326245 0.452734 -0.829817
21.2344 14.9641 16.9429 -0.863952 0.47235 -0.174566
21.9773 16.6216 14.2809 -0.935331 -0.287098 -0.206713
22.9945 14.815 3.17878 -0.130388 0.348511 -0.928191
11.0732 13.7765 4.70472 -0.293832 -0.58932 0.752572
11.5488 16.4017 16.6951 -0.471792 -0.0372207 -0.880924
11.7399 15.9857 14.8696 -0.357099 -0.789232 -0.499593
13.0842 15.6464 17.1461 -0.843809 -0.0454436 -0.534716
12.4833 14.8135 3.58124 -0.570037 -0.399165 -0.71814
13.5503 15.939 15.1543 0.796688 -0.454599 0.398281
16.3831 13.7797 3.27186 0.296396 0.482119 0.824446
13.2676 18.2465 4.78236 0.486781 -0.194743 0.85154
12.6514 15.5313 6.94885 -0.0121733 0.146283 -0.989168
12.2862 20.3413 3.73183 -0.489658 0.858892 -0.150131
14.3024 14.4749 8.28531 -0.498662 -0.369036 -0.784314
11.1022 21.8015 15.145 -0.737546 -0.0736505 -0.671269
15.5081 15.2714 16.324 -0.0771272 -0.115189 -0.990345
17.3439 14.2668 17.0038 0.143938 0.36329 0.92049
18.1884 14.5523 16.2072 0.452917 0.0958662 0.886384
16.3456 15.922 15.7724 -0.173872 0.112531 -0.978318
16.6622 15.5504 5.67634 0.0524758 -0.138165 0.989018
20.1907 18.3368 17.0592 0.416766 0.479321 -0.772371
17.3905 14.3848 5.53067 -0.178883 0.510627 -0.840988
17.3446 15.2364 16.3509 0.370771 0.0685085 0.926194
18.2316 13.5564 16.774 -0.247949 -0.26208 -0.93265
21.224 17.5143 3.91302 -0.468737 -0.0453912 -0.882171
18.5706 12.8312 5.36777 0.237267 0.680146 0.693618
20.9742 16.9792 15.1134 -0.659209 -0.327347 -0.676969
20.5787 12.9878 15.5447 -0.0237945 0.412012 0.910868
21.4058 15.8888 15.0526 0.972209 0.0576931 0.226892
21.4801 16.1523 16.1567 -0.872032 0.297161 -0.388915
22.8386 16.7471 16.2604 -0.722981 -0.0273198 -0.690327
11.2942 14.7229 15.455 -0.62016 -0.159574 -0.768074
22.4703 21.8661 15.1033 -0.720935 -0.690995 -0.0527131
13.6084 14.3054 13.8718 0.90602 -0.270134 0.325815
10.1388 20.9384 16.4976 -0.20481 -0.720946 0.662035
13.6818 18.7375 3.52932 -0.855671 0.217538 -0.469579
11.8081 18.6535 16.6521 -0.408157 0.515699 -0.753301
13.9911 18.9594 16.4713 -0.769913 0.341145 -0.539309
15.315 19.701 9.70313 -0.853778 0.290677 -0.431937
13.4381 21.5342 16.8923 0.621068 -0.352249 0.700139
21.0862 20.2579 16.8107 -0.260941 -0.445843 0.856232
17.4519 18.3474 16.6176 -0.877714 0.478463 -0.0262935
16.4344 19.2723 3.99934 -0.295147 0.0311639 -0.954943
16.466 14.8976 17.007 -0.00373046 0.277553 0.960703
18.4573 16.6846 16.0371 -0.0185604 -0.485381 -0.874106
15.5315 14.3753 3.13642 0.0227881 0.24597 0.969009
19.2382 19.8032 5.09077 0.890812 -0.0607507 0.450292
20.9634 18.7735 3.72185 -0.192406 -0.451732 0.871159
22.5826 17.6034 15.3036 0.87164 -0.0673733 0.485495
17.9366 16.8804 3.58184 0.643403 -0.605695 0.468152
18.8976 19.8072 6.43399 0.285896 0.477827 0.830629
16.4252 16.8911 16.8984 0.780369 -0.531248 0.32985
19.528 16.6975 4.21026 -0.390935 -0.483788 0.783019
20.258 16.3309 3.12853 -0.220149 -0.60371 0.766204
19.5026 16.9863 5.5024 0.0198888 0.650211 -0.759494
22.177 17.1261 17.1473 0.825331 0.0341847 0.563613
10.127 18.2593 7.11182 -0.476161 0.164613 0.863813
22.7537 17.8918 16.5887 -0.734985 0.224698 -0.639772
10.206 22.6423 4.71595 -0.166312 -0.037361 0.985365
12.0227 20.1823 5.41135 -0.0956573 -0.610615 0.786129
11.8462 10.275 3.93506 -0.226906 0.276655 0.933796
11.1525 22.9341 15.6705 -0.500991 -0.674456 0.542326
11.9084 21.657 4.8728 -0.154343 0.327621 -0.932117
14.1093 20.2122 3.7215 0.893924 -0.444164 0.0601559
13.8164 21.5847 5.59062 0.497572 -0.258173 0.828111
14.9704 19.5171 5.84916 -0.35265 0.306785 -0.884037
12.7706 21.9953 6.02776 -0.524227 0.520455 -0.674027
14.2695 23.5405 3.24582 0.670154 0.210627 0.711709
14.5582 18.6308 15.603 0.719006 -0.491505 0.491378
15.7603 17.7909 4.50137 0.446752 -0.344434 0.825699
12.839 10.7273 4.53975 0.114369 -0.255194 -0.960102
15.9276 20.418 3.77256 -0.925524 0.272273 -0.263198
16.1242 18.1451 17.1673 -0.679746 0.504508 -0.532369
15.0632 19.5327 15.9009 -0.933132 0.311605 -0.179352
15.118 22.43 4.23199 0.685521 -0.182761 0.704741
17.6935 19.3672 5.74476 0.328621 -0.322866 0.887562
18.4062 19.0749 3.21536 0.991834 -0.106373 0.0703578
19.2968 14.6641 5.80359 -0.198461 0.282375 -0.938551
14.739 21.8565 16.9286 -0.80124 0.501102 -0.326973
20.575 18.8937 5.79622 0.511978 0.531931 0.674483
21.8476 21.0119 17.057 -0.407693 -0.289611 0.865974
20.2544 14.6869 4.93659 0.181559 -0.204982 0.961779
21.7431 19.9102 4.17489 0.0873322 -0.306516 -0.947851
22.5803 21.5203 6.42288 -0.0221314 -0.219626 0.975333
10.963 20.0956 16.0781 0.00422718 0.667814 -0.744317
12.2783 22.8545 15.0106 0.0919548 -0.195946 0.976294
9.89526 20.8395 5.15391 -0.22011 -0.62717 0.747134
13.2667 10.4005 14.7953 -0.817428 -0.524605 -0.237909
11.0748 22.2888 3.1556 -0.363348 -0.67322 0.644013
11.5764 23.6522 5.33388 0.751967 -0.458269 0.473852
9.70431 23.5551 14.4473 0.884332 0.37577 -0.277047
13.3769 22.7821 7.6288 -0.247409 -0.472501 0.845891
10.677 22.9354 14.6566 0.744672 0.501492 -0.440419
15.7238 20.606 15.5747 -0.765357 0.6436 0.00283431
14.3438 23.4006 5.75061 0.54351 -0.397288 0.739432
13.2907 23.4347 3.85055 -0.46959 0.338047 -0.815604
15.3369 22.7426 16.9937 -0.65802 0.50005 -0.562992
15.7527 23.6304 3.36235 -0.136856 0.475244 -0.869145
13.9903 10.7933 3.31318 -0.546445 -0.631733 -0.549828
14.6006 10.24 4.66167 0.759821 0.0647068 0.646904
18.8037 23.1895 4.38564 -0.20344 -0.0528938 -0.977658
13.5293 11.4918 16.6846 0.215851 0.622309 0.752423
19.0963 10.0356 3.76135 0.47985 -0.0680275 0.874709
17.1689 21.9021 4.49134 0.82547 -0.504641 0.252857
17.4453 12.4791 15.8353 -0.628381 0.750335 0.205269
18.0814 18.0444 3.79715 0.857469 -0.403066 0.319821
20.2372 10.4093 11.3414 0.400179 -0.902569 -0.158824
22.0219 21.1557 4.81308 0.392515 0.0484666 -0.918468
20.657 10.3879 16.3081 0.672972 -0.220808 0.705941
19.5045 19.806 16.8029 -0.945428 0.231556 0.229234
23.3099 21.2572 15.8282 0.404565 0.453261 -0.79428
9.84461 21.1247 7.34039 -0.346957 -0.186181 -0.919216
23.1917 22.0515 16.6396 -0.677865 -0.337601 0.653088
23.5805 21.9369 6.22023 0.0093395 -0.101353 -0.994807
21.458 23.3156 16.2227 0.607116 0.267488 0.748238
21.1434 10.6679 8.56459 -0.156706 0.426679 -0.890723
21.2699 10.3191 4.35946 0.382852 -0.63523 -0.670751
23.3692 10.243 15.2998 0.735241 0.309384 -0.603077
23.2946 22.9276 4.24031 -0.291057 -0.510065 0.809395
12.8704 23.7004 5.16443 -0.457853 -0.0571677 -0.887188
10.9586 11.2106 5.96634 0.0426696 0.354825 0.933959
11.7923 10.5845 6.31996 0.344508 -0.212627 -0.914387
11.2945 12.3706 5.25506 -0.132426 -0.0683827 0.988831
13.8815 10.5506 5.65941 0.142204 -0.316899 0.937738
13.3431 11.7005 5.60134 0.535089 -0.00344375 -0.844789
15.5894 11.1543 4.9118 0.939287 -0.118455 0.322039
16.4045 12.6506 9.66627 -0.452074 -0.853135 0.260363
17.0306 22.8478 7.86353 0.193615 -0.0314912 0.980572
17.4637 12.7122 4.60528 -0.295915 -0.634167 -0.71433
16.9854 9.94854 8.2351 -0.0764981 0.125509 -0.989139
18.2194 12.4525 8.9214 -0.706287 0.602839 -0.371139
18.7564 23.3148 6.87007 0.138366 -0.310597 0.940417
19.6084 12.5849 5.14663 -0.29987 0.527062 -0.795163
20.0589 10.5196 8.72207 0.288566 -0.0612669 0.955498
20.3695 10.9071 6.51061 0.186001 -0.391474 0.901194
22.0382 22.3998 5.02305 -0.26968 0.254515 0.928706
20.2157 11.2814 16.8442 -0.508124 0.133616 -0.850856
20.2983 23.4665 16.582 0.591986 -0.0260674 0.805526
22.3339 13.0944 16.6457 0.20234 -0.287991 0.936013
21.5672 10.1002 6.75919 -0.310186 -0.0166766 0.95053
22.7036 12.0673 16.5026 -0.368901 0.101359 -0.923926
23.51 11.2403 15.7938 -0.723693 0.427207 -0.541999
21.7862 23.3801 7.87542 0.0183002 -0.370853 -0.928511
9.62531 23.0277 7.15136 0.0857058 -0.0225227 0.996066
11.8017 12.8285 16.962 0.151265 0.899153 -0.410662
22.8644 23.5307 5.48447 0.693527 0.15008 -0.704625
11.0588 14.0021 17.116 0.18472 -0.699029 0.690823
12.6446 10.8807 6.93912 0.335925 -0.351351 -0.873903
12.8982 15.198 15.7452 0.921775 -0.382656 0.0624907
9.91604 11.2247 6.16021 -0.0144334 -0.220563 -0.975266
12.7163 14.1706 4.70238 -0.836301 0.52263 -0.165704
14.3367 12.381 5.58241 -0.698185 0.298017 0.65094
12.9585 12.891 16.4477 0.0966681 -0.858937 -0.502874
18.6069 11.9667 6.14653 -0.206725 -0.833148 -0.512961
13.8325 12.6107 4.59474 -0.77806 0.361297 0.513895
16.0324 12.6338 8.07151 0.673378 0.492237 0.551602
14.869 14.6468 7.26015 -0.690854 -0.334826 -0.640791
17.6814 12.5915 6.09085 0.221293 0.591901 0.775037
19.5585 14.3073 11.0581 -0.217609 0.188291 -0.957702
19.9289 11.5234 7.49848 0.398397 -0.119507 0.909394
20.3614 14.5398 7.75849 -0.170881 0.197502 -0.965294
19.8976 13.1384 3.28957 -0.228965 0.160225 -0.960158
20.806 12.0403 6.97883 -0.140617 0.0821748 -0.986648
21.659 12.1655 16.7665 0.362688 -0.0821692 0.928281
20.659 11.5743 15.6624 0.607284 -0.434843 0.664919
20.5136 12.3073 16.8714 0.494042 -0.0608444 0.867307
22.9154 11.2248 3.80804 0.559947 -0.291085 -0.775712
22.5372 10.3102 4.25246 -0.512571 0.257107 0.819248
22.8929 23.7636 7.86885 7.22883e-05 0.196861 0.980431
21.4951 12.1169 14.6566 -0.165676 -0.88563 -0.433834
23.3173 14.61 5.44819 0.169738 -0.479579 0.860925
21.0299 15.1887 15.8503 -0.956848 0.258269 -0.133188
23.2511 14.2567 16.1428 -0.989289 -0.128665 0.0689415
23.3966 15.822 14.5727 -0.99068 -0.0379879 -0.130802
9.7926 15.298 6.18105 -0.0532765 0.422083 -0.90499
10.4179 12.4145 7.20904 0.0564752 0.530818 -0.845602
11.8858 14.721 7.00162 0.258348 0.145031 -0.955103
13.6573 13.2988 3.61089 -0.78555 0.576777 0.224141
12.2048 12.4886 6.60501 0.709656 0.277611 -0.64755
14.512 13.7649 9.22992 -0.319298 -0.452623 -0.832575
12.2545 13.6962 7.55297 -0.0165822 0.232518 0.972451
13.1773 13.6402 6.15918 -0.707763 0.158729 -0.688387
10.5504 13.991 7.82223 -0.758283 0.107954 -0.642925
16.8369 14.736 14.3285 -0.0585761 0.475684 -0.877664
13.8471 16.3822 7.2672 0.51733 0.161896 0.840333
16.3477 14.3458 9.95983 -0.917454 0.326827 -0.226855
20.6774 13.5553 9.74377 0.437521 -0.0681197 -0.896624
17.7307 16.2906 6.21138 -0.115556 -0.652038 -0.749328
18.591 15.6227 16.3091 -0.23378 0.185417 0.954446
19.6717 13.4784 7.75746 0.49065 -0.225828 0.841584
18.1437 15.1499 7.47201 -0.477631 0.20236 -0.854938
21.5734 13.6831 5.2181 0.496003 -0.505073 0.706316
18.3291 14.4942 4.65416 -0.00242694 -0.450517 0.892765
20.9367 14.0385 15.2872 -0.981756 -0.120465 -0.147115
21.181 15.6268 3.79465 0.0719085 0.651407 -0.755314
9.84082 10.053 6.18837 0.249644 -0.00989708 -0.968287
23.2036 13.3524 4.04589 -0.326422 0.46331 -0.823889
10.0678 15.6931 15.6933 -0.976155 0.116769 0.182992
22.4179 14.0956 6.19404 0.308528 -0.450805 0.837607
11.7391 16.265 4.88438 0.198383 -0.496772 0.844904
23.623 15.627 3.67988 -0.391797 0.241849 -0.887696
11.5153 14.0772 5.73681 -0.0748974 -0.838784 0.539288
10.9299 17.2159 5.69333 0.655535 -0.0683681 0.752064
10.4155 14.2652 5.90614 0.0688323 0.611806 -0.788007
13.8917 19.1687 4.84434 -0.396419 0.337366 -0.853836
12.9772 14.5028 7.39739 -0.106137 -0.05004 -0.993092
9.80146 16.7711 15.4974 -0.901446 -0.24546 -0.356573
13.3018 13.4971 8.06126 0.141883 0.409316 0.901293
15.5994 19.0905 4.86548 0.357066 0.142513 0.923143
12.4151 16.7229 6.36328 -0.339394 0.245023 -0.908171
16.9902 19.5624 6.73278 -0.339504 -0.0102083 -0.940549
15.4481 16.7109 4.52249 0.531424 -0.330759 0.779863
15.3198 16.1452 5.90242 -0.661183 0.170681 -0.730551
17.4159 16.1561 15.5904 -0.280344 -0.120985 -0.952245
17.2842 17.5612 5.57494 0.453235 -0.0362179 0.890655
18.0558 16.9685 4.95626 -0.513695 0.455296 -0.727202
19.4617 16.291 16.2953 0.308737 -0.103351 -0.945516
19.6454 17.4094 16.2958 0.418694 -0.0155216 -0.907995
18.644 17.5341 6.1063 -0.0138801 0.27559 -0.961175
18.4067 14.426 6.68165 -0.18435 0.430409 -0.883608
21.323 18.8339 15.3447 0.260824 0.585139 0.767843
21.5384 18.4136 6.32034 -0.144561 -0.239505 -0.960073
19.0205 15.429 6.65375 -0.432281 0.298602 -0.850864
22.8742 17.0135 6.79456 0.06434 0.44007 -0.895655
22.8966 13.5402 5.37697 0.265846 -0.543358 0.796296
9.90104 13.902 4.92533 -0.0519357 0.639111 -0.767359
10.2655 19.209 3.5137 -0.389031 0.120724 -0.91328
10.207 16.4236 4.53344 0.61205 -0.219068 0.759871
10.5029 16.0839 3.35282 0.486814 -0.197341 0.850923
11.5418 15.4308 3.41379 -0.295554 -0.0193421 -0.95513
22.821 19.1831 16.1473 -0.600105 0.540272 -0.589898
11.2065 19.336 7.20175 -0.104117 -0.493857 -0.863287
16.1799 21.2599 4.50494 -0.786206 0.292053 -0.544596
14.688 21.3951 4.87914 -0.253774 0.292788 -0.921886
13.9054 19.478 7.71186 -0.852756 -0.185065 0.488424
12.8875 18.249 16.2627 -0.767624 0.148711 -0.623409
17.5018 19.5547 11.0997 0.67023 -0.203219 0.713788
14.102 20.7509 16.3825 -0.0677221 0.892356 -0.446223
14.3933 17.7206 16.4791 -0.690509 0.1241 -0.712598
17.7967 16.5336 7.79856 0.544517 0.668538 0.506516
20.1231 19.1498 4.46999 -0.668902 -0.538871 -0.512043
15.5273 16.374 3.23761 -0.734118 0.379855 -0.562833
16.0746 20.2719 8.98392 0.66211 -0.47051 0.583293
17.5608 18.4603 4.92252 -0.699142 -0.0082243 -0.714936
20.8563 17.8122 7.34693 0.223708 -0.161179 0.961237
20.5765 16.5164 6.86437 -0.241681 -0.0756631 -0.967401
20.5854 17.3706 5.21793 -0.234739 0.0924883 -0.967648
20.1011 15.7516 8.03672 -0.386169 0.424164 -0.819121
20.8117 18.9552 7.52419 -0.539688 -0.218864 -0.812918
21.7544 18.6856 4.54621 -0.387985 0.542063 0.745409
23.5804 18.1822 5.79792 0.196152 -0.353274 -0.914725
20.9338 17.469 11.3754 -0.520409 -0.573898 0.63231
22.7338 20.6362 5.73826 0.296269 0.326414 -0.897596
11.0086 20.5308 4.99638 -0.166749 -0.605456 0.778215
22.4406 21.7269 8.44879 -0.961326 -0.0878938 0.26101
13.9017 20.605 5.09266 0.226599 -0.52268 0.821863
11.1514 20.8385 16.9586 0.0869186 0.850698 -0.518419
12.3879 23.5743 7.19814 -0.0508791 -0.278505 0.959086
12.4027 22.3263 7.36163 0.323939 0.444889 -0.834947
10.5163 17.1978 3.44308 -0.385546 0.065314 -0.920374
15.8375 20.1868 6.32428 0.216315 -0.610586 0.761835
15.5694 20.3239 4.77041 -0.880251 0.271157 -0.389399
17.4224 18.4682 11.2176 -0.682936 0.161186 -0.712473
12.4813 20.2767 10.0718 0.0523773 -0.476009 0.877879
14.5082 21.3588 9.03159 -0.145992 0.0998672 0.984232
15.1994 20.121 16.7896 0.118489 -0.912137 0.392385
17.4799 20.6297 10.6373 -0.68256 0.0572896 -0.72858
16.5447 21.5374 8.40935 -0.438294 -0.559075 -0.703799
15.9328 22.4524 7.12748 -0.211503 0.0643825 -0.975255
18.2792 18.9565 4.31045 -0.800011 0.525952 -0.288717
16.7235 20.8162 6.77429 0.171413 -0.333373 0.927082
19.8297 22.1889 5.82856 -0.258068 0.413385 -0.873221
15.9581 20.515 10.2777 0.511318 -0.382683 0.769485
17.6628 20.3706 6.39117 -0.565733 0.0321481 -0.823962
19.5528 19.1743 7.32148 0.580764 0.446427 0.680747
21.5282 20.4987 6.71292 -0.338752 -0.434879 -0.834343
21.1816 21.7731 4.4138 0.468099 0.0832448 -0.879746
21.675 22.0599 6.9291 -0.141564 -0.227758 -0.963372
20.8407 22.5079 8.02084 -0.136637 -0.136554 -0.981164
22.8117 18.8656 9.28954 -0.820587 -0.245226 0.516237
10.2765 20.3401 4.15098 0.11363 0.701239 -0.703813
22.9002 19.7735 3.19676 0.595438 -0.314678 0.73921
22.2218 12.0024 9.75014 -0.727947 -0.346739 0.591494
11.6916 20.4733 6.62985 0.292187 -0.450869 0.843412
22.6837 22.5924 6.96708 0.0121442 0.0569303 0.998304
14.1392 23.0974 15.5897 0.819576 0.472867 -0.32356
10.7085 21.5807 5.63132 -0.136584 -0.289816 0.947286
12.0315 21.0383 7.72523 0.330094 0.185592 -0.925523
13.6353 22.6104 5.95235 0.472595 -0.235594 0.849205
13.0703 20.8607 5.78934 -0.336249 0.306737 -0.890421
15.9072 23.82 6.27695 -0.926151 0.238443 -0.292215
16.7949 20.274 12.2241 -0.574401 0.481216 -0.662189
16.219 10.04 4.96691 0.661665 -0.130413 0.738371
14.6719 22.267 5.66035 -0.359155 0.231965 -0.903991
15.5567 21.3116 6.62964 -0.332126 -0.364021 0.870162
16.098 23.3294 8.41671 -0.0964932 0.0400554 -0.994527
16.4096 10.6731 3.58589 0.431898 -0.155804 0.888363
17.7853 22.728 4.62149 0.150495 -0.390797 0.908091
18.8713 22.2376 6.56093 0.334929 -0.45328 0.826051
16.9876 21.1678 3.63163 0.729328 -0.476435 0.491009
19.574 10.1759 6.35385 -0.0466511 0.24107 -0.969386
19.1667 20.9262 4.72598 0.678789 0.327924 0.657048
19.0551 23.1109 9.70122 -0.320153 -0.197685 -0.926511
10.0431 19.7591 7.93043 0.493445 -0.835746 -0.240919
20.5848 22.3459 16.9651 -0.900443 -0.336036 -0.276192
20.5041 20.6292 5.60279 0.599068 0.105024 -0.79378
18.9926 10.9567 8.91894 0.44048 -0.233027 0.866992
22.8942 20.332 7.55531 -0.584309 0.241453 0.77478
23.5654 21.8608 3.75414 0.631091 0.150501 -0.760969
20.834 22.8888 6.09503 0.161699 0.350618 0.922454
12.0268 13.4707 11.4535 -0.912764 -0.385164 -0.136055
11.2792 9.96746 7.59085 0.214135 -0.324942 -0.921173
22.5685 11.457 8.49349 0.0793591 0.361309 -0.929063
10.4226 22.2966 7.30536 0.0586289 0.0468562 -0.99718
23.6343 11.7665 8.71247 0.171015 -0.421866 0.890384
11.5807 23.5536 8.94537 0.926897 0.128838 0.35251
12.8026 11.8956 4.53996 -0.40905 0.453244 0.79199
13.2743 9.81059 7.89131 -0.0793063 -0.289955 0.953749
15.217 9.99555 7.93394 0.176071 0.346719 -0.921295
15.1787 22.859 8.38453 0.0212502 -0.171233 0.985001
15.9842 13.3377 7.03089 -0.564649 -0.384549 -0.73027
17.215 23.1524 5.55281 -0.533849 -0.0235097 -0.845253
18.6027 11.361 12.7877 -0.744668 0.406422 0.529425
14.2341 21.1923 11.3204 0.673945 0.158835 0.721505
17.8708 13.1757 10.0014 -0.239428 0.45576 -0.857296
17.9631 22.3733 7.20807 0.320873 0.0251288 0.946789
16.9389 21.3095 11.3205 -0.688489 0.0201454 -0.724967
17.7662 10.9551 12.1902 0.581255 -0.589388 -0.561039
20.5126 9.96007 5.5773 -0.149818 0.0549027 -0.987188
18.0623 23.41 10.057 -0.396178 -0.0389646 -0.917347
19.2444 13.1038 9.00171 -0.711382 0.242698 -0.65957
17.036 11.1327 7.96965 0.0261313 -0.32946 0.943808
21.8296 10.9722 3.53403 0.4341 -0.677269 -0.594023
17.9903 11.2388 9.19759 0.226072 -0.464601 0.856176
22.5802 12.7373 7.66023 0.104719 -0.0388058 -0.993744
20.3732 10.9272 13.3205 0.79551 -0.58194 0.168847
21.4527 11.292 5.96438 -0.116826 -0.305754 0.944916
9.73345 12.2908 11.2068 -0.225124 0.907843 -0.353752
11.2538 15.2666 9.6634 -0.267509 -0.485591 0.83225
22.1335 13.0468 4.44347 0.0332025 -0.79744 0.602485
23.3063 10.8014 7.868 0.0430176 -0.057027 0.997445
21.4328 16.4783 5.88827 -0.167116 0.314256 -0.934514
10.3529 15.891 7.02207 0.122226 0.464076 -0.877322
14.0897 11.2847 8.67028 -0.137799 -0.379216 0.91499
14.6206 13.4204 5.35156 -0.0953266 0.236417 0.966964
10.2495 12.0214 5.393 -0.43955 0.401487 0.803495
13.9343 11.3988 6.58873 -0.476712 0.0116888 0.878982
13.1174 10.5955 8.8793 0.0801103 0.233434 -0.969067
13.9993 12.366 8.87099 0.266599 -0.163567 0.949827
12.7098 12.3403 3.39722 0.132062 0.584442 0.800617
11.0802 11.4658 8.52902 0.430445 0.0607241 -0.900572
15.9812 11.2325 9.00601 0.270216 0.457031 -0.847411
18.5031 14.3409 11.9408 -0.332019 -0.626146 0.705482
19.0003 12.439 7.90186 0.42074 -0.746378 0.515653
15.0073 11.5955 9.53203 0.110529 -0.293643 0.949504
19.0427 11.9792 10.2203 -0.359972 0.824096 -0.437362
19.5015 14.1989 8.73909 0.214033 -0.247177 0.945036
21.4163 11.5959 9.04695 0.421029 0.429737 -0.798787
20.4803 13.6693 7.05839 0.497842 -0.189847 0.846234
21.0934 12.7862 4.81953 -0.226059 0.495201 -0.838852
22.403 10.9884 16.1504 0.656745 -0.534922 0.53155
21.1886 10.4948 15.3524 0.620334 -0.305547 0.722376
22.1906 10.6728 7.70204 -0.0431679 -0.294791 0.954586
23.4429 12.115 10.153 -0.231665 -0.747576 0.622464
22.8938 10.4826 5.80145 -0.32006 -0.255293 0.912353
23.0093 14.3311 7.549 -0.0129261 0.527672 -0.84935
23.1791 17.2708 8.1587 -0.169484 -0.470703 0.86586
10.2038 17.0685 8.41017 0.386761 0.660584 -0.643463
23.1848 15.6575 7.35535 -0.186492 0.309189 -0.932536
10.1573 13.5764 3.76016 0.351745 -0.675844 0.647697
11.8259 16.7138 9.00588 0.497142 -0.632478 0.593988
10.1666 10.2619 8.61926 0.070779 0.450932 0.889747
10.9327 15.1778 6.34307 0.170187 0.339801 -0.924971
11.2349 13.3266 7.37613 0.055797 -0.743082 0.66687
11.4418 13.524 9.47352 0.986057 0.152066 0.0675899
12.5918 13.3218 10.4857 -0.869671 -0.408935 -0.276486
11.6927 12.4869 9.17214 0.557477 0.482762 -0.675396
15.0703 12.7408 8.99922 -0.141114 0.0461275 -0.988918
11.6512 17.7827 4.91766 -0.287259 -0.0497259 -0.956561
15.2077 14.3607 12.212 0.418317 -0.337308 0.843347
14.9473 16.6658 6.80813 -0.760962 0.0164172 -0.648589
18.5246 14.2024 13.5777 0.598258 -0.130065 -0.790677
18.1809 18.1553 7.64645 0.0153875 -0.108873 0.993937
20.8219 12.4593 9.15894 0.00586166 -0.312768 0.949812
17.4618 14.1703 7.46456 0.32111 -0.445399 0.835768
19.9679 11.6943 9.48364 -0.195286 0.652136 -0.732517
18.2609 15.1868 9.4964 -0.315708 0.403158 -0.858948
21.9189 11.9567 6.8152 0.167327 0.456891 -0.873643
21.8261 15.9351 4.7614 0.029356 -0.672556 0.739464
20.6873 16.0975 4.74043 0.109957 -0.62621 0.771861
21.0283 15.412 7.35586 -0.116997 0.233561 -0.965278
12.167 14.6426 11.6573 -0.983463 -0.059763 -0.170964
22.4007 16.8749 5.21439 0.0262382 -0.433271 0.900882
21.8132 17.2091 6.69185 -0.195987 -0.350703 0.915749
21.8942 19.3559 10.398 0.202635 -0.786768 0.583039
10.4089 18.1643 4.33564 0.390523 0.0562907 0.918871
23.5208 16.7775 5.3427 -0.150183 0.441043 -0.884831
22.9094 15.9572 4.8574 -0.0134776 -0.399961 0.916433
15.4472 17.4244 10.383 0.65819 -0.15419 0.736893
15.7887 15.9327 8.17979 0.719169 -0.373399 -0.585977
12.8364 16.2243 4.84416 0.342413 0.337747 0.876744
13.4266 13.1838 9.55181 0.575472 0.546721 0.608217
14.1131 18.5073 7.34546 0.98847 0.124611 0.0860206
16.1105 14.5866 8.796 0.735006 -0.673014 -0.0825669
15.0873 18.25 5.3289 0.751973 -0.0353942 0.658243
16.938 17.6054 7.11885 -0.447731 0.101342 -0.888407
13.5355 18.2183 8.29188 -0.975803 0.218166 -0.0145621
15.7336 17.1096 8.30541 0.993842 -0.0990267 -0.0497209
15.3935 17.2162 5.79621 -0.566155 0.0365052 -0.82349
19.8954 15.5678 5.8084 0.204489 -0.0687973 0.976448
16.8037 18.4928 5.86847 0.515482 0.0311112 0.856335
19.3115 16.5718 9.21982 -0.202324 0.197414 -0.959215
18.7836 17.1625 10.1246 -0.259571 0.243913 -0.934414
17.4116 14.7423 8.60597 0.204327 -0.359025 0.910687
19.5063 18.8441 8.77954 0.521173 0.124976 0.844251
20.4218 14.6504 10.1281 -0.307804 0.156906 -0.938423
18.7542 16.1951 7.514 0.0166217 0.329462 -0.944023
21.061 17.9908 16.1768 -0.442183 -0.050301 -0.895513
21.1985 16.8927 9.53194 0.0815356 0.0364873 -0.996002
9.86202 16.8709 7.01806 -0.176993 -0.505779 0.844311
22.2709 17.8675 7.48985 0.374124 0.298129 -0.878152
10.9139 18.1913 16.9381 -0.217887 -0.377509 -0.900007
23.0949 19.6336 10.1074 -0.61292 0.487197 -0.622067
16.234 19.4768 12.9032 -0.473702 0.250998 -0.84416
11.5401 19.3715 4.92534 0.0785768 -0.669344 0.738786
10.9734 18.8393 9.96267 -0.683638 -0.0113866 -0.729732
13.512 20.7307 9.51584 0.0674766 -0.755909 0.65119
13.5 18.6842 6.32082 0.727038 0.650524 0.219625
15.318 18.0071 6.79689 0.766234 -0.142692 0.626517
12.191 18.8656 7.16123 0.0404448 0.328942 0.943483
11.7628 17.5019 16.4296 -0.0375072 -0.144175 0.988841
12.9645 16.8736 8.8142 -0.491339 0.700765 -0.517218
13.6644 17.6215 3.72382 0.855853 -0.00661655 0.517177
14.0805 16.6805 3.35546 0.348761 -0.351733 0.868706
15.4392 18.5845 10.0759 0.612865 0.0742935 0.786687
17.2372 16.3167 8.73687 0.527728 0.82129 0.216762
16.5392 19.6095 8.20785 0.611592 -0.555257 0.5636
18.5416 16.055 10.1512 0.259101 -0.301017 0.917745
19.0184 19.3707 9.75283 0.45883 -0.356539 0.813852
19.0099 18.2161 10.1397 -0.277056 0.210081 -0.937607
19.9337 20.8635 7.58825 -0.392823 0.38044 -0.83723
19.519 18.1248 5.94279 -0.463502 0.643666 -0.608983
19.3361 23.5012 13.8149 -0.882935 0.248081 -0.398601
18.1403 19.1939 8.16019 -0.0640335 -0.31708 0.946235
22.3081 19.4508 5.339 0.371353 -0.17279 -0.912272
17.8045 15.6919 4.35282 -0.753287 0.121789 -0.646318
10.1546 19.1963 6.2355 0.470171 -0.22621 -0.853093
21.4465 18.1648 9.14136 0.386875 0.362863 -0.847737
22.692 18.2591 5.0279 -0.268144 0.317285 0.909631
22.5164 19.5429 8.42145 -0.718046 0.337407 0.608742
22.2957 22 9.69464 0.988874 0.0122809 0.14825
11.4191 19.09 8.84491 0.901606 -0.419972 0.103583
14.3935 20.561 7.10144 -0.407865 0.154451 0.899884
12.7553 19.4069 4.97309 0.226021 0.898738 -0.375745
11.8858 19.1839 3.64448 0.148014 -0.558356 0.81629
13.0724 19.7173 6.49813 -0.323261 -0.051094 0.94493
12.3869 22.7498 3.8326 -0.309273 0.4187 -0.853839
13.8512 17.0251 5.00142 -0.419883 -0.341997 -0.840676
12.4631 17.8413 10.6962 -0.36409 0.61515 -0.699306
16.7401 19.1349 11.9144 0.549498 -0.306684 0.777173
16.9669 21.7765 10.1198 -0.562662 -0.469787 -0.68023
17.4679 21.0236 9.34205 -0.624004 -0.345526 -0.700878
15.0838 19.7034 8.21324 -0.643037 0.685502 0.341455
18.5466 18.9382 10.9064 -0.457041 0.0631639 -0.8872
17.9436 21.4 6.12324 0.712055 -0.206794 0.67098
18.7296 20.0218 10.651 -0.68535 0.232229 -0.690192
19.0278 21.9356 8.87781 -0.152388 -0.36598 0.918061
19.5031 19.9767 8.64338 0.632851 0.0243954 0.773889
19.7608 23.0649 6.53634 0.0550622 -0.384234 0.921593
20.3363 19.883 6.88632 0.571557 0.470945 0.671962
17.6739 19.9892 8.82028 0.0518646 0.446515 -0.893272
19.2227 10.6424 13.8694 0.938115 -0.278711 0.205576
20.1708 21.7512 8.47735 -0.246122 0.202158 -0.947922
23.3511 19.2342 5.47951 -0.32984 0.376434 0.865738
22.0679 19.5056 7.34591 0.596654 -0.489607 -0.635838
23.0599 19.7206 11.3881 -0.754964 0.423605 -0.500588
20.3034 23.4708 10.2184 0.41518 -0.871152 -0.262146
11.3165 19.7299 12.5063 0.725859 -0.339473 0.598236
11.3487 21.1855 9.65427 0.516545 -0.363991 0.775043
21.6984 23.0949 9.49004 0.415833 -0.43512 -0.798595
10.6701 20.4218 7.21053 -0.296228 -0.278264 -0.913684
12.6658 20.2957 8.18317 -0.610238 -0.396178 0.686041
10.6034 23.3135 6.46589 0.0108691 -0.00334714 0.999935
14.1331 18.8208 11.4509 0.584305 -0.369977 0.722291
12.4462 21.8145 3.28933 0.466063 -0.38181 0.798127
13.3583 22.4873 3.38535 -0.445791 0.3725 -0.81395
13.536 23.4692 14.1596 -0.328752 -0.238369 0.913839
16.1352 22.3873 10.3726 0.099097 -0.147204 0.98413
15.3692 23.242 5.10197 0.802883 -0.108174 0.58624
15.4758 21.7766 8.54528 0.209212 -0.0849188 0.974176
12.2114 22.5558 9.04318 -0.90614 -0.31328 -0.284193
19.8218 22.8062 8.80838 0.19594 -0.487824 0.850668
16.7564 22.0783 6.38399 0.168359 -0.224862 0.959735
17.7762 21.4339 7.91077 0.281768 0.146086 0.948296
18.7969 21.218 11.0099 0.834496 -0.501992 -0.227202
19.116 20.9706 8.27931 -0.625004 0.00470405 -0.780608
17.878 23.5676 7.55919 -0.159636 0.390932 -0.90647
18.3467 20.5781 5.42711 -0.772449 -0.140899 -0.61925
18.9717 10.1872 10.4863 0.293301 0.19422 0.936084
20.7273 18.7081 12.1071 0.438303 0.0623529 -0.896662
19.0631 9.89287 8.38377 0.380115 -0.124379 0.916538
20.9341 20.7371 9.27461 0.54232 -0.0306714 -0.839612
17.5242 10.1475 10.6691 -0.109863 0.232684 -0.966327
23.3729 22.5108 8.99616 0.691468 -0.722244 -0.015319
20.5691 23.6407 8.30973 -0.188478 0.00295905 -0.982073
10.7388 12.5201 10.5848 0.475632 -0.763691 0.436521
10.0906 9.95791 11.4986 -0.619062 0.780763 -0.084683
22.4049 9.95589 9.94139 0.623032 -0.77327 -0.117831
9.62664 10.2795 10.2767 0.62006 -0.737415 0.267853
11.4836 22.7959 7.23454 0.235201 0.0010804 -0.971946
10.4244 20.781 10.193 -0.624428 0.577522 -0.525887
12.8296 21.6603 9.78783 -0.696239 -0.150235 -0.701912
11.8745 10.5686 8.77265 0.485286 -0.243612 -0.839732
14.2643 23.4642 7.80276 -0.296968 -0.271992 0.915331
15.6835 10.8085 11.5065 -0.34879 -0.774866 -0.52719
16.3292 9.84728 10.3432 0.213045 0.63396 -0.743442
15.0828 10.9869 8.26343 0.0932109 0.375693 -0.922045
15.3114 21.7179 10.6814 -0.31254 0.330484 -0.890561
16.622 10.0978 12.0133 -0.0344117 0.944718 0.326072
16.9253 21.3858 12.7577 0.591703 -0.231975 0.772059
16.9341 11.6732 9.33575 -0.117022 -0.636604 0.762261
17.1527 23.0745 10.4877 -0.282843 -0.0866594 -0.955244
13.8744 10.7466 11.1094 0.877853 0.435247 0.199836
19.8416 12.226 13.9298 -0.619174 0.771363 -0.147045
17.5807 22.2286 12.2668 -0.51069 0.177141 -0.841319
17.9592 10.4246 8.28411 -0.0282327 0.247278 -0.968533
19.9329 12.6654 11.8569 0.554041 -0.818759 -0.150574
11.7317 21.9992 14.2172 0.450903 -0.730015 0.513581
22.5497 14.3875 9.49989 -0.302318 -0.318141 0.898549
17.2136 11.2209 11.2628 -0.664387 -0.743259 -0.0784601
22.9066 12.4731 11.9976 -0.0778516 0.878325 0.471682
10.9684 21.3708 13.6467 0.263438 -0.407982 0.874157
10.4045 12.6199 8.83947 -0.0290221 -0.426671 0.903941
23.5529 13.1374 7.66031 -0.117621 -0.12474 0.985193
22.0058 13.7162 8.10511 -0.139903 0.0958411 -0.985516
10.8307 21.7606 10.5398 0.624726 -0.464838 0.62741
10.9178 16.537 7.68616 0.0463124 0.679151 -0.732536
22.914 11.7448 6.16752 0.495728 0.439885 0.748835
10.5194 16.054 9.83672 -0.346513 -0.381812 0.856825
13.9161 23.4621 11.039 0.989642 -0.0827499 0.117309
12.8856 23.4197 12.7649 0.0417387 0.393054 -0.918568
14.2393 10.4736 7.86776 -0.292642 -0.259052 0.920463
11.8358 10.4103 11.0231 -0.415301 0.754104 -0.508775
16.1927 20.5853 13.0567 0.660979 -0.255788 0.705464
13.2049 11.2574 10.2669 -0.922737 -0.349108 -0.163337
12.7115 12.2133 7.54312 -0.770914 -0.0513897 0.634863
12.6659 12.5933 11.4128 0.914165 0.402273 -0.0497912
13.4188 11.7973 11.3413 0.901269 0.381701 0.204982
16.3417 13.1004 10.8215 0.658397 0.723866 0.206234
16.5265 11.8187 10.7686 0.668035 0.725524 0.165363
15.3282 12.7701 14.4686 0.16124 -0.837637 -0.521888
20.8248 13.0497 11.2636 0.292047 -0.905265 -0.30855
20.3601 13.3884 5.32889 0.135083 -0.418866 0.897944
18.5563 14.0551 9.41062 -0.217477 0.201358 -0.95507
20.3612 16.016 13.1642 -0.145738 0.843969 0.516213
22.0666 12.5165 11.2853 0.371582 -0.771334 -0.516692
18.467 15.4226 12.4525 0.299424 -0.30924 0.902616
21.6898 13.1813 10.0493 -0.118507 0.384968 0.91529
21.8841 14.8214 13.6639 -0.842337 -0.176712 -0.509158
22.0824 10.8117 13.7592 -0.0684052 0.962729 -0.261676
10.5089 13.8213 11.3873 0.605689 -0.0479773 0.794253
10.7558 14.679 8.86372 0.214986 0.46269 -0.860058
21.7837 14.634 11.1824 0.281002 0.412048 -0.866749
11.3974 15.1047 12.9136 -0.475359 -0.0542322 -0.878119
11.5309 18.0724 7.33886 -0.192579 -0.0531289 -0.979842
9.68888 14.2429 8.84515 0.137827 0.530137 -0.836635
14.5586 14.6904 13.0755 -0.539644 0.200047 -0.817781
10.4671 14.805 13.3505 -0.173657 -0.384103 -0.906812
14.112 17.4676 6.97646 0.77953 0.148186 0.608583
14.151 9.99689 10.1341 -0.819578 -0.486473 -0.302713
12.7959 12.2347 10.3332 -0.960539 -0.277319 0.021443
11.9627 10.5725 12.2165 0.124666 -0.776314 0.617896
14.5578 15.5509 9.74694 -0.320032 0.550368 -0.771152
12.6181 11.6453 8.93766 -0.679519 -0.147263 0.718726
14.7058 13.0178 10.8488 -0.040405 0.999024 -0.0178576
15.3657 12.8891 13.2035 0.145665 -0.772442 -0.618154
16.6521 16.5982 6.57828 -0.00300717 0.124368 -0.992232
15.6979 13.5332 9.68221 -0.18218 0.0164418 0.983128
17.6986 18.7764 13.8564 0.101501 -0.945997 -0.307876
20.2548 18.214 10.7558 -0.178785 -0.12659 0.97571
20.3352 15.9504 9.76287 -0.0538692 -0.407117 0.911786
19.9285 12.4709 10.6205 0.407763 -0.873921 0.264558
21.4182 14.3651 9.37057 0.0684476 0.148228 -0.986582
19.0998 17.672 12.2004 0.434476 0.813086 0.387455
19.3589 15.341 9.40683 0.0406137 -0.00480628 0.999163
21.4429 12.9093 7.12266 -0.162586 0.137934 -0.977006
17.8694 15.3024 14.4151 0.0402979 0.00757423 0.999159
10.4687 13.5426 12.994 -0.968201 0.17675 -0.177047
22.7619 13.2192 10.1441 0.094023 0.00721493 -0.995544
22.1564 15.6726 8.14332 0.0781085 0.508132 -0.85773
21.094 15.5166 11.1541 0.451006 0.584962 -0.674101
13.7657 16.8746 12.8715 -0.412091 0.446794 -0.794076
15.4143 15.3019 12.787 0.61756 -0.50647 0.601753
11.1963 17.9499 9.26337 0.389007 -0.300642 0.870797
15.1361 16.6038 13.1185 -0.581443 0.170295 -0.795565
11.9157 16.6362 10.5545 -0.655699 0.171966 -0.735178
12.8119 16.9911 16.4839 0.0246516 -0.449223 0.89308
16.1495 16.6674 9.44583 -0.913846 0.338504 -0.224277
15.4277 16.2835 10.4592 -0.688307 0.286318 -0.666525
16.1414 14.1721 11.5501 0.650046 -0.185337 0.736947
12.9683 17.4431 7.42955 -0.711347 0.216081 -0.668801
13.5708 15.3866 8.70878 0.216581 -0.78062 0.586281
17.2198 15.8452 10.6564 0.738882 -0.639777 0.211518
18.2929 18.167 14.5677 0.478569 -0.650893 -0.589331
16.2993 18.884 9.32442 0.84589 -0.0223987 0.532887
17.6789 16.8727 10.3125 0.47921 -0.419723 0.770838
19.2836 20.8059 11.9263 -0.795528 0.470801 0.38142
20.3346 14.1859 14.1255 0.909346 0.340745 0.238709
20.0614 18.2648 7.95372 -0.519365 -0.204994 -0.829601
20.0337 17.1487 10.4877 0.244981 -0.108642 -0.963421
19.5401 22.8474 12.9009 0.989969 0.0178065 0.140158
19.608 15.0478 12.2422 0.0892606 0.327398 -0.940661
19.9193 17.1341 7.76002 0.481248 0.126076 0.867471
9.94145 15.2679 9.37805 0.1545 0.535781 -0.830101
21.4203 16.4042 11.8432 -0.861431 -0.465584 0.202899
10.2289 17.0268 10.1498 0.200024 0.384585 -0.901157
22.5056 17.718 9.04044 0.41051 0.588135 -0.696835
22.3445 17.6811 10.5356 -0.535965 -0.770267 0.345587
22.0691 22.9263 13.0768 0.604464 -0.66549 -0.437888
15.2339 15.5519 13.9114 0.767207 -0.233003 0.597581
22.5707 18.7103 3.22784 0.793136 -0.125493 0.595976
12.6763 17.0762 9.87527 -0.452658 0.678757 -0.578264
10.7581 16.8242 13.8984 -0.191635 0.365913 -0.910705
17.2165 15.8603 12.6799 -0.247284 -0.202427 -0.947562
11.2058 17.4639 12.3019 0.571919 -0.453187 0.683761
16.7639 17.9732 11.9304 0.700759 -0.0682878 0.710123
16.1514 18.3177 12.738 -0.702558 0.376089 -0.604127
16.3721 15.4802 9.65913 -0.899882 0.375306 -0.222165
14.8759 19.3656 10.7851 -0.657461 0.198281 -0.726932
16.1776 17.8414 9.6576 0.767646 -0.00156861 0.640872
17.0678 17.7617 14.3885 0.00340621 -0.980191 -0.198025
17.954 17.9925 10.2265 -0.359357 0.27719 -0.891083
16.6402 18.6562 7.31859 0.676013 -0.108476 0.728861
16.5985 16.7706 4.23292 0.669647 -0.456666 0.585686
16.7018 21.4294 15.4968 -0.393933 0.915739 -0.0789892
19.341 20.7069 13.0712 0.975594 -0.193708 -0.103411
19.2303 23.0249 14.8261 -0.904295 0.368291 -0.215901
19.361 17.7443 8.71276 -0.358095 -0.0627381 -0.931575
19.2564 21.2773 14.0651 -0.942721 0.232739 -0.238975
21.8944 15.6578 12.4392 -0.71542 -0.698468 -0.0177921
19.8933 9.91281 12.9322 0.723945 -0.337649 0.601579
22.1636 16.4248 9.01179 -0.0577195 -0.44224 0.895038
22.8262 20.5788 15.0665 -0.650454 0.0178177 0.759336
22.3767 15.8633 11.0718 0.0817336 0.717809 -0.691426
9.98823 18.2341 12.2569 0.354492 -0.353416 0.865698
23.5689 20.4056 10.7143 0.68698 -0.536833 0.489764
10.7832 18.8918 14.7821 0.416205 -0.485001 0.769121
10.9475 18.7642 12.1049 -0.532075 0.340703 -0.775125
12.7223 19.099 14.6191 0.516442 -0.426459 0.742577
13.6037 17.643 9.24412 -0.667805 0.705804 0.236385
12.0566 19.1121 11.9469 0.643078 -0.294348 0.706972
14.7625 18.1784 10.8286 0.605373 -0.109848 0.788326
12.942 18.6021 11.455 -0.530513 0.477898 -0.700121
12.6201 17.2854 4.5614 0.267659 0.192641 0.944059
9.75553 19.675 12.7589 0.609199 -0.773012 0.177001
13.9093 18.9741 9.17279 0.567514 0.0424071 -0.822271
12.9866 19.6579 9.20238 0.66387 0.414774 -0.622285
17.9515 19.7751 15.1273 -0.982237 0.0498411 -0.180904
17.8894 19.3621 16.1968 0.993118 -0.09225 0.0721505
14.9719 22.4418 15.0951 -0.837735 -0.544017 0.0473878
18.9984 20.5531 9.53046 -0.748867 0.21959 -0.625283
18.7583 21.9234 4.98174 -0.258534 0.353011 -0.89919
17.2548 22.7086 15.9845 -0.535028 0.516261 -0.668745
19.5982 22.0792 12.0682 0.975968 0.0405266 0.214114
20.7621 19.7995 11.9625 0.828825 -0.0777417 -0.55408
19.9213 23.3324 11.9565 -0.873274 0.378357 -0.306983
21.0001 20.8516 12.1265 0.913477 -0.329171 -0.239179
22.3841 20.6512 13.9295 -0.846148 -0.0215049 0.532514
20.8765 21.3363 7.159 0.092483 -0.0119931 0.995642
9.98941 21.2938 11.0491 0.725488 -0.559534 0.400735
23.1341 20.8039 11.6246 0.88447 -0.236462 0.402243
23.5445 21.865 11.8903 0.750108 -0.49467 0.438907
9.97778 19.8012 9.64763 0.561495 -0.27807 0.779359
11.1805 20.0625 9.55803 -0.495892 0.411026 -0.76495
22.2112 23.6539 11.9811 -0.683026 0.708872 -0.176001
12.2626 20.2158 11.9542 0.573672 -0.287317 0.76704
11.2928 21.6866 6.99138 0.266345 0.244337 -0.932395
13.7643 17.8344 11.1511 -0.522166 0.366637 -0.770013
10.682 20.2847 13.3049 0.687805 -0.507628 0.518882
13.7569 17.861 13.459 0.7212 -0.272088 0.637054
13.7594 22.5415 13.3987 0.166598 -0.0767133 0.983036
15.1343 17.7627 13.2378 0.787404 -0.0817229 0.610996
12.6737 22.796 10.3012 0.837891 -0.272003 0.473237
16.0534 17.0214 14.7879 0.845547 -0.0786178 0.528081
13.614 21.5452 7.70814 -0.826679 -0.105964 0.552606
14.1211 22.3004 8.6446 0.38569 -0.0197543 -0.922417
16.1263 21.7352 13.4512 -0.478936 -0.0387034 -0.876996
16.3961 10.489 16.0391 0.675109 -0.0969108 0.731325
19.407 22.09 10.6192 -0.366138 0.668262 0.647587
18.1079 22.3385 9.76261 0.281226 -0.0462533 0.958526
17.6497 23.1874 13.3021 0.236783 -0.238922 0.941727
20.6252 20.9125 11.076 0.776334 -0.598448 -0.197906
18.3567 23.5334 12.2577 -0.147052 -0.808739 -0.569488
21.9085 22.2295 10.7702 0.745961 -0.665618 0.0222618
18.9803 12.245 11.3151 -0.057975 -0.96874 0.24121
20.3704 19.4552 10.9352 0.461166 0.462177 -0.757442
17.9219 11.7485 10.3062 -0.47267 0.637819 -0.608087
20.9719 19.3123 9.45277 0.0950787 -0.565411 0.819311
9.86862 20.4194 15.5074 -0.390784 -0.487509 0.780784
11.4504 19.7351 14.8418 -0.683953 0.57017 -0.455098
10.1323 18.8102 15.8704 0.31564 0.815271 -0.485494
11.0387 10.2718 13.2558 0.493813 -0.843347 0.211933
10.593 10.7761 10.7317 0.385125 -0.911147 0.146596
11.3197 22.7185 10.8249 -0.355487 0.429879 -0.82996
10.1911 22.5221 11.0901 0.470765 -0.491066 0.732963
11.4961 20.8307 12.5968 -0.474767 0.485271 -0.73424
10.0213 23.2883 9.29824 -0.640155 0.762439 0.0942808
14.6272 20.3718 14.1677 0.544178 -0.264943 0.796037
12.6165 21.2135 12.3846 0.608997 -0.36499 0.704206
14.7616 22.4506 11.7584 -0.94639 0.217452 -0.238874
13.7189 20.8431 14.9952 0.801181 -0.310631 0.511486
14.4111 22.836 9.99772 0.0026771 -0.638966 0.769231
15.4011 23.3996 10.103 0.100191 0.695243 -0.711758
16.1031 10.5763 8.03349 0.0018584 0.430395 -0.902639
14.1752 12.2184 16.071 -0.461424 -0.626623 -0.628038
16.7287 23.5823 13.808 0.336032 0.0551466 0.940235
13.7688 11.1437 12.1456 -0.79848 -0.58507 -0.141856
17.6011 10.2546 13.7728 -0.17341 0.0786878 -0.981701
16.4032 11.7303 13.8122 -0.357032 -0.279818 -0.891196
21.3513 23.3312 14.6117 0.0413507 -0.945355 0.323409
18.1087 13.7471 11.144 -0.270072 0.731448 -0.626135
19.0187 12.5004 12.6899 0.505054 -0.708889 -0.492338
20.0807 12.7897 12.9688 -0.354315 0.918211 0.177059
22.7735 10.5722 12.0484 0.535676 -0.80728 0.247689
21.9756 12.6576 12.6533 0.278656 -0.958834 -0.054659
12.9148 20.9718 15.708 -0.514875 0.770969 -0.374848
9.94032 10.3533 12.5893 0.410969 -0.829842 0.377447
10.8757 10.5861 11.9689 0.13905 -0.907317 0.396788
22.7538 10.2811 11.0004 -0.629859 0.765004 -0.134337
11.9969 14.2292 10.5535 0.91717 0.297936 0.264639
17.3747 13.2304 3.52064 0.199243 0.653108 0.730584
11.7863 23.0393 12.4143 -0.327463 0.355065 -0.875612
10.3184 15.7427 11.7675 0.429852 0.550509 -0.715658
22.9342 15.0712 13.1345 -0.729342 -0.476925 -0.490513
12.071 10.7526 13.4173 -0.25589 0.891244 -0.374439
15.3159 21.0737 13.7206 0.480261 -0.0110981 0.877055
13.6208 11.9273 14.5325 0.653624 0.661465 0.36775
11.6452 9.93128 10.0413 -0.972379 0.107101 -0.207385
14.2021 13.4562 15.6198 -0.660034 -0.729966 -0.177495
13.7067 11.6413 13.2155 0.776434 0.567682 0.273654
14.5343 10.9693 13.0409 -0.728547 -0.66565 -0.161648
14.6993 23.1737 13.3686 0.0134474 -0.0711235 0.997377
14.5167 13.9072 3.66656 0.258998 -0.200415 -0.944856
15.6735 11.018 14.3236 0.381136 0.447217 0.809155
15.576 9.94883 12.2643 -0.0482541 -0.814408 -0.578284
14.3024 10.0542 12.0645 -0.624345 -0.777522 -0.07518
16.1261 13.2844 15.3753 -0.142179 0.967472 0.209246
17.0787 12.8717 14.3231 -0.0233047 0.542008 0.84005
16.55 13.0911 12.9458 -0.0195287 0.956971 0.289524
21.2543 14.5235 6.50377 0.0320091 0.155076 -0.987384
21.093 12.6234 13.4323 -0.104051 0.99366 -0.0425735
21.7559 10.7461 12.7231 0.529389 -0.832413 0.163818
22.1287 15.1907 6.91536 0.0496079 0.500131 -0.864527
9.64413 12.4449 12.9487 -0.394556 0.718461 0.572834
10.7504 12.2425 13.197 -0.392753 0.712613 0.581315
9.88903 11.1034 13.7244 -0.0759169 0.991794 0.102865
9.69775 14.6584 11.6217 -0.525186 -0.289895 0.800088
10.3259 12.7736 11.9719 -0.772197 0.634467 0.0341172
13.0613 15.2064 12.915 -0.839883 0.00399408 -0.542753
12.3929 14.1767 12.744 0.948446 -0.0268383 -0.315801
13.6994 16.345 11.7107 -0.262577 0.596416 -0.758513
11.8635 15.632 11.4331 0.830135 0.175809 0.529119
11.2017 14.0816 14.0104 -0.956058 -0.274728 -0.102357
13.1108 13.3998 14.2951 0.948036 -0.0320946 0.31654
13.5608 15.084 10.1993 0.563904 -0.497132 0.659448
13.0757 12.5409 13.5567 0.92473 0.174781 0.338121
16.5997 14.9827 10.9112 -0.797572 0.351025 -0.490572
13.8974 10.8567 13.9299 0.733961 0.589746 0.336898
15.6942 12.5864 11.7892 -0.228501 -0.80854 -0.542264
13.0596 12.1416 12.4035 -0.924591 -0.371279 -0.0853389
16.6877 17.7325 16.1282 0.716915 -0.636326 0.28482
17.8605 17.0331 14.8564 -0.243818 0.675801 0.695591
14.3843 13.5334 11.8363 0.44625 -0.85972 0.248479
16.0461 13.6871 14.2815 0.168324 -0.847214 -0.50388
19.1717 18.6077 13.8518 -0.62951 0.657202 0.41449
12.2911 13.011 12.4326 0.964797 0.231712 -0.124401
18.8322 13.4313 14.7274 -0.93835 0.268391 0.217863
17.0827 12.7864 11.8621 -0.319744 -0.947484 -0.00609993
20.6369 19.8876 15.5389 0.87075 0.398241 -0.28844
22.5096 12.7225 13.6171 0.482982 -0.873817 0.0563307
19.7656 16.2554 11.582 0.75611 0.057789 -0.651888
19.5533 16.8275 12.858 0.608663 0.704286 -0.365391
22.8233 14.1204 11.2596 0.431323 0.156774 -0.888472
13.7897 13.5074 13.0428 0.970901 -0.0195928 -0.238679
22.9629 15.6027 9.30433 0.146524 0.524143 -0.838931
23.3564 15.9636 10.3485 0.165432 0.689476 -0.705164
12.5428 15.8562 14.0112 -0.709945 0.651027 -0.268592
12.535 14.6548 9.26735 0.644731 -0.358436 0.675164
9.8279 18.0554 10.6238 -0.11085 0.649502 -0.752236
12.6663 16.5312 12.5574 0.482589 -0.468127 0.740246
14.3988 15.183 14.5472 -0.589355 0.636126 -0.498001
14.5987 16.4902 14.673 -0.749785 0.602092 -0.274421
18.0779 16.6261 12.7051 -0.316604 -0.211539 -0.924669
12.7959 15.5292 10.8235 0.771368 -0.186413 0.608475
14.4326 16.6539 15.7295 0.844948 -0.404235 0.350223
18.8652 17.5451 15.3962 0.52632 -0.706556 -0.473038
15.9187 15.2476 11.8262 -0.662774 0.177645 -0.727442
16.3281 18.0856 8.42016 -0.931201 0.174635 -0.319948
19.3969 21.0386 16.6058 -0.619262 0.398885 -0.676317
19.57 18.5165 16.0631 0.66653 0.201931 -0.717608
18.5892 20.0208 12.2821 0.815262 -0.575044 -0.0683503
18.6423 19.7311 13.3059 0.838513 -0.517035 -0.171962
19.1027 20.1915 14.1551 -0.963676 0.130902 0.232794
18.3967 18.4895 12.9166 -0.40976 0.868916 -0.277635
21.0517 19.5504 14.3194 0.527918 -0.794547 -0.299996
21.2884 15.6534 9.26722 0.00504537 0.48606 -0.873911
22.4739 16.0508 13.5049 0.94029 0.314227 0.130829
19.1385 16.186 14.1244 0.335451 0.929528 -0.153131
23.2163 16.3804 11.4884 -0.00568814 0.798138 -0.602448
23.3929 14.3801 13.9012 -0.605114 -0.507396 -0.613504
20.4931 15.304 13.9919 0.96701 0.209171 0.145396
13.1549 14.4575 14.9215 0.950415 -0.306017 0.0553613
23.61 17.7934 9.3026 -0.493655 -0.47928 0.725669
22.467 19.4848 13.11 0.702656 -0.412368 -0.579851
23.5037 17.2784 12.3295 -0.382012 0.393383 -0.836251
12.7765 17.161 13.5238 -0.579086 0.560832 -0.591716
11.776 17.4874 13.9592 0.598402 -0.327428 0.731236
14.6469 16.8878 11.0654 -0.47066 0.475895 -0.742969
9.78228 18.3894 14.5132 -0.246228 0.528691 -0.812316
14.18 15.9607 10.7666 -0.327403 0.515863 -0.791639
15.9047 17.208 12.539 -0.451822 0.133178 -0.882111
16.9527 16.8746 12.4102 0.367803 0.271723 0.889319
17.3938 17.312 11.4126 -0.662206 -0.112484 -0.740831
19.5899 19.9988 3.9982 0.952973 0.23483 0.191563
17.7211 23.7331 16.3307 0.184746 -0.702525 0.687261
17.4835 14.5048 12.9045 -0.164278 -0.441866 0.881911
17.9667 21.1415 16.9506 0.828495 -0.358879 0.429887
20.1388 19.0089 14.3601 -0.432998 0.695465 0.573446
16.8507 20.8385 14.511 -0.776945 -0.600113 0.190319
19.894 21.6598 13.2304 -0.920707 0.147758 -0.361201
19.4803 18.2191 14.8056 -0.614724 0.639326 0.461927
18.8649 20.8436 15.1093 0.97565 -0.218744 0.0160898
15.7918 21.6899 16.2256 -0.694981 0.687195 -0.211577
20.6511 21.211 3.4359 0.220827 0.172413 -0.959953
19.4484 22.3568 13.9639 -0.934381 0.128706 -0.332215
21.8364 16.9269 12.9778 0.948667 0.190254 0.252656
21.4799 17.7515 12.2648 -0.731671 0.0834478 0.676531
10.3614 15.9891 13.165 0.854135 -0.142237 0.500223
22.7555 18.3814 12.0517 0.0772211 0.432862 -0.898147
11.1272 17.2325 11.0299 0.420757 -0.652302 0.630449
21.3152 22.1367 13.228 -0.391951 0.596205 0.700653
21.8542 22.4582 11.8398 0.61038 -0.773427 0.171015
21.6754 18.7996 12.6217 -0.375849 -0.3747 0.847548
9.66615 17.5359 13.8496 0.32373 -0.689919 0.647465
11.9322 18.0382 11.7025 -0.718875 0.365648 -0.591203
12.7392 18.173 14.0476 -0.524434 0.367861 -0.767885
22.5148 18.6295 14.4797 0.244844 -0.0323713 -0.969022
13.5163 18.8673 13.9062 0.618702 -0.428876 0.658235
13.5635 19.2055 12.3758 -0.504681 0.491604 -0.709664
16.1877 16.0686 12.9354 0.25173 -0.218336 0.942847
15.0685 17.4327 15.3742 0.844383 -0.279838 0.456846
19.0653 21.8203 3.37387 0.529458 -0.667061 0.524123
15.4537 18.8556 13.4681 0.689773 -0.0986685 0.717271
18.3156 20.4015 16.0922 -0.97577 0.142364 0.16615
17.4092 22.1865 3.46709 0.79792 -0.543101 0.261466
20.6013 22.2576 15.8299 0.914106 -0.403201 -0.0428951
16.4781 18.9581 15.3151 -0.821406 0.424091 -0.381364
17.5402 22.086 15.1262 -0.448341 0.507502 -0.735821
18.8156 11.138 14.8485 0.996634 0.0705048 -0.041835
18.955 21.9456 14.997 0.75504 -0.267849 0.598474
20.9613 19.6492 13.026 0.833728 0.267974 -0.482791
20.6622 21.1626 15.3429 0.307879 0.445906 -0.840463
18.3431 22.7843 15.698 0.580579 -0.631556 0.513873
22.7022 19.6923 14.2681 0.834901 0.108112 -0.539677
21.5028 20.7133 13.2206 -0.817638 -0.0965805 0.567574
9.74082 21.6197 13.317 0.341011 -0.705432 0.621351
23.62 19.3504 14.943 0.449209 0.717338 -0.532576
22.316 21.6195 13.5526 -0.614755 0.223116 0.756502
