14.2327 24.6647 23.3741 -0.619549 0.405528 -0.672091
14.726 1.27091 1.93605 -0.730291 0.548339 -0.407431
20.6466 2.84636 22.9133 0.0962446 0.981135 0.167662
25.3829 22.1695 2.44623 -0.615042 -0.694414 -0.373513
17.9856 19.5941 3.25796 0.866527 0.282029 -0.411813
15.8107 19.7611 4.26227 0.882452 0.353681 0.310142
25.9302 0.165447 9.23875 -0.371992 -0.81434 0.445502
12.5797 20.3678 22.678 0.476382 0.559249 -0.678455
25.1851 25.458 4.28985 -0.158609 0.487163 0.858787
23.757 19.3951 0.220647 -0.207073 0.941627 -0.265443
25.2563 0.810446 3.58817 0.28224 -0.708901 -0.646375
23.4815 28.0355 10.1869 -0.483998 0.830073 -0.276992
23.6887 26.6887 25.6088 -0.775784 -0.515735 0.363561
24.2798 0.165971 0.588836 0.691161 -0.0162877 0.722517
25.176 24.7384 7.10898 0.338005 0.678588 -0.652128
25.6918 25.0755 2.45832 0.861775 -0.424716 0.277416
1.87348 24.7691 4.17852 -0.351782 -0.690411 0.632125
26.1618 25.9941 2.68166 0.515923 -0.582234 -0.628353
2.05294 23.5337 4.34152 0.0690429 -0.142696 0.987355
27.2752 20.1836 2.39141 -0.101301 0.859605 0.500816
6.39435 21.6751 1.25362 0.60781 0.210328 -0.765721
20.6563 26.4361 27.2606 -0.178547 0.696621 -0.694867
3.56921 23.8374 5.67995 0.393309 -0.897856 0.197896
24.6576 25.1253 26.7567 0.125377 -0.978773 0.162126
5.35226 23.5256 23.7321 0.00874154 -0.176692 -0.984227
7.54324 20.9952 26.12 -0.613364 0.351136 0.707451
5.74923 24.3174 5.78252 -0.752797 0.277068 0.597101
4.29429 19.7023 3.46496 0.594054 0.663005 0.455547
10.9493 23.1016 26.3659 -0.981792 -0.187016 -0.0332991
7.3042 15.0829 2.82573 0.663352 0.554187 -0.502834
2.2307 3.38029 6.61742 0.104143 0.860292 0.49905
9.78982 24.2779 27.6057 0.0781145 0.948281 -0.307672
5.83452 21.4809 28.0874 0.00668121 -0.524359 -0.851471
8.37246 24.9336 3.23081 -0.497559 0.805898 -0.320877
11.4207 4.6038 27.843 0.492427 0.76475 -0.41554
5.9466 20.8007 1.01096 -0.478489 -0.0937499 0.873075
6.39138 0.332179 23.7536 -0.97669 -0.168487 -0.133002
12.2135 23.8378 2.12578 0.564451 0.79906 -0.20712
3.08636 21.6017 0.83738 -0.830465 0.551742 -0.076868
6.39903 22.3149 0.00229039 0.395513 -0.777476 -0.488979
12.0829 0.681332 4.35579 0.89947 0.436558 0.0192704
10.6055 23.5469 0.263411 -0.273524 0.939473 -0.206337
11.4732 25.273 27.0183 0.539676 -0.746175 0.389837
13.1445 24.4503 24.6777 0.557202 -0.231837 0.797357
18.1912 18.6066 2.5411 0.887408 -0.371581 0.272826
19.8291 25.6933 0.860916 0.37764 0.589699 -0.713893
13.6695 1.59748 23.4465 0.469284 -0.148804 -0.870419
14.1457 27.1528 23.6244 0.9764 0.120918 0.178949
17.8986 24.5243 1.1312 0.455235 -0.854235 0.251083
12.3027 3.66631 14.2076 0.363224 -0.808886 0.462354
7.84978 27.5758 5.16437 -0.307025 -0.886948 -0.345049
15.7747 2.08088 26.6003 -0.220668 0.931572 -0.288928
18.5588 24.8361 3.21233 0.951249 0.281176 -0.126747
17.8691 27.1379 23.4204 -0.116958 0.990788 -0.0682671
13.879 25.2104 0.507772 -0.477285 -0.266651 -0.837315
22.6604 26.2509 3.33466 -0.743261 -0.625301 -0.237826
16.8258 23.2131 27.4197 -0.677375 0.72803 0.10552
16.2025 0.688739 3.45178 0.404343 -0.55241 0.728938
20.5224 2.24513 8.88926 -0.955559 0.191934 0.22376
16.599 22.074 0.878622 -0.164232 0.443242 0.881229
20.2768 24.6545 3.7127 0.853287 0.298381 0.427633
20.9815 25.8904 2.62217 -0.949452 -0.261521 0.173633
21.0723 5.77767 25.7395 -0.2002 0.413635 0.888159
26.3128 3.19371 3.30336 0.182168 -0.596123 0.781954
13.8408 23.7723 4.84546 0.918624 0.227393 0.323144
16.1174 0.219341 1.58032 0.703272 -0.694749 0.150773
15.5039 22.2112 4.70264 -0.210931 -0.436265 0.874746
23.9892 1.09592 2.54816 0.819314 0.457426 -0.345669
22.263 25.3849 2.34355 -0.93201 -0.329904 -0.150069
19.4755 1.07485 4.69356 0.950048 -0.172097 0.260368
0.00612129 0.862596 3.80022 -0.139434 0.174482 -0.974738
6.61792 3.53592 0.771135 -0.370487 0.406853 -0.834991
1.56971 18.2441 27.9178 0.0101808 0.694101 0.719806
0.568871 26.0242 27.792 0.382723 -0.230762 0.894579
0.466267 1.10114 24.2826 -0.103169 -0.72312 0.682974
26.6977 24.2172 7.91914 -0.336822 0.941567 -0.001515
27.9066 0.513592 18.4361 -0.159402 0.329804 -0.930495
25.0658 1.45592 0.0616603 -0.638873 -0.158838 0.752736
0.530178 26.8779 4.46776 0.233186 0.292864 -0.927284
2.12486 28.0996 5.18451 -0.0318428 0.575127 -0.817444
22.583 1.17523 2.49883 0.797905 0.503073 -0.332062
0.665568 23.1992 24.7061 0.77629 -0.221324 -0.590245
21.824 4.16432 1.28253 0.856832 -0.326085 0.399384
2.67265 24.4535 3.60305 0.00346477 -0.283783 0.958882
4.85143 27.9291 27.5856 0.388373 -0.661439 -0.641611
28.0182 4.11425 3.21916 0.315401 -0.085295 -0.945117
3.71403 26.9178 26.7113 0.414729 -0.559245 0.717806
4.39609 26.8638 3.09518 0.41907 -0.650102 -0.633836
11.5339 23.9803 26.8702 -0.670163 0.476354 -0.569182
11.4208 23.442 3.1732 -0.207896 -0.837188 0.50586
10.0791 24.6175 4.93935 0.286618 0.0682926 -0.955608
6.06366 22.8108 1.79373 -0.0529691 0.783802 -0.618748
11.3111 18.9792 2.94013 -0.42905 0.839431 -0.333575
8.04083 24.9768 1.05217 0.263349 0.111914 0.958187
2.78387 26.9436 9.8914 -0.769238 0.0246892 -0.638486
10.5261 0.660285 0.20282 -0.859095 0.440268 0.260998
10.8862 2.71967 24.5457 0.389554 0.752889 -0.530478
10.2174 1.10362 23.3313 0.792099 0.580299 -0.189294
14.9644 2.1758 5.1595 -0.731788 0.15495 -0.663685
13.3074 23.8809 2.67555 -0.365486 -0.277173 0.888592
12.1531 27.5761 1.68528 -0.0567589 0.540952 0.839136
12.4933 0.877534 5.28984 -0.533957 0.829238 0.165085
6.91063 2.39907 9.39306 0.723423 0.478933 -0.497275
11.3362 1.84839 1.43661 -0.647613 0.510649 -0.565539
9.31387 2.12842 0.101079 -0.162558 -0.932275 -0.323169
12.319 26.8788 26.7234 0.813411 0.490589 0.312544
14.7021 24.2869 4.19502 0.771164 0.597319 0.220263
18.4116 2.23547 0.95136 0.932036 0.258988 -0.253444
19.6002 24.3692 27.7636 0.476313 0.427875 -0.768146
16.589 24.6747 25.4586 0.584473 -0.811411 0.00192865
17.9176 26.2111 0.868176 0.0949955 0.554703 -0.826608
20.5233 27.3845 22.1551 0.333782 -0.918976 -0.209936
26.2056 26.5512 0.46478 0.549889 0.815902 -0.178679
16.5224 5.30932 1.25866 -0.859725 0.433173 0.270618
17.9121 2.78792 2.02239 -0.293492 0.95576 -0.0196333
18.2081 0.451579 2.18037 -0.20021 0.676752 -0.708465
17.2121 27.3726 0.100271 -0.00502485 0.432897 -0.901429
18.8837 4.8944 25.7399 0.427418 -0.620409 0.657576
16.2655 5.16161 0.37362 0.565226 0.819416 0.095272
25.8195 0.583365 25.1814 -0.255671 0.925044 0.280938
25.4734 2.61533 23.2221 -0.314874 -0.0521916 0.947697
17.7331 2.47306 4.9376 -0.837282 -0.349016 -0.420888
23.3279 25.4217 4.82908 0.245463 -0.41618 -0.875524
26.1239 0.630172 2.34529 -0.230556 -0.920935 -0.314202
28.0887 6.51301 1.91416 0.521687 0.341462 0.781823
25.4711 24.002 1.77805 0.684831 -0.709377 -0.166703
23.1976 0.385001 0.865208 0.502787 0.774134 -0.384607
26.4467 2.85547 1.41555 -0.129231 0.882504 0.452201
15.7752 26.4637 2.26863 -0.514605 0.763441 -0.390307
27.8133 27.6459 6.18537 0.00830329 -0.502345 -0.864627
22.3201 25.2786 5.4577 -0.172387 -0.459405 -0.871338
0.406229 0.42128 1.25156 0.72166 -0.495648 -0.483259
3.6415 27.2804 25.2464 -0.125708 0.99054 0.0550303
7.53372 23.6349 24.6297 -0.539619 -0.289593 -0.790536
0.444936 26.2889 3.15394 -0.626172 0.67218 0.395073
0.897116 5.11502 3.60308 0.796638 -0.179008 -0.577342
2.68454 1.78554 1.00891 0.875072 -0.0325661 -0.482896
10.5843 1.26982 4.44303 -0.183919 -0.980065 -0.0751364
25.8123 2.79043 0.694953 0.170222 -0.926078 -0.336755
6.97282 24.6634 4.80064 -0.381355 0.492191 0.782506
3.41591 25.0441 3.64143 0.069861 -0.0725889 -0.994912
8.93914 4.41102 4.49939 -0.764076 -0.407855 -0.499842
4.21025 26.4995 5.34744 -0.0222598 -0.704013 0.709838
28.0674 1.86381 2.97316 -0.147434 -0.248741 -0.957283
2.76124 0.669404 7.98123 0.701776 0.578286 0.416048
13.7626 2.8998 7.55694 0.9211 0.201658 0.333029
8.64308 25.6124 25.806 -0.156682 -0.554901 0.817029
9.81124 27.3935 11.3939 -0.929194 -0.273662 0.248409
7.79282 0.276715 0.424164 0.833926 -0.551074 0.0297406
17.118 23.8464 28.0764 0.629154 -0.775546 0.0519056
13.6146 1.30017 0.219223 -0.502007 -0.620506 -0.602463
9.45789 0.0534132 0.778472 0.827811 -0.191238 -0.527406
4.88134 24.5928 0.961759 -0.357743 0.775323 -0.520475
10.1799 1.49236 27.6439 -0.568936 -0.817494 -0.0895306
13.3464 2.47338 1.99133 -0.780975 -0.49045 -0.386701
11.3584 0.0660119 20.6337 -0.365136 -0.040307 -0.930081
8.55739 25.6455 4.10287 -0.588523 0.277058 0.759526
13.2745 23.6071 1.26489 -0.582456 -0.451761 0.675764
20.2256 9.88445 5.05937 -0.810338 -0.523755 0.262741
17.8378 3.36436 26.4335 0.648597 0.749815 0.130762
13.7583 3.13863 0.298074 -0.906904 -0.421286 -0.00651082
12.524 1.87263 4.51541 0.900619 0.434375 0.014293
19.7101 1.53193 5.5146 -0.804202 -0.459957 0.37643
16.6847 3.45811 26.0067 -0.173534 -0.807379 0.563937
18.5296 25.3578 1.10222 0.0340159 0.289034 -0.956714
13.7779 20.6758 8.11273 0.0159085 -0.228868 -0.973328
23.832 2.64453 26.0356 0.209803 -0.975002 0.0731752
16.7198 2.34997 27.4195 0.573004 0.790552 -0.21609
14.7898 1.26614 26.201 -0.115548 -0.992035 -0.0501526
20.3666 24.5608 5.93926 0.723217 0.224733 0.653033
20.28 5.50835 0.374342 0.870952 -0.207489 0.44541
20.6419 4.72293 3.38163 -0.402431 -0.816075 0.414815
16.2784 6.47535 1.59829 0.944056 -0.171074 -0.281945
22.4097 3.06841 2.01411 0.359885 -0.0201215 0.93278
22.0704 3.64275 7.82012 0.0958812 -0.434521 -0.895543
22.4334 1.64855 27.8476 0.541969 -0.840136 0.0210025
16.2848 6.80945 24.0861 0.866332 -0.15179 0.475845
19.2976 0.44866 2.1405 0.106017 0.289768 -0.951207
17.633 5.36244 26.9804 0.842067 -0.520636 -0.14093
20.0128 2.4645 21.1064 0.195537 0.462804 0.864626
23.2404 0.933834 22.1995 -0.292942 -0.912798 -0.284579
26.4145 1.76125 27.6763 0.142175 -0.932463 -0.332114
23.0837 3.97536 5.60703 0.568484 0.242485 -0.786147
0.529516 4.29889 24.3512 -0.799328 0.545324 0.252381
0.10222 25.7051 3.8628 0.312499 -0.729293 -0.608668
3.23993 1.53811 23.3936 0.451264 0.773363 0.445275
25.2522 1.67973 22.5607 -0.0593708 -0.576192 0.815155
0.954496 4.56501 4.37197 -0.888058 -0.419872 0.187245
26.7532 0.954725 25.6181 0.612191 -0.787401 -0.0722695
0.250819 18.0696 23.7711 -0.745333 -0.601701 0.287114
23.3501 3.78995 2.4837 -0.131392 0.871038 -0.473317
3.36838 8.47773 26.3612 -0.45211 0.885671 0.105751
27.2975 4.47031 24.0823 -0.78102 0.328583 0.531075
7.14278 27.6415 2.31276 -0.648384 0.538052 -0.538608
5.66384 27.9818 3.95234 -0.137028 0.325038 0.935721
2.56576 4.91061 5.64881 -0.0320975 -0.0319428 -0.998974
9.31566 5.41157 24.7426 -0.541792 -0.518041 0.661888
1.00312 5.58084 1.88391 -0.419253 0.718371 -0.555131
7.73527 4.35301 27.6052 -0.368321 0.929688 -0.00444381
7.6953 5.24229 1.53591 0.298014 0.569786 -0.765853
3.23409 6.9406 3.33673 -0.701235 0.712924 0.00290806
7.41262 6.38153 5.25973 0.194543 0.492219 -0.848454
13.2008 0.393096 2.56677 0.744886 -0.0992625 0.659767
13.319 8.29279 27.8427 -0.0901986 -0.937956 0.334817
3.69036 24.5347 22.4126 -0.0429582 -0.642161 0.765365
1.44984 3.30674 2.68475 -0.974155 0.0599565 -0.217777
14.2917 6.2189 2.10311 0.81828 -0.573067 -0.0448621
6.27918 2.75752 20.3637 -0.769606 -0.459563 0.443293
8.07347 5.36642 21.5902 0.720669 0.401939 -0.564873
13.6401 26.9331 4.86157 0.204169 -0.636022 0.744172
12.7848 27.3999 0.267217 0.590876 -0.78838 0.17124
7.60819 24.2652 2.28894 -0.0566554 0.0257284 -0.998062
10.6307 2.29066 3.55395 -0.1854 -0.979161 0.0828915
13.2408 2.25546 3.27723 0.693463 -0.300154 -0.654994
14.8159 6.56536 26.7106 -0.0644123 0.493645 -0.867275
19.6807 23.9053 2.46693 0.669242 -0.740602 0.0601935
18.0279 6.1025 2.33908 -0.0482912 -0.603724 0.79573
16.2761 3.7215 3.54696 0.799947 -0.506654 -0.321539
17.6362 23.6255 3.20329 -0.537137 0.436954 -0.721495
18.3773 4.42614 1.40922 0.115297 -0.901809 0.416469
12.3669 8.86434 1.33587 -0.900142 0.42941 -0.0731493
20.6942 8.92713 5.82737 -0.487586 -0.105277 -0.866704
8.97137 5.74119 2.19086 0.0856976 0.279499 -0.956314
18.4224 9.47041 3.27389 0.22364 -0.967496 0.118053
19.0274 9.13693 4.11587 0.41315 0.462707 -0.784353
17.2051 1.29796 5.02171 -0.607075 0.0274095 -0.794172
15.4622 11.8358 1.22887 0.399215 0.909382 0.116844
16.6894 9.07535 2.8547 -0.0862599 0.925162 0.369642
17.3215 5.31147 1.97911 0.679986 0.45639 -0.573871
21.5291 27.5646 27.149 -0.198868 0.549797 -0.811279
20.6456 2.05234 25.8227 0.196823 0.740869 0.642164
20.231 6.51856 4.91782 -0.641732 0.211098 0.737304
1.76166 3.1281 23.4591 0.872046 0.489412 -0.00333828
21.8668 6.70892 24.6184 -0.00136972 -0.922151 0.386827
24.7686 7.55935 26.7441 0.896942 0.410257 0.164878
16.1309 25.1258 5.14327 -0.853267 0.442227 -0.276352
26.9646 6.46937 23.8837 0.807895 0.0770372 0.584269
22.8642 7.11527 22.3777 0.772805 -0.568293 -0.282515
1.16222 0.589799 8.91183 0.979009 0.139871 -0.14825
18.6887 2.521 26.3991 -0.352458 -0.935791 -0.00823232
2.05287 2.64337 0.992549 0.719351 -0.129066 -0.682551
1.13728 6.75818 10.3892 0.504632 -0.863333 -0.00181605
27.5184 7.87837 1.59934 -0.0670544 0.719684 -0.691057
0.18171 7.37939 1.19815 -0.632053 -0.666944 -0.394581
26.5328 8.76153 6.57382 0.141225 -0.585014 -0.798633
26.9471 27.8636 2.36936 0.675773 0.0583465 -0.734797
24.3784 9.00854 7.60118 0.408322 -0.209164 0.888552
1.19138 1.47745 0.726076 -0.103124 0.727831 0.677958
5.34501 5.48616 4.09086 -0.0876954 0.925319 0.368908
3.17074 3.6646 4.72723 -0.0456256 0.988574 -0.143666
3.58643 2.32735 2.70575 -0.89624 0.396119 -0.199609
6.13482 6.35023 0.592954 -0.174592 0.200844 0.963939
8.40732 7.24806 3.31918 0.307818 -0.93284 0.187238
27.7322 0.723315 21.3566 -0.141706 -0.984027 -0.107752
8.77972 7.93619 7.23261 0.703415 -0.304386 -0.642305
1.6318 2.77733 3.62162 0.664873 -0.522702 -0.533598
13.1175 10.6345 0.708736 0.355379 0.605563 -0.712039
13.9231 5.12361 5.84278 -0.392659 0.917957 -0.0563457
8.33895 27.5959 2.47564 -0.141742 0.814724 0.562258
2.08086 8.25301 9.54236 0.892607 -0.404542 -0.198994
9.35536 10.4319 22.7293 -0.179765 -0.89126 -0.416342
9.10018 1.53427 5.60856 -0.48953 0.724872 0.484687
4.09467 3.23147 0.351634 0.612209 0.528316 -0.588288
11.7832 5.52978 2.61153 0.749415 -0.188139 -0.634808
9.09796 11.9989 26.5587 -0.637058 0.297479 0.711101
16.1844 4.08576 24.0371 -0.462858 0.872216 0.158123
18.5417 24.8695 6.11721 0.904429 -0.110325 0.412111
18.001 8.30916 6.57022 0.0635338 0.98944 -0.130278
7.06638 26.6607 3.06629 0.879468 -0.276116 0.387681
12.5355 7.05751 27.7695 0.138214 0.854171 -0.501288
14.0983 6.55946 21.0007 -0.571574 0.818561 0.0571039
12.0592 8.83093 26.3941 -0.0888705 -0.845975 0.525764
6.93885 5.28854 3.26205 -0.0569498 -0.928605 -0.366673
14.3164 9.01362 23.3923 -0.800628 0.569807 0.185242
13.8144 5.91101 3.15473 -0.557687 0.797237 -0.231082
8.30027 6.16787 5.07627 0.547563 0.835729 0.0416115
16.8965 1.17865 23.5746 0.292979 -0.167964 -0.94125
11.945 4.48503 3.14571 -0.503496 -0.858843 -0.0942372
14.2985 3.61088 4.36972 0.362566 0.798843 -0.479996
16.2936 9.54793 4.08042 -0.258091 -0.641283 -0.722596
19.8229 4.30149 5.73323 -0.745269 0.369975 0.5547
21.1342 7.5375 3.82353 0.544494 -0.816759 0.190872
14.229 5.00085 25.4286 -0.976933 0.202905 -0.0665656
17.7743 8.20257 26.7998 -0.472035 0.169849 -0.865063
20.7922 5.44764 4.86931 0.791358 0.384566 -0.475249
23.1919 9.68542 23.5407 0.263866 -0.158682 -0.951417
21.297 8.89797 26.5806 -0.983255 -0.105175 -0.148822
21.5936 0.831731 27.7964 0.11782 0.883556 -0.453263
0.360529 4.40331 27.2854 0.153982 -0.0705296 0.985553
19.9151 9.36543 20.9207 -0.909771 0.381906 -0.16268
26.4437 14.3684 26.7209 -0.561815 -0.414106 0.716157
18.4649 4.95454 4.54279 0.624837 -0.721167 -0.299161
23.405 5.48875 0.464277 -0.41398 0.667862 0.618532
22.124 5.3227 6.21213 -0.798245 -0.489921 0.350403
16.5636 8.39486 0.511899 0.389932 0.758622 0.521964
28.0232 2.53336 27.3249 -0.186827 -0.811022 0.554382
21.0425 6.38805 21.5753 0.200377 -0.323229 -0.924863
25.859 7.07476 3.27647 -0.796617 0.122518 -0.591938
23.5968 14.2552 5.52364 0.404566 0.583109 0.704492
24.6973 3.39786 27.9008 -0.996864 0.0616278 -0.0496375
25.0892 9.59232 21.6943 0.340524 0.557802 0.756902
0.769095 26.9289 21.966 -0.384574 -0.841221 -0.380066
1.96587 4.4792 1.91857 0.113998 -0.305039 0.945492
1.81091 27.4265 4.59344 0.406054 -0.400821 0.821257
24.2271 8.65713 4.49585 0.695351 0.521276 -0.49473
6.36687 10.9913 2.93176 -0.721313 -0.688871 0.0718627
0.943842 9.30225 8.72765 0.185355 -0.974391 0.127301
4.50753 0.276761 25.9047 -0.238749 -0.166341 -0.956729
6.92029 8.55903 21.0974 -0.248458 -0.939326 0.236505
5.16363 8.93301 22.7721 0.843296 -0.519457 -0.137901
2.99119 11.2932 7.38183 0.00588053 -0.00725304 -0.999956
10.3991 9.17442 4.04445 0.0106687 -0.789168 -0.614085
4.61307 8.33456 0.0240161 -0.521797 -0.838947 -0.154585
10.0184 5.86797 20.9877 0.265693 -0.320104 0.909363
5.29564 1.37621 22.6757 0.0907888 -0.427341 -0.899521
5.18887 9.37881 6.00194 -0.258411 0.344528 -0.90251
6.9565 16.738 7.79836 0.971017 -0.0176015 -0.238362
6.4267 26.8303 1.61917 -0.299721 0.772269 0.56015
7.11883 6.7125 27.6583 -0.139649 -0.750846 -0.645545
9.28635 4.79124 2.30151 0.695155 -0.0706365 0.715381
13.9785 8.09628 24.7859 0.973451 -0.224368 -0.0452954
6.65618 10.4807 28.0134 0.635755 -0.208936 0.743075
13.1391 5.30137 10.3678 0.177304 0.897461 0.403889
18.8066 5.90588 26.9233 0.6657 0.241003 -0.70623
8.04579 13.9559 22.1893 0.147371 -0.476621 -0.866668
7.75832 2.80858 23.6975 -0.166902 -0.324585 0.931015
6.88885 12.1262 9.74465 0.0786947 -0.981034 0.177145
15.6286 2.7843 3.131 0.984958 -0.148852 0.0877528
21.1605 12.3132 3.62973 0.0874932 -0.845943 -0.526047
15.2927 10.5798 24.8873 0.518172 0.85331 0.0579653
12.9778 10.7694 22.0888 0.663531 -0.7446 -0.0727857
15.3319 7.13724 20.9886 -0.462811 0.326645 0.824081
18.2071 7.22849 26.4514 -0.254959 -0.161996 -0.953285
20.1662 5.75306 2.16472 0.513634 -0.815353 0.267168
12.6134 10.0399 2.61799 0.270122 -0.507157 0.818429
11.1837 3.54557 25.0568 -0.42118 0.860523 -0.286545
16.5942 3.93545 2.62113 0.945479 0.281598 0.163619
13.3442 5.15514 24.3455 0.979514 -0.173839 0.101644
23.8187 4.63391 26.6726 0.355091 -0.577283 -0.735292
11.543 6.19898 0.111715 0.30041 0.187811 -0.935137
15.8739 11.0026 3.46021 -0.132132 0.401154 -0.906431
24.1926 11.294 24.3662 -0.854687 -0.210345 -0.47462
16.5941 8.93064 19.5056 -0.156417 -0.984093 0.084225
21.9443 7.57701 0.504891 -0.841645 -0.538052 0.0461841
24.1842 10.9487 25.4953 0.930956 -0.187309 -0.313428
23.8243 7.43966 3.21388 -0.975408 -0.146824 -0.164386
22.6525 4.98636 0.91347 0.729024 -0.627009 0.274563
22.3851 5.71083 1.69654 -0.195149 0.960341 -0.199153
25.8346 9.27199 1.91054 -0.396773 0.720012 0.569344
1.60167 9.08608 27.0308 -0.803955 0.0542801 -0.592207
22.665 9.09079 27.6602 -0.494351 -0.464993 0.734438
26.5894 12.0481 0.166155 -0.806018 -0.409778 0.427104
2.25576 8.40948 5.10015 -0.821846 -0.150254 -0.549539
24.4372 7.88818 1.97698 -0.645036 -0.700698 0.304878
24.8884 12.9536 27.6203 -0.538472 -0.439449 0.71898
25.5638 10.7242 0.910884 0.421905 0.681768 0.597653
3.31324 7.2025 22.165 0.654337 0.755791 0.0249585
21.2492 9.14105 0.653329 -0.965396 -0.0782105 -0.248786
26.8412 4.6858 3.89182 0.533866 -0.0669588 -0.842913
21.054 8.19621 0.180563 -0.807546 -0.127181 0.575929
8.32642 10.2866 5.86934 0.402478 0.23492 -0.884774
2.0264 3.90585 27.5977 -0.962328 -0.0821598 0.25918
8.44433 9.86472 25.7848 -0.893142 -0.349054 0.283652
5.52879 11.3383 25.6837 -0.101064 0.153883 -0.982907
1.69275 6.03333 6.61915 -0.620447 0.0668087 -0.781398
7.62757 6.44187 1.26167 -0.93786 -0.152918 0.311505
1.32076 9.91205 3.21583 0.779637 -0.515967 -0.354886
5.28535 0.78844 0.183324 -0.746646 0.660998 -0.0748385
4.04149 8.40672 2.36863 0.988529 0.0947512 0.117615
7.3389 2.43368 4.97174 0.169667 -0.710034 -0.683421
4.91147 9.86022 0.898522 -0.447167 -0.88414 -0.13542
15.0406 5.14486 1.27119 0.853093 -0.515626 -0.0797604
11.7527 7.5758 2.48313 0.913454 -0.401555 0.06599
3.26657 4.6537 28.0314 0.711827 0.634582 -0.301011
11.0697 10.9185 1.0626 0.909516 0.396936 0.123378
10.8702 11.9593 26.8143 0.497749 0.30601 0.811544
9.70731 3.81607 3.21564 0.80838 -0.107151 0.578827
7.99299 8.73516 0.852446 -0.311072 0.700835 0.641923
8.7657 8.94502 25.7194 -0.465007 -0.0880987 0.880913
9.96964 7.38671 25.4018 -0.0650263 0.0626894 -0.995912
15.0586 8.83505 26.1384 -0.416866 -0.863101 -0.285095
16.5495 5.89322 2.29899 -0.742317 -0.666627 0.0676243
3.26663 4.79164 2.26674 -0.387031 -0.898819 -0.205746
17.4314 11.3218 7.42275 0.919615 0.101532 0.379472
15.1176 7.12888 3.86771 -0.400557 0.432874 -0.807573
16.2052 6.90946 0.525166 0.94391 0.0819418 -0.319873
10.8746 14.9286 27.1177 -0.793302 -0.603713 -0.0787557
16.0763 8.30482 8.87065 -0.973809 0.128353 0.187676
16.9516 15.4978 2.66756 -0.354569 0.935019 0.00449562
20.1612 8.31458 15.8611 0.531206 0.791542 0.302128
18.2109 12.0305 0.418674 0.437671 -0.510259 0.740324
17.7399 10.2888 5.37509 0.5394 0.547401 0.639844
14.7802 11.5755 10.5354 0.497298 -0.769978 -0.399786
15.8007 8.33792 25.8086 0.121919 -0.00288414 0.992536
20.0244 4.3495 25.6313 -0.500288 0.754944 -0.423995
17.8399 11.8877 26.2072 -0.341224 0.934604 0.100407
15.7441 11.3126 26.2331 -0.180365 -0.800653 -0.571335
14.21 8.0241 27.6218 -0.0811844 0.4887 -0.868667
20.7078 14.103 2.14651 -0.594197 -0.769126 -0.235319
24.9213 10.5569 1.76352 -0.253186 -0.459373 -0.851395
18.0669 14.3233 27.8087 0.84802 -0.469054 0.24668
18.9304 6.15271 1.87691 0.0595773 -0.637356 -0.768262
19.637 6.30145 6.90435 0.771152 -0.5298 -0.35304
19.6594 8.57995 3.00591 0.579866 -0.78762 0.208352
22.913 20.9101 6.95991 0.412302 -0.751347 -0.515251
0.608849 13.2545 1.6939 0.44602 -0.87027 -0.209039
27.3914 15.7229 3.82616 -0.183038 -0.695439 0.694883
25.6519 7.83718 1.86143 0.253576 0.773334 0.58108
2.48496 9.68421 0.394163 -0.735103 -0.0745961 -0.673839
25.7916 10.313 6.09446 -0.800829 -0.244599 0.546667
0.115414 13.8234 4.19542 -0.720122 0.442266 0.534626
25.6955 6.0717 3.62335 0.791707 -0.513484 0.330959
5.36435 11.8466 27.6316 0.0351039 -0.359032 0.932665
0.867816 4.95725 9.26362 -0.618457 0.0459793 -0.784472
3.17419 12.1932 26.8961 0.623726 0.562718 -0.542507
5.69335 4.05032 4.47828 -0.969183 -0.0136527 -0.245963
27.4658 2.68878 6.39273 0.129377 0.973642 -0.187839
7.09324 9.53592 2.44553 -0.445969 -0.878403 0.171813
4.71508 12.8361 2.30233 -0.86207 -0.123311 0.491558
1.36969 11.649 24.4346 -0.193383 -0.413875 0.889556
1.81455 12.2758 27.9465 -0.436539 -0.272932 0.857288
1.10802 6.82859 0.257797 -0.0426207 -0.0568189 0.997474
2.18476 14.867 26.5461 0.550841 0.602202 -0.577865
8.80793 11.2949 27.458 0.28768 -0.218185 -0.932543
7.79797 9.745 4.09548 -0.901087 -0.43222 -0.0350568
5.31847 13.0408 5.4346 -0.0844032 -0.542644 0.835711
6.37706 10.3168 25.747 0.179439 -0.527553 -0.830355
9.71263 7.56994 14.0051 0.148008 -0.84928 -0.506771
8.14641 3.8334 25.5274 -0.724417 -0.454264 0.518521
8.86938 7.33356 26.8585 0.691271 0.51112 -0.510785
14.8598 12.8371 0.395238 -0.263829 -0.884872 0.383921
9.46076 14.3702 26.2573 -0.537199 -0.66219 0.522419
4.18789 16.3587 27.3733 -0.201876 -0.63234 0.747926
15.8253 10.4641 0.975218 -0.327183 -0.943387 0.0545271
16.2094 18.6117 6.14135 -0.295106 -0.632644 -0.716012
9.12119 10.8102 10.387 -0.0948279 -0.792099 -0.602982
11.7692 5.77188 22.5021 0.376868 0.312634 -0.871912
10.4381 11.4103 0.407306 0.280581 -0.873565 -0.397692
18.5719 17.7576 3.5212 0.496669 0.309224 0.810987
10.0781 11.3077 7.0529 0.615199 -0.768308 -0.176727
12.1884 9.15419 3.80823 0.2719 -0.960659 -0.0566192
15.4418 8.54421 10.8778 -0.2524 -0.946131 0.202807
18.0195 10.222 4.33863 0.184229 -0.935116 -0.302683
12.2286 1.75717 9.40004 0.0454027 -0.534801 0.843757
14.1309 9.48226 27.1055 -0.0690241 -0.332214 -0.940675
12.0011 15.0877 26.4783 -0.660313 -0.745356 0.0918237
19.5674 10.269 9.66607 -0.134368 -0.0750463 -0.988086
16.1429 9.34562 9.15489 -0.970219 0.205876 0.127635
16.3363 11.1153 5.65314 -0.639737 -0.512849 -0.57247
22.1771 12.4258 5.463 0.849346 0.308692 0.428161
21.0067 22.3099 7.18398 -0.284008 -0.379012 -0.880732
19.214 12.2667 4.00258 -0.177758 0.959529 -0.218419
16.3479 11.5064 1.86836 -0.225826 -0.967241 -0.115967
21.0873 13.1622 1.66881 0.00170941 -0.839527 0.543316
18.2536 7.30815 3.81548 0.0450324 -0.300152 0.952828
18.1006 10.1205 2.02112 -0.738583 0.663056 -0.121869
20.8448 11.2332 0.151535 0.797937 -0.546426 0.25439
20.304 7.66024 5.94742 -0.729197 -0.499578 0.467646
25.8286 15.2616 8.84807 -0.21625 -0.864135 0.454431
20.4562 9.5765 2.61677 -0.433433 -0.339844 0.834651
21.786 8.33487 6.47824 0.14814 0.530872 0.834404
1.45131 13.3064 2.19533 -0.406891 0.408352 0.817122
26.3916 10.0496 0.185054 -0.0453288 0.920354 0.388451
21.8165 15.1727 1.40085 0.902687 -0.0498279 -0.427402
22.796 13.8696 1.43677 0.233463 0.566133 -0.790562
3.80622 9.57542 3.58392 -0.632422 -0.248854 -0.733562
27.9933 6.91448 4.77122 -0.624287 0.232441 -0.745813
23.7269 7.77281 8.11293 -0.901722 -0.292065 -0.31874
1.75676 9.05742 1.95681 -0.865611 0.249707 -0.434009
4.071 9.30755 6.49476 -0.704644 0.626896 -0.332382
2.49589 17.935 4.29186 -0.35522 -0.83311 -0.423966
2.10129 6.77715 2.88248 -0.411534 0.907418 0.0850426
26.2191 11.5518 27.4024 0.946316 0.224136 -0.232915
6.78692 16.8816 3.38515 0.880068 0.439699 -0.179291
0.902781 12.0401 3.40474 0.00880191 -0.75248 -0.658556
26.1014 7.26985 10.4963 0.111319 -0.964672 0.238778
0.992342 3.97904 1.51905 0.117934 0.206812 0.971247
6.26441 11.7508 26.8193 0.0815621 0.178737 -0.98051
3.77035 15.3713 8.59976 -0.0100203 -0.890278 0.455308
10.6207 11.2571 3.5982 0.974688 -0.196211 -0.107167
4.60709 10.4559 26.3027 -0.00665635 0.498744 -0.866724
8.22382 13.5838 23.313 0.991445 0.0714821 -0.109215
12.5086 14.0568 13.7825 -0.389951 0.48586 -0.782227
10.7848 13.3478 7.80742 0.210149 -0.12163 0.970074
27.5306 10.2597 9.46321 0.0835041 0.972402 0.217857
4.32864 18.9026 5.30302 -0.741631 -0.636851 -0.21072
13.7221 16.396 1.40861 0.260511 0.685186 -0.680186
7.09184 9.50515 8.07432 -0.206798 -0.273421 0.939402
11.3545 12.1843 5.61724 0.147654 -0.77397 -0.615767
9.69903 11.4943 7.97626 0.295101 -0.915363 -0.27391
12.5632 11.1565 8.95459 -0.926499 0.375818 -0.0189941
15.3249 10.25 8.87359 0.996867 0.0268121 -0.0744066
5.9875 13.0578 0.632967 -0.647718 -0.436162 0.624679
11.3708 9.32443 6.72705 0.588788 -0.719047 0.369189
21.5794 21.898 5.56032 0.0796784 0.433432 0.897657
9.33398 14.1603 2.94538 -0.641765 -0.648456 -0.409442
13.0127 12.9857 8.00462 -0.277553 0.391092 -0.877503
14.902 13.6427 7.37292 -0.00836957 -0.962309 0.271829
16.3196 11.599 10.149 0.499133 0.843455 -0.198621
16.5098 14.0716 9.22498 -0.313369 -0.0671897 0.947251
18.8339 14.5942 22.9082 0.195127 0.182189 -0.963708
19.141 11.5862 0.0693687 -0.641874 0.227885 -0.732165
16.0068 16.2783 3.43814 -0.785473 -0.618873 -0.00538056
22.4264 13.5911 5.49108 -0.0866974 0.161185 0.983109
18.8027 8.44074 0.206069 0.656084 -0.585181 0.476567
18.1606 19.737 27.784 0.616341 0.216051 -0.757262
11.4466 15.372 17.0781 0.217447 0.949382 -0.226695
17.9246 14.5604 3.53302 -0.413227 -0.662331 -0.62495
24.0386 16.6184 4.37468 -0.20711 -0.822929 -0.52905
21.9168 11.6749 6.90026 -0.836578 -0.535978 -0.113425
15.8605 10.2754 6.06944 -0.775071 -0.363541 -0.51682
22.427 15.062 3.83519 -0.473559 0.447058 0.758869
26.4763 14.7644 5.41293 -0.703108 0.692419 -0.161846
4.54546 14.5536 4.47518 0.645762 0.678872 -0.349462
24.7924 15.3477 1.4139 0.453779 0.195112 0.869492
22.9523 10.5389 7.10849 -0.264831 -0.945139 -0.19125
4.89053 12.4831 7.34735 -0.486764 -0.701696 0.520272
25.6919 16.1061 9.4031 0.698445 0.632971 -0.333951
24.7092 13.9081 27.7363 0.562289 0.569469 -0.599613
26.4657 15.2948 27.84 -0.475627 -0.263773 -0.839168
25.7125 8.47669 4.02664 -0.951376 -0.286189 -0.113926
22.6559 13.3124 27.9478 -0.865037 0.491475 -0.100809
27.6215 21.5617 2.54092 -0.221879 0.725569 0.651398
3.26655 12.8345 5.90674 0.484877 0.760818 -0.431335
6.13073 14.762 4.16353 0.79735 0.490527 -0.351592
2.22426 16.6103 27.2501 -0.353448 0.356134 -0.865011
24.8362 10.0357 4.40122 -0.833926 0.500057 -0.233474
4.46789 16.1387 4.19652 0.896171 -0.273553 -0.349351
5.26629 14.7221 23.6656 0.450646 -0.89156 -0.0451471
3.90687 7.89542 27.2491 -0.137337 -0.988824 0.0580097
27.6044 10.4178 8.60365 0.863149 0.450548 0.227992
26.8478 8.44362 25.9142 -0.0206201 0.625916 -0.779618
25.2724 17.9235 6.20204 0.792559 -0.593223 -0.141201
8.54965 11.5437 25.8922 0.667925 -0.544329 -0.507525
3.26925 12.9968 4.64024 -0.392366 -0.662238 0.638349
9.35818 8.67351 27.8945 0.365411 0.794485 -0.485046
14.5894 7.50384 1.79524 0.142313 0.8685 0.474821
6.80881 15.0309 2.00274 0.897093 -0.0534393 -0.438598
3.53166 18.1818 3.42639 -0.107863 0.228129 0.967638
7.84929 11.293 5.27622 -0.539525 0.230746 -0.809734
7.63409 17.27 2.14911 0.774462 0.163505 0.611126
10.6789 20.5808 24.4156 -0.451393 -0.298176 -0.841032
4.02568 22.5191 3.49254 0.455378 0.877447 0.150723
13.0438 14.8816 2.54892 -0.55376 -0.14992 -0.819069
13.2857 17.0355 4.64442 0.915033 -0.354996 0.191553
13.3815 9.79328 24.5212 -0.951938 0.153794 0.26488
11.5318 17.1011 6.44171 0.116568 -0.0676072 -0.990879
12.9701 18.9227 26.7788 -0.754377 -0.624694 0.201673
13.2945 18.5693 26.0118 0.44857 -0.778684 0.438676
8.97174 20.3667 27.182 -0.388458 0.791611 -0.471649
16.2183 16.7508 6.59642 -0.463639 0.673786 -0.57537
14.5451 16.9823 3.92089 -0.612353 0.781101 -0.122085
10.4499 23.0193 3.08139 -0.128321 0.968083 0.215287
14.2669 18.8523 26.9365 -0.687934 0.173356 0.704766
12.7622 18.5466 4.15431 0.376797 0.78981 0.483966
17.3221 8.21682 1.3829 0.00789011 -0.588662 -0.808341
13.5833 14.8748 1.21332 -0.174647 -0.271319 -0.946512
13.4307 22.5583 0.941777 -0.255284 -0.667629 0.699358
19.4403 17.4446 2.68964 -0.856585 -0.0136687 -0.515825
23.1333 17.3698 27.1958 -0.0997381 0.985873 0.134562
15.5756 16.4341 13.2105 -0.575535 0.659227 0.483921
21.5065 11.35 5.0242 0.923288 0.299462 -0.240546
18.3666 18.2094 0.746269 -0.780427 0.610196 -0.136359
22.849 13.9626 3.67185 0.556564 0.393392 0.731764
19.9032 16.1446 7.99647 -0.302769 -0.834657 0.460086
24.9558 16.5441 4.53056 0.140128 -0.455063 0.879364
23.6781 7.01166 4.91446 0.79125 -0.602272 0.105789
21.5183 24.3799 2.79998 0.816132 -0.572312 -0.0799191
24.2 20.7594 4.78726 0.25729 0.218028 -0.941417
21.9688 14.5134 2.83457 0.198938 -0.0382919 -0.979264
20.1418 22.11 1.93324 -0.393497 0.682278 0.616162
24.7083 16.2378 28.0493 -0.742463 -0.56081 0.366389
1.24845 21.9639 4.74451 0.75178 -0.611685 0.246311
23.6391 19.1041 3.70831 -0.483475 0.258725 0.83625
22.8712 12.3554 4.23101 -0.171121 -0.658565 -0.73281
0.240773 14.0495 5.28338 0.67778 -0.587673 -0.441876
27.5303 11.6954 2.71272 -0.804795 0.371987 -0.462527
23.7339 22.1314 6.36902 0.93815 0.258568 -0.230256
22.319 8.60241 11.5301 0.60913 0.773096 0.17687
0.918706 16.4531 26.3847 -0.654357 0.381572 -0.652855
26.356 16.5706 7.51177 0.590533 0.793082 -0.149306
26.1359 10.2067 4.7559 0.593596 -0.620278 0.512737
26.2037 14.4399 9.87404 0.500073 -0.823959 -0.266494
2.36166 16.6264 12.3401 0.985865 -0.0747188 0.14996
2.83764 16.3136 25.1221 0.523881 -0.669374 -0.52677
2.5817 13.8987 3.70795 -0.853734 -0.422617 -0.304194
19.7199 21.3718 9.88599 0.0116969 0.840427 -0.541799
6.75559 18.0894 6.56087 0.996439 0.0842777 -0.00266202
4.41485 15.1502 6.0867 0.792949 0.547195 -0.267973
2.68985 16.2579 8.59876 -0.657836 -0.606815 0.446125
1.15748 13.9728 9.64931 0.0696293 0.187018 -0.979886
15.1769 19.2034 2.94878 0.70652 -0.659363 -0.257039
5.6444 19.9316 3.67012 0.347065 0.574747 0.741089
11.8447 16.605 4.44995 -0.962998 0.225048 -0.148286
5.44098 19.2053 6.35351 -0.52004 -0.447817 0.727336
13.2415 10.8885 2.17888 0.323239 -0.426488 0.844763
15.2282 23.1875 27.3453 -0.86346 0.056424 0.501252
10.9764 16.856 1.40228 0.311003 -0.214606 -0.925862
12.3326 16.1612 8.33681 0.427007 -0.209123 -0.879734
15.3332 24.3043 3.37126 0.651552 -0.157283 0.74212
11.6125 10.6614 0.1793 0.287461 0.669026 -0.685398
8.75593 18.9615 27.9365 -0.395604 0.80266 -0.446356
6.62739 20.6732 1.63278 -0.54905 0.308394 0.776812
9.37364 19.1225 8.3671 0.654929 -0.121451 -0.745867
16.3707 18.5177 1.78808 0.225976 -0.869708 -0.438798
13.21 11.9015 6.89221 -0.220432 -0.973877 -0.0545319
15.0799 19.6915 6.66657 0.944823 -0.0210104 -0.326907
11.1278 17.8176 4.22497 -0.642822 0.594764 0.482738
17.236 21.9572 3.63704 -0.868036 -0.226715 0.441717
13.828 21.5382 2.58465 -0.179621 0.828509 -0.530386
12.9922 20.1238 5.48281 0.641387 0.699279 0.315646
14.4019 17.7057 27.1617 0.456487 0.190818 -0.869027
18.6911 20.7756 2.44133 -0.408311 -0.153915 0.899773
10.8329 14.8708 9.38908 -0.521014 -0.0338657 0.852876
18.1814 18.0988 4.63656 0.447943 0.461239 0.765902
20.6642 21.2871 4.50526 -0.00772695 -0.57338 -0.819253
20.1859 19.1072 3.3351 0.592143 -0.753031 0.286898
21.3217 16.4096 0.221339 0.0897401 -0.109725 0.989903
13.8146 15.7859 6.38462 -0.822222 0.457382 -0.338751
21.966 13.1715 10.7101 0.374805 0.647558 0.663468
20.5317 21.362 7.60368 0.347743 -0.936796 -0.0385684
22.2703 15.4114 27.9355 0.256742 -0.410213 -0.875105
21.7429 19.2624 5.10268 0.833072 0.552226 -0.03221
23.8348 18.2188 4.43971 0.941793 -0.323573 -0.0912491
20.6634 16.5111 4.35291 -0.687574 -0.44571 0.573224
0.681434 15.8443 8.15216 -0.0140098 -0.502067 -0.864715
22.4599 20.3081 3.12913 0.4834 -0.33287 0.809643
23.5322 23.0521 9.69689 0.226434 0.164936 -0.95996
16.7849 14.019 24.7498 -0.760267 0.61991 -0.194179
26.7516 20.6586 26.2604 -0.0262658 -0.712519 0.701161
24.3813 16.3357 7.65219 0.289686 0.77013 0.568315
18.1425 15.6058 6.73549 0.984833 -0.115558 0.129424
27.3481 16.3567 6.86062 -0.421381 -0.667887 -0.613486
2.22445 18.3905 6.25609 -0.948644 0.131362 -0.287782
6.14573 16.8052 6.63294 0.620888 -0.558496 0.550073
26.5448 18.5658 8.45702 0.78282 0.622188 0.0086448
27.8291 21.1354 4.67623 -0.0796416 0.955261 0.284841
0.302326 16.3822 7.17503 -0.225953 -0.916243 -0.330823
10.3623 11.6373 5.24151 0.309266 -0.180937 0.933604
27.6825 19.4245 4.82509 0.40941 -0.888212 -0.208477
8.39515 15.6008 3.27277 -0.442327 0.0381754 0.896041
12.6019 4.14662 2.30382 -0.566349 -0.755874 0.328486
3.15796 23.2985 1.02465 0.405995 0.138439 -0.903329
3.99149 13.3569 7.06476 0.274373 -0.473083 0.837205
9.40839 17.3684 4.10542 0.35768 0.811746 0.461663
6.42502 11.4443 2.00409 0.707215 0.65644 0.262553
1.87843 10.8412 7.96426 0.644616 -0.251879 -0.721822
6.15961 16.235 27.2439 0.357161 -0.197655 0.91289
1.75858 22.0391 27.909 0.974574 -0.164008 0.152663
4.38268 22.9091 1.66954 0.261301 0.941814 0.211444
11.3897 24.551 3.53335 -0.634688 -0.678611 0.369673
9.00615 16.5643 6.74004 -0.981376 -0.0907167 0.169328
9.76158 17.9258 7.73878 0.0769942 0.716332 -0.693499
12.8417 16.9622 27.8324 -0.458417 -0.880083 -0.123729
7.36376 17.2539 6.43323 0.831212 -0.0444224 0.554177
7.48963 17.3382 5.35455 0.842247 -0.442121 0.308461
12.6735 15.4851 1.41362 0.0935256 -0.346319 -0.933443
7.84862 19.2048 0.389823 0.660175 -0.715036 0.229983
11.9767 17.2254 27.2046 0.835137 0.477976 -0.272187
5.89344 17.6349 26.2426 -0.675137 -0.627268 0.388233
24.2901 19.4294 2.06968 0.632663 -0.760799 -0.144646
10.9921 22.0233 4.74539 -0.147482 -0.896633 -0.417491
16.8225 11.947 4.95392 0.179209 0.485416 0.855719
11.8474 22.6478 5.69984 0.271787 -0.962037 0.0248349
21.2335 17.7812 4.63899 0.418705 -0.245388 -0.87434
14.8466 20.6266 24.3335 0.524584 0.809878 0.262505
18.56 19.6882 0.610744 0.505125 0.345803 -0.790739
17.6282 22.2526 0.615236 0.0741241 -0.255775 -0.96389
14.7734 21.3286 3.32362 -0.153138 0.89622 -0.416339
12.3444 21.4874 27.2882 0.0672709 0.775316 0.627981
21.3248 22.0764 11.2683 0.294329 0.821776 -0.487908
15.8332 18.7284 0.618692 -0.228442 -0.596078 0.769744
19.4631 24.155 4.21283 -0.139115 -0.959788 -0.243832
18.9803 20.6919 0.492776 -0.491048 -0.281228 0.824489
14.4954 26.9991 6.74928 -0.231596 0.171189 -0.957631
23.7362 21.7026 2.67671 0.163441 -0.706132 -0.688959
18.0072 16.6586 9.95268 0.569415 -0.106044 -0.815182
20.6618 19.6305 5.00674 -0.365157 -0.568797 0.736974
25.6783 21.322 4.15531 0.658868 0.705363 0.261449
24.8256 24.0727 4.73599 0.658324 0.392853 -0.642087
21.4376 26.7646 2.95052 0.907652 0.228514 -0.352066
26.04 15.5516 1.49245 -0.0922854 0.0357431 -0.995091
21.0152 17.2027 1.82092 0.82782 -0.422076 -0.369549
23.9994 10.5066 3.17096 -0.358366 -0.746821 0.560207
17.5149 20.3499 2.94932 0.326069 0.234492 -0.915802
24.4223 14.0481 2.62753 -0.745692 -0.280956 -0.604158
0.302792 26.4632 1.91527 0.448817 0.50676 0.736042
23.9441 26.1999 5.19809 0.357706 -0.153505 -0.921131
21.0733 18.7678 22.5392 -0.525512 0.738991 0.421579
26.107 14.5939 3.15127 -0.485287 0.871616 -0.069149
28.0122 24.7241 5.68433 -0.1575 -0.0659316 -0.985316
0.64553 22.2122 24.0713 -0.737325 0.675446 0.0111667
2.37342 13.967 5.96958 0.202859 -0.911673 -0.357352
2.30465 18.8486 1.12624 -0.830643 0.422543 0.362615
3.4724 17.0821 9.45988 0.544467 0.467074 -0.696705
1.40278 17.231 7.39509 -0.226768 -0.45659 -0.860292
6.40943 23.9872 6.56727 -0.365502 -0.636146 -0.679504
4.89366 13.6444 7.40035 0.310211 -0.472779 0.824772
4.78007 20.3487 2.8401 -0.700086 -0.44007 -0.562333
7.90753 23.1681 6.10242 0.444683 -0.347288 -0.82562
5.82351 25.2466 5.40807 -0.265656 0.532403 0.803725
1.11688 18.0638 26.6521 -0.0975688 0.666553 0.739045
9.55374 20.8948 5.20587 -0.965835 0.223169 0.13175
4.70443 19.8487 6.74638 -0.545155 -0.583335 -0.602101
3.29624 25.7371 5.80256 0.617777 -0.781056 -0.0911202
12.18 19.8176 27.3608 0.038997 -0.487842 -0.87206
7.11864 19.6625 3.5218 0.608779 -0.721996 -0.328801
13.4345 15.7847 27.9319 -0.185376 -0.902286 -0.389251
27.4916 13.5617 2.95603 -0.232733 0.174138 0.956824
4.48016 17.3688 5.72739 -0.338831 0.478874 -0.80986
15.0298 19.9343 5.75265 0.15271 0.977861 -0.143063
18.9734 20.1855 6.42244 -0.836882 0.54728 -0.0106246
12.8041 20.578 0.88333 -0.690165 -0.721245 -0.0589731
14.3779 16.696 27.6594 -0.286972 0.122374 -0.95009
8.45401 21.8976 8.41763 0.44598 -0.74346 0.498367
8.12429 21.4635 2.01079 0.593023 0.0359013 -0.804385
14.9526 22.8964 5.32552 0.742913 -0.0980883 0.662162
20.0401 17.9402 7.05118 0.682441 0.245702 -0.688407
18.875 23.9046 5.39913 -0.602334 -0.21259 -0.769415
15.8721 2.965 4.21758 0.572638 -0.795337 -0.19881
10.9571 23.258 11.8105 -0.0249783 0.332487 0.942777
13.4173 17.1643 7.71686 -0.428839 -0.617874 -0.659036
15.0618 24.2195 9.95641 -0.747228 0.577668 0.328558
14.6802 26.4141 26.292 0.0859495 0.737881 0.669436
14.9924 1.5486 9.90468 0.488347 -0.770671 -0.409369
17.4976 0.435674 2.83998 0.389508 -0.0994177 0.915642
21.1069 1.6939 1.34126 0.749735 0.628578 -0.206852
17.4886 23.4079 26.5736 0.343493 0.291138 0.892889
15.495 19.2043 1.52385 -0.284277 -0.722251 0.630508
16.2458 18.2792 9.60203 0.567448 -0.609628 -0.553495
22.5152 2.54879 4.96256 0.151577 0.834088 -0.530398
26.1808 13.8168 7.07304 0.838734 -0.544533 0.00306965
23.1427 21.3253 26.3211 0.967282 -0.235031 -0.0955307
28.0317 21.8873 24.6935 0.339832 -0.890833 -0.301549
17.3201 25.153 23.8821 0.0698282 0.97571 0.20764
18.4822 23.3764 21.8037 -0.418548 0.505541 0.754484
19.9572 0.272454 0.0528228 -0.928487 -0.100953 -0.357379
17.8678 15.8436 4.77047 -0.436177 -0.30408 0.846927
15.4641 21.8137 0.0591601 -0.422363 -0.724579 -0.544605
18.8851 14.2541 10.0057 -0.0851665 -0.737863 0.669556
26.871 25.539 24.8467 0.686166 -0.436236 0.582129
2.29373 19.7429 3.00227 0.168614 0.711099 -0.682574
27.4801 18.191 5.85296 0.35947 -0.644805 0.674542
6.54088 20.0069 2.39572 0.0800777 0.644686 0.760241
19.453 27.7474 0.735857 -0.704891 0.685887 -0.180797
26.2564 21.7809 2.68585 -0.526306 -0.692444 -0.493481
25.8734 23.4838 5.03804 -0.869305 -0.0675513 0.489638
1.11792 21.8664 12.0453 0.926955 -0.0934101 0.363358
24.8057 24.1005 23.1051 -0.881537 -0.458267 0.113507
24.6568 22.16 25.6885 -0.91908 -0.394042 -0.00472545
1.41671 27.9065 25.9614 0.0955694 0.952425 0.289401
8.65002 24.6601 5.78829 0.324035 0.86268 0.388309
3.02596 27.9535 3.76197 0.300352 -0.857659 -0.417384
1.30285 27.142 9.62991 -0.759351 -0.285637 -0.584634
2.32563 27.9523 6.67201 0.203509 -0.69678 0.687809
0.971772 22.2178 3.16651 -0.318653 -0.909092 0.268349
5.92158 24.1794 1.85352 0.112875 -0.769687 0.628364
5.40629 17.8464 4.11247 0.52256 0.789086 0.322915
4.60177 2.35545 6.41892 0.991788 -0.0428448 -0.120503
1.29611 24.8031 0.988842 -0.993365 -0.0471726 -0.104882
0.549828 21.8344 1.57258 0.0726333 0.291934 -0.953677
3.3926 14.7981 0.0361803 -0.28919 0.891717 -0.348152
6.11544 27.3868 4.6131 -0.0317956 0.410061 0.911504
7.58467 20.7636 3.79788 -0.330192 0.0098806 -0.943862
6.8799 18.6934 2.91376 -0.351728 -0.334589 0.874264
12.8941 25.3309 11.2686 -0.729828 -0.0035078 -0.683622
7.0354 24.0955 26.8583 -0.645969 0.324972 0.690737
5.3999 26.2768 5.28024 0.418017 -0.0886244 -0.904106
10.8352 6.34981 6.40884 -0.44243 -0.738175 -0.509267
8.71414 18.7735 2.35211 0.897377 -0.388736 -0.208801
12.6637 25.3673 1.11984 -0.620823 -0.451369 0.640971
9.75693 19.3722 4.14273 0.2867 0.914924 0.284108
12.632 17.7577 5.51292 -0.783827 -0.270995 -0.558728
17.0892 26.4996 4.6046 0.337374 0.0369653 -0.940645
13.9061 0.620286 4.04356 -0.263628 0.96231 -0.0667795
18.7017 26.5437 2.90008 0.970019 -0.230252 -0.0777605
14.2573 0.175125 8.78097 0.758571 -0.135151 -0.63742
16.1396 25.0438 3.83705 0.863947 -0.463707 0.196397
18.4218 26.9903 5.98397 0.609601 0.589322 -0.530175
10.208 19.6517 5.31746 -0.5362 -0.714755 -0.449015
15.5289 27.5998 5.06465 -0.409905 -0.78092 0.471319
16.8936 1.53737 25.7411 -0.559566 0.828636 0.0157843
17.8922 18.5343 3.60383 -0.441513 -0.686587 -0.577637
25.3974 3.37025 1.79562 -0.268351 0.940149 0.210019
18.3459 23.0248 0.880625 -0.158116 0.811828 -0.562081
22.1574 24.2635 0.8014 0.588068 -0.731754 0.344547
14.0658 5.11056 2.4562 0.9657 -0.139532 -0.218984
18.6339 27.7632 9.21323 0.24098 -0.964554 -0.10754
22.0942 26.2979 25.4277 0.12348 0.288594 -0.949456
18.9274 21.6795 5.87304 -0.393595 0.71004 -0.583889
24.6463 3.53911 4.29463 0.539481 0.554879 -0.633301
23.7374 25.496 7.10658 0.438302 0.500737 -0.746427
16.3973 3.46681 10.5519 -0.505075 0.365396 0.781911
26.9443 23.2527 27.8945 0.0161816 -0.959084 0.282657
20.3634 21.2108 10.9932 -0.751679 0.58642 -0.301811
24.4859 25.8253 27.8196 0.219794 -0.612558 0.759252
21.8258 24.3658 5.66072 0.944769 0.146679 0.293083
7.37902 23.3701 2.96754 0.252365 -0.0548175 -0.966078
26.8728 23.0729 5.32295 -0.393206 0.680314 0.618516
23.8006 20.1153 8.79692 0.205574 0.58029 -0.788037
22.0858 0.0770683 25.8993 0.720071 0.123541 0.682814
27.503 23.2145 3.28236 -0.13582 -0.470999 -0.871615
27.8165 23.5391 0.920572 -0.712901 0.443801 -0.542966
5.91715 23.0658 26.3957 -0.0514905 0.676251 0.734869
3.55363 24.1223 2.71859 -0.563364 -0.371435 0.738009
24.6546 0.2972 4.44486 0.152018 -0.344169 -0.926519
25.303 22.6294 4.98443 -0.860309 -0.0234091 0.509236
0.79869 0.457099 3.4039 0.431396 -0.0265801 0.901771
0.0958493 22.5086 2.6132 -0.0800741 0.0269727 -0.996424
8.83719 19.8259 2.25994 -0.529583 0.492137 0.6909
25.5847 24.1493 0.637467 -0.146183 0.921948 -0.358669
2.40129 19.2669 2.06653 0.914268 0.23797 -0.327847
27.6466 24.7691 3.20873 0.471651 -0.771421 0.427148
12.6222 24.7507 6.5839 -0.75892 0.430277 -0.488777
4.25732 26.4173 7.13742 0.0292242 0.843552 -0.536252
6.63643 21.646 9.46181 0.131243 -0.364062 -0.922081
4.01213 27.1798 24.3991 0.735876 0.400798 0.545754
5.41801 26.0709 27.8072 0.247196 0.910065 -0.332681
9.67707 27.0397 8.91603 -0.877965 0.470237 -0.0897458
5.55641 26.3486 23.5828 0.583124 -0.369461 -0.723509
2.87919 21.9627 3.02479 -0.517981 -0.454717 0.724519
8.38378 23.9454 6.65613 0.72303 -0.687233 -0.0702727
8.65903 17.9776 4.08737 0.387699 0.65632 0.647251
12.7574 17.9945 9.0301 0.968299 -0.236044 0.0817368
6.77457 0.864278 1.41207 -0.906381 0.387714 0.167786
6.52421 18.8301 26.5729 -0.236497 -0.215996 0.94732
8.86165 1.41207 2.65749 0.241805 0.887081 0.393213
14.8245 22.2082 1.96218 -0.128815 -0.940509 0.314405
9.26476 0.478883 6.24781 0.769416 -0.624466 0.134322
5.25273 27.4402 0.238908 -0.700635 -0.32335 0.636047
14.5674 25.86 7.13763 0.477211 0.304341 -0.824407
18.5414 3.33114 6.36674 0.386306 0.859927 0.333606
12.4694 27.6684 4.27284 0.376861 -0.352333 -0.856643
11.5276 6.64331 3.81492 -0.506469 0.672632 0.539495
17.1155 1.24301 3.63185 -0.702065 0.382437 -0.600706
20.7002 1.35076 5.92603 0.406405 0.913415 0.0225269
16.4313 26.7428 1.47164 -0.633624 0.766102 0.107741
16.6602 2.20125 0.366011 -0.999367 0.033632 0.0116264
21.0165 0.325906 2.07746 -0.0214678 0.295457 -0.955115
16.8737 20.7611 6.0324 0.103679 0.921525 -0.374223
13.4016 1.08635 5.13412 -0.372622 0.891957 0.256057
18.9399 26.4686 1.37913 0.594849 0.139028 -0.791724
20.5908 25.4582 1.82524 -0.844419 -0.363654 0.393336
24.2221 3.21896 1.39043 -0.819618 0.540868 0.188912
17.7575 25.3854 3.97501 -0.903647 0.283938 -0.320627
19.7402 21.1418 3.5323 -0.277434 -0.590056 -0.758198
18.4028 27.7991 4.49473 -0.28539 -0.0728508 0.955639
24.0312 20.957 25.3914 0.77737 0.57105 -0.263816
20.5514 22.7456 5.77648 0.900129 0.239527 0.363862
23.7939 23.54 0.609272 0.709299 -0.651664 0.268754
22.693 23.9034 14.0201 0.181157 -0.446516 -0.876245
26.6365 24.023 3.59969 0.634218 -0.0626375 -0.770613
4.21758 20.8683 21.534 -0.744173 -0.662704 -0.0838448
27.9981 19.7031 1.44461 0.435081 -0.73897 0.51442
20.8814 27.5753 1.46996 0.244274 -0.11461 0.962909
23.0837 25.6114 1.41546 0.0134596 0.948787 0.315629
2.58863 3.8566 5.5659 0.797006 0.602395 0.0436049
23.0233 27.7037 3.076 -0.733172 -0.536575 0.417787
25.0094 20.7023 2.46215 -0.57659 -0.391775 -0.716977
3.65488 21.3606 9.37991 -0.381862 -0.872983 -0.30345
25.0879 24.8926 5.60983 -0.522657 0.0967638 0.847034
23.8547 2.8575 24.5011 0.520254 -0.141742 0.842167
0.865853 2.42066 4.39753 -0.657603 0.668837 0.34672
23.6786 27.8949 9.0473 0.13018 0.833547 0.536891
26.9974 26.3818 4.79455 0.195659 -0.551621 -0.810822
0.479108 5.26424 27.8546 -0.958023 -0.0410721 -0.283734
27.5227 2.75319 3.45036 0.505748 0.573806 0.644178
2.3778 0.4917 2.42646 0.198327 0.77565 0.599195
5.70225 21.4039 7.64772 -0.66994 -0.128161 0.73127
26.6776 21.3866 3.66632 0.347974 0.855909 0.382537
6.38369 19.5604 4.35074 0.21312 0.518279 0.828231
8.84568 25.9354 2.30581 0.110491 0.218724 0.969511
7.2241 24.1701 27.9823 -0.774831 -0.0435757 0.630665
7.1974 26.5824 6.50171 -0.41069 0.193935 0.890911
3.54354 25.1867 7.0439 -0.105016 -0.78545 0.60995
10.7419 23.1879 7.10994 0.544485 0.561178 0.62339
6.72037 17.3682 0.0644958 -0.447554 0.892054 0.0627278
13.5263 1.21604 3.1955 -0.926105 0.244759 0.287092
12.6523 3.47609 26.1412 -0.47366 -0.255412 0.842859
13.1478 24.4492 4.3978 0.363409 -0.0326005 -0.931059
14.0232 2.21685 26.0403 -0.521128 -0.686898 0.506554
12.894 20.2875 26.8483 0.077549 -0.353029 -0.932393
19.5821 1.56012 1.81118 0.0928228 0.365433 -0.926198
14.0088 0.566745 1.12161 -0.0357371 -0.141905 -0.989235
9.18109 23.576 5.60576 0.261744 0.597085 0.758274
11.7583 3.03167 6.80093 -0.379251 -0.87672 0.295857
8.75778 27.7613 5.95729 -0.503471 0.656334 0.56191
24.438 2.03715 27.2739 -0.281296 -0.356863 0.890798
11.6993 2.89097 1.68953 0.725654 -0.239981 0.644853
8.39566 27.9733 27.6559 0.803717 0.473063 0.360903
10.9724 24.6091 9.18292 0.52259 -0.185021 -0.832266
11.0155 27.9114 2.95344 0.608423 0.784299 -0.121226
12.6581 4.33418 3.97511 -0.260232 -0.910817 0.320456
17.9375 2.41179 3.13236 -0.854251 -0.285073 -0.434728
13.2665 26.2728 4.39191 0.826165 -0.490896 0.276537
21.8415 27.1708 8.14901 -0.873875 -0.000400877 -0.486151
14.9698 3.34379 27.6558 -0.827519 -0.489277 -0.275357
19.3028 0.21126 25.4925 -0.138701 0.987792 -0.070914
22.0413 3.06621 5.70591 -0.173983 -0.760301 0.625837
18.9034 3.26 4.25597 0.277787 -0.542517 0.792786
23.8204 5.00768 6.91897 0.330439 -0.686264 0.64796
20.7205 2.30048 2.12953 0.446914 -0.0481028 0.893283
21.8014 28.0444 1.05016 -0.00135257 -0.982431 -0.186622
27.0818 3.69285 3.57342 0.172497 0.289643 -0.941463
26.4717 26.948 3.43579 -0.0861362 -0.0891682 0.992285
14.4433 2.97679 5.72534 0.43037 -0.786083 0.443683
22.529 27.6096 6.2048 0.176404 0.0171588 -0.984168
25.2725 3.01719 5.08014 0.128855 0.869012 -0.477719
17.7381 0.933794 0.306069 0.591693 -0.569464 -0.570622
28.0525 4.1189 1.18265 0.257817 -0.479307 -0.838925
21.1619 4.08039 2.11062 0.958376 -0.231118 0.167631
23.5937 27.2483 1.26702 -0.945099 -0.283823 -0.161962
25.7485 25.7123 25.0137 -0.643179 -0.0763452 -0.7619
26.444 27.2283 8.33328 0.648442 -0.735481 -0.196443
