8.27653 15.1089 16.6647 0.1668 -0.359576 0.918087
9.80363 11.6159 16.0289 0.59996 -0.677964 0.42475
11.4136 13.4461 2.87542 0.0375387 0.24961 -0.967618
11.1742 14.1322 14.5508 -0.51176 0.81717 0.265208
12.335 14.0174 2.89434 0.172436 0.183606 -0.967757
9.66029 15.2675 15.596 0.816137 -0.575516 -0.0519793
13.6673 15.7236 15.8995 -0.266787 -0.38934 0.881612
13.7008 13.7204 5.51015 0.657322 -0.443183 -0.609522
8.53116 11.1327 13.9207 -0.0405974 -0.59985 0.799082
18.1109 11.9949 15.2498 0.429081 -0.105517 -0.897082
16.7209 13.4514 15.5915 -0.334995 -0.176574 0.925527
17.1543 11.3521 15.0103 -0.277333 -0.157206 0.947825
18.6275 11.3161 17.2136 0.724628 -0.489398 -0.485184
17.8312 10.2429 16.9121 -0.975207 0.15483 0.158113
15.1216 13.806 4.57161 0.676112 -0.54804 -0.492468
18.1468 8.6839 16.2236 -0.697101 0.554676 0.454296
18.5582 13.0593 4.1328 -0.614271 0.787331 0.0527396
16.7808 10.3422 5.40545 0.0719612 0.59813 -0.798162
17.914 11.1596 16.3585 0.760196 -0.304918 -0.573696
20.0324 12.7695 10.3334 0.181248 0.183597 0.966148
20.974 9.36551 3.8431 0.869582 -0.27682 -0.408898
19.7621 11.0796 6.87529 -0.100858 -0.674979 -0.730911
21.0916 10.5592 2.68087 -0.540353 0.410008 0.734787
7.48504 13.2349 3.37476 -0.416097 0.0396769 -0.908454
19.3776 14.1551 4.69192 0.165302 -0.974549 -0.151424
6.86588 13.8419 4.14533 -0.494674 0.331537 -0.803355
20.8745 14.5223 4.63567 -0.451668 0.377593 -0.808344
9.42506 14.506 2.97875 0.105693 -0.156929 0.981938
20.9268 19.9622 13.8901 0.311801 -0.0835627 0.946466
19.9597 19.7154 14.5278 0.245884 -0.208106 0.946696
13.07 16.5671 16.464 0.107271 0.530376 -0.840949
14.8135 15.6411 15.7844 0.225249 0.291781 -0.929584
14.2567 16.5703 16.4007 0.0270079 -0.348993 0.936736
12.3629 15.9262 15.7271 0.457033 0.508564 -0.729715
17.1686 17.3604 16.5816 0.293402 -0.130399 -0.947054
12.6942 13.3608 15.1778 -0.17401 -0.239209 -0.955248
12.9522 14.8741 11.3237 -0.318173 0.367845 0.873759
9.52073 12.8358 12.9385 -0.958437 -0.274717 0.0770034
15.8078 18.4053 17.0945 0.987762 -0.102242 0.117786
17.8645 13.1201 15.8043 -0.316072 0.0330467 0.94816
17.5164 14.1686 16.7207 -0.833089 -0.382899 0.399188
18.6176 12.4052 16.4313 0.531059 -0.151267 -0.833723
16.4484 17.8004 4.68287 -0.0874759 -0.13048 -0.987584
14.9996 11.6019 16.8652 -0.273016 0.212493 0.938248
19.1403 9.5396 6.18995 0.399529 -0.805162 -0.438281
19.1462 12.2077 6.56183 0.186325 -0.586286 -0.788386
15.7361 10.6859 5.87706 0.47002 0.709253 -0.525396
19.894 12.6846 5.66599 0.266672 0.473175 0.839638
20.0633 17.7833 13.7333 0.0696508 -0.508893 0.858007
7.03945 10.8882 15.867 -0.575073 -0.147273 -0.804737
19.5138 16.1353 4.08933 -0.395378 0.316103 0.862413
20.0138 12.9906 8.14183 0.0841345 0.370103 0.925173
20.3307 15.2879 5.47548 0.387989 -0.00452585 0.921653
20.5493 17.5857 5.48404 -0.131386 -0.103887 -0.985873
9.66306 18.2282 4.18849 0.175472 0.909104 -0.37781
12.6932 17.6019 16.9544 -0.0636325 0.065433 -0.995826
9.16714 17.3484 15.931 0.420568 0.875752 -0.237026
20.9341 18.2111 11.2869 -0.324573 0.266914 0.907419
9.85679 16.8259 7.31586 -0.573656 0.19266 -0.796116
11.9795 16.6452 16.6292 0.056855 -0.359571 0.931384
14.906 17.4267 16.729 -0.114767 -0.138276 0.983722
11.6493 15.3008 11.7015 -0.465796 0.393401 0.792635
13.3513 18.5677 16.8369 -0.325763 0.0858144 -0.941549
16.4694 20.0442 17.1074 0.880149 0.462234 0.108059
18.2105 20.0302 2.82712 0.771841 0.602085 0.204342
15.2306 17.4402 4.46515 -0.0499017 -0.274565 0.960273
15.4874 17.195 6.66432 0.184049 0.470011 -0.863259
16.0375 16.6093 4.25157 0.43358 0.255091 -0.864255
14.9966 20.4324 4.41222 -0.385799 -0.229118 -0.89368
16.4835 18.4512 7.42551 -0.205305 -0.191185 -0.959843
15.9357 15.4515 16.0772 -0.363383 -0.366209 0.856647
15.3812 11.5715 4.78257 0.278203 0.951068 0.134436
16.2105 19.2135 6.09758 0.393544 0.690218 0.607225
19.5876 18.5023 14.5203 0.143924 -0.508178 0.849141
17.0764 20.0439 3.51466 0.539789 0.814479 0.212726
21.1459 17.8961 13.6273 0.0159151 0.553463 -0.832722
19.6888 19.2632 3.18338 -0.858767 0.338237 0.384858
18.8232 17.741 13.937 0.288102 0.563691 -0.774113
20.705 19.5098 3.76707 -0.8765 0.0453339 0.479262
11.4688 16.4123 5.58918 0.500592 -0.232835 0.833784
20.6316 18.7549 14.1154 0.139477 -0.343179 0.928856
12.2581 18.5193 2.71457 -0.276041 0.114787 -0.954267
7.74787 18.7252 5.33752 0.0190509 -0.715202 0.698658
9.35175 16.8908 3.21633 0.0152284 0.500961 -0.865336
10.3886 17.4804 3.6542 -0.201637 -0.894047 0.400027
10.2807 18.1182 16.5262 0.0988724 0.641642 -0.760605
9.88877 18.249 5.28738 -0.414571 -0.809979 0.414807
10.7761 17.9141 4.66741 -0.467388 -0.813649 0.345721
14.258 19.366 16.9466 0.396475 -0.00822434 0.918009
11.7428 19.7437 2.93071 -0.158043 0.605595 -0.779921
12.5481 20.7068 17.1766 0.119102 -0.366084 0.922928
13.2497 20.9582 5.00212 -0.619502 -0.305138 -0.723263
17.9186 8.67919 14.6379 0.843167 0.483619 0.234908
16.5405 21.1899 16.839 0.365601 -0.240899 -0.899057
16.573 21.6438 3.98519 -0.549745 0.316534 0.773037
17.6408 15.5688 17.0977 -0.740432 0.152472 0.654608
15.4365 21.4791 16.828 -0.254321 0.426413 0.868039
14.6713 20.5935 16.8865 -0.111958 0.378315 0.918881
17.4021 21.8317 16.9441 0.673583 -0.733003 -0.0948318
17.9889 18.9874 3.8534 0.525799 0.280883 0.802895
17.9432 20.9963 6.14666 0.0584334 -0.164832 -0.984589
17.6889 21.5992 4.49147 0.615468 0.765817 -0.186342
17.2854 19.1043 6.97275 0.102988 0.603711 0.790523
20.6502 18.6525 4.78061 0.843413 0.336182 -0.419091
17.9536 22.1666 5.69459 -0.686903 -0.318097 0.653436
20.306 20.5435 3.38138 0.828121 0.137516 -0.54342
18.6645 21.0913 4.11073 0.458286 0.838925 0.293562
8.63344 17.4937 3.88361 -0.103297 -0.652119 0.751046
8.72433 18.3843 4.74939 -0.0905849 -0.848133 0.521981
8.88952 22.1518 5.07307 -0.437355 0.651095 0.620319
10.607 22.6769 2.68677 0.097894 0.537596 0.8375
10.9224 18.1788 5.92435 -0.257616 -0.665837 0.700211
9.47244 10.7567 5.02477 0.893595 -0.00175056 -0.448871
9.63813 8.69695 3.33395 0.416812 0.329483 0.847177
11.1958 21.2774 16.0551 0.768676 0.196075 -0.608844
12.8252 19.4798 2.66419 -0.366856 0.305337 -0.878741
8.27127 20.374 3.13525 -0.754209 -0.416735 0.507445
13.5587 20.2358 16.9386 -0.273623 -0.0238311 -0.961542
8.55588 19.1617 3.06521 -0.764816 -0.603899 -0.224418
14.7212 21.1534 6.88306 0.0145271 0.267077 0.963566
16.717 9.20568 15.3742 0.173539 0.407843 0.896409
8.20914 21.5506 15.0506 -0.0496683 -0.669454 0.741192
16.0849 9.97568 4.5483 0.636757 0.146386 -0.757041
15.6898 9.1626 6.76456 0.345564 0.279504 -0.895803
17.9017 22.8911 2.60202 0.901736 -0.381185 -0.203887
16.8681 23.0462 16.2063 -0.304487 0.655602 0.690995
14.9184 22.5189 7.5631 0.332301 0.343704 -0.878319
16.7975 20.6698 9.88413 0.505686 -0.289832 -0.812576
19.6876 22.8159 2.72011 -0.790727 0.502973 0.348953
17.1246 21.959 9.97447 -0.441821 0.138313 0.886377
16.3428 19.6301 9.40519 0.594935 -0.277169 -0.754473
18.8546 20.2323 5.46684 -0.0397024 0.270141 0.962002
20.7462 9.58687 5.09436 -0.952127 0.112541 0.284234
18.0055 17.4744 13.2325 -0.633621 -0.304325 0.711274
15.8346 20.9107 9.41522 0.401902 0.103191 -0.90985
8.00911 19.3343 6.26007 -0.00672728 0.730863 -0.682491
9.44217 9.90394 6.28452 0.874411 -0.469169 0.123635
10.8747 10.7869 5.64304 0.324807 0.483024 -0.813135
8.97021 11.998 5.01383 0.74896 0.477431 -0.459476
9.30407 22.3625 8.91852 -0.219046 0.890323 0.399179
7.73817 9.89264 3.49988 -0.28814 -0.094487 -0.952915
11.6933 20.2367 15.6374 0.80503 0.529999 -0.266512
9.6795 21.5639 5.79699 -0.113801 0.628791 0.769202
10.0972 20.5682 9.42079 -0.802942 0.0695406 -0.591987
13.9126 11.4389 3.64251 0.494813 0.256523 0.830275
15.1298 22.2203 15.49 0.00238942 -0.553196 -0.833048
10.3791 9.23677 2.69473 0.593974 0.16786 0.786777
12.8214 8.57629 5.16735 -0.4365 0.540708 -0.719098
14.8819 10.5637 17.1852 0.163349 -0.330744 -0.929476
14.5696 23.1993 15.0578 0.220646 0.489259 0.843766
13.7352 9.22546 5.26909 -0.173413 0.511909 -0.841355
16.3831 22.2144 5.68274 0.626312 -0.750682 -0.210262
14.2635 10.874 15.2128 -0.0694399 -0.120843 -0.99024
15.735 9.90791 2.78577 -0.244996 0.307528 0.919458
15.9983 21.9416 9.89607 0.180164 0.256155 -0.949698
18.9982 19.4556 11.3134 0.798749 -0.499161 -0.335914
16.4942 22.9921 4.72078 0.571441 -0.632807 -0.522503
17.3561 20.0786 5.28314 -0.267747 0.226519 0.936483
17.0129 23.1734 6.00566 0.400937 -0.405926 -0.821263
7.02707 22.5544 7.17728 -0.0942425 -0.701555 -0.706356
16.9621 20.9334 7.36422 -0.403418 0.208339 -0.890982
15.769 21.8236 7.62472 -0.231811 0.053403 0.971294
21.0519 8.72148 6.8627 -0.292232 -0.682328 -0.670097
7.73373 11.0379 3.74428 -0.386982 -0.0419256 -0.921134
21.4678 11.6135 4.02802 0.424488 -0.0320077 0.904867
8.9604 13.6268 6.57217 -0.404575 -0.411487 0.816699
8.55181 13.0727 5.59161 0.504068 0.0861293 -0.859359
8.39817 21.3725 5.89011 -0.46043 0.607123 0.647616
8.4822 11.6196 3.16496 -0.462538 0.094298 -0.88157
9.4804 9.7748 3.0886 0.556992 0.285398 0.779941
9.43192 11.1444 2.78644 -0.430324 0.291874 -0.854185
13.4389 9.69274 2.65078 -0.313619 -0.482596 -0.817768
9.89765 13.8331 15.2791 0.719277 -0.484028 -0.498355
12.8285 22.6765 15.8433 -0.48057 -0.478496 -0.734911
11.6638 9.9758 2.628 -0.291646 0.245907 -0.924377
12.1529 10.2187 6.42833 -0.506166 0.0564807 -0.860584
12.2817 10.0642 15.7418 0.10723 -0.416409 0.902832
14.3939 10.1068 5.74249 -0.0146822 0.034696 -0.99929
12.2911 11.3349 6.37201 0.808784 -0.311008 0.499142
11.6664 23.1794 3.60343 -0.11605 0.553439 0.824765
16.4278 10.2721 14.9478 -0.280822 -0.110686 -0.953356
15.0082 11.6088 14.4792 0.0367851 0.316304 0.947944
14.9616 11.5848 5.83222 0.81698 0.57083 0.0818336
17.8247 22.67 8.45652 0.650735 -0.579687 -0.490414
15.829 11.1665 3.49174 -0.713969 0.582063 0.389167
19.0966 10.6537 5.42262 -0.67306 0.391438 0.627509
15.4042 22.9632 13.6671 -0.280034 0.721104 -0.633711
21.374 9.16004 5.92564 -0.00759466 0.829678 0.55819
20.3356 23.2153 4.70314 0.956974 0.163062 -0.240025
9.40817 12.4848 6.44775 0.160002 0.343631 -0.925374
21.1815 15.6138 4.74647 0.488201 -0.274427 0.828462
9.54483 11.4075 6.13877 -0.974139 -0.209763 0.0839842
7.52907 14.3683 3.13162 0.379194 -0.166027 0.9103
7.5845 12.1549 3.59274 0.368591 0.0827429 0.925902
12.3514 15.176 3.01761 0.321778 -0.0282554 -0.946393
8.55362 13.8072 3.08946 0.332918 -0.0596703 0.941066
10.4461 12.5995 15.6971 -0.871973 0.457137 0.175182
10.5772 11.62 3.03701 0.273825 -0.371454 0.887154
10.3441 15.0794 3.13171 0.0163521 -0.0549684 0.998354
13.4506 13.6297 2.87709 -0.0635988 -0.261864 0.963007
11.2558 15.7849 2.96133 0.12608 0.146021 0.981214
10.4333 10.3905 2.83189 0.662343 0.0350622 0.74838
13.498 14.2505 14.5489 0.0640443 -0.278898 0.958183
12.82 11.9224 4.37082 0.727272 0.653214 0.21068
13.2702 10.2541 14.5994 0.150121 -0.979883 -0.131499
12.4471 11.7918 16.9152 0.290999 -0.161072 0.943067
13.7782 13.0173 15.0007 0.169796 0.142509 0.975121
14.4225 12.4035 5.36549 0.754748 0.5954 0.275415
17.315 12.8797 3.87577 0.771221 -0.521933 -0.364422
15.4453 12.725 2.93612 -0.222155 -0.140451 0.964842
12.8877 16.5917 10.4279 0.707614 -0.358605 -0.60884
15.999 22.9444 7.79647 -0.270373 0.138854 0.95269
15.86 13.4263 6.59165 -0.615212 0.780134 0.1136
16.0435 11.1438 16.8321 -0.0744913 -0.806795 -0.586117
16.1946 14.3851 4.09318 0.538496 -0.369447 -0.757318
20.6594 16.3933 5.54363 0.35948 -0.095187 0.928285
20.3479 14.0932 6.20318 0.114573 -0.0170975 0.993268
20.8715 10.9732 6.73656 0.185284 0.439579 0.878886
6.93187 17.4745 5.86819 0.0340291 0.629481 -0.77627
7.08992 14.9635 4.09131 0.41568 -0.175055 0.892505
20.9663 13.435 7.69543 0.0641275 0.536689 0.84134
20.8379 12.3854 8.56108 -0.023717 0.225168 0.974031
9.97608 16.1678 17.2664 0.334882 -0.143317 0.931297
9.32774 14.7187 14.5146 0.77528 -0.495521 -0.391663
13.7616 17.5158 16.8457 0.00286199 0.160652 -0.987007
11.5207 12.2601 2.72419 0.10035 -0.369413 0.923831
12.544 17.8379 7.53306 0.171204 0.247053 -0.953758
12.1663 14.3192 15.2025 -0.378482 0.0553803 0.92395
12.5777 16.2951 3.84192 -0.441965 -0.401166 0.802329
14.669 13.9939 14.7065 0.241274 0.190771 -0.951521
16.8096 16.2885 16.676 0.571311 -0.10941 -0.813408
14.1872 14.8653 15.3778 -0.143656 -0.401419 0.904558
15.6964 13.7378 15.1274 -0.250927 -0.257362 0.933167
11.4417 13.2613 15.3955 -0.542611 0.72486 0.424443
13.6614 16.2924 4.27465 -0.265154 -0.252431 0.930576
16.0284 13.4375 7.77913 -0.523554 0.844985 -0.109051
17.2176 16.9765 5.01353 -0.163335 -0.591319 -0.789724
16.7818 12.834 2.86829 -0.652326 0.585606 0.481183
14.4717 17.5473 7.38472 -0.0893387 -0.214203 0.972695
16.0443 15.0729 7.29931 0.452353 -0.39701 -0.798599
14.5574 13.4101 2.76703 0.0468449 -0.0150185 -0.998789
16.6774 11.9114 3.53851 0.631828 -0.581966 -0.511965
19.5782 17.2685 3.93472 0.38765 -0.473282 -0.791032
21.2305 16.7741 4.34741 0.474046 -0.0497993 0.879091
19.4456 13.7624 7.36403 0.018505 0.157159 0.9874
20.3 11.6918 5.97904 0.224866 0.533331 0.815471
21.4456 16.1438 9.08799 0.228809 0.452432 -0.861946
9.19891 15.5819 3.20825 0.322516 -0.177625 0.929749
21.2424 14.8687 11.2407 0.331908 0.207171 -0.920281
8.28806 16.4503 3.01196 0.103856 -0.185635 0.977115
21.1023 17.9732 7.87705 -0.564024 0.608457 -0.558263
11.1323 17.2062 8.9526 0.89087 -0.297335 -0.343427
11.5517 17.564 7.10484 0.243886 0.602597 -0.759866
11.5044 17.7823 16.5032 -0.23297 0.276776 -0.932266
11.5842 18.4707 7.93939 0.340977 0.301151 -0.890529
10.8954 16.8395 17.0239 -0.0703217 0.119714 -0.990315
11.8731 17.826 5.23695 0.128531 0.576304 -0.807064
18.3462 17.8105 17.0381 0.699403 -0.094399 -0.708467
12.548 16.8402 5.00863 -0.0978053 0.623539 -0.77565
15.4157 16.385 16.3689 0.0769498 0.2409 -0.967495
17.9495 16.659 17.1039 -0.598424 0.0311921 0.800572
16.1859 19.9213 5.07292 -0.00855775 -0.566956 -0.823703
15.8675 20.0873 3.71317 -0.443274 -0.663334 -0.602907
14.5073 16.5112 6.60032 0.42787 -0.00147634 -0.903839
16.2464 16.5132 6.22148 0.0821097 0.357112 -0.930446
16.8475 15.0504 16.5935 -0.506954 -0.315412 0.802193
17.268 16.1563 5.98676 0.0171575 0.525387 0.85069
19.3473 17.5522 5.91927 -0.261102 0.512919 0.817765
17.6262 17.9171 4.45538 -0.396039 -0.497226 -0.771958
19.4755 12.0169 2.77611 0.673518 -0.668874 -0.314612
18.6071 15.899 3.01396 0.817953 -0.0162903 -0.575054
18.3049 17.0525 4.91938 0.238035 0.785143 0.571743
20.3867 18.6912 6.16283 -0.821854 0.0102425 0.569606
19.3136 15.213 5.80998 0.12301 -0.987421 -0.0993385
20.4018 20.756 6.73248 0.938797 0.31197 -0.146068
20.6835 19.5758 5.23082 -0.994274 -0.0533077 -0.0926182
7.72679 18.158 4.36321 0.0231726 0.784253 -0.620008
10.654 16.5594 6.41258 0.700041 -0.206099 0.683714
7.67821 8.8717 5.27783 0.0410293 0.926938 0.372966
9.9448 19.2358 7.37902 0.520812 0.596194 -0.610989
11.4585 19.918 4.25938 0.974368 -0.109496 0.196514
10.4518 19.8278 3.0985 -0.52376 0.721025 -0.45365
10.6933 18.2505 7.34308 -0.221363 -0.683776 0.695305
13.4461 19.1751 5.00087 -0.644382 -0.237054 -0.727033
11.5344 17.5584 3.83693 0.055834 -0.877224 0.476824
10.8881 19.2053 16.9597 -0.252451 0.878476 -0.405647
15.2739 21.387 3.94756 0.131825 -0.516311 -0.846194
15.2827 18.6044 3.92264 -0.678747 -0.0518004 -0.732543
15.7848 22.5096 3.68791 0.343999 -0.304447 -0.888243
11.3834 20.8436 3.62115 -0.415282 -0.151827 -0.896933
13.7793 23.1652 3.01167 0.0570953 0.728368 0.682804
13.3945 17.1113 7.38712 0.272978 0.250424 -0.928854
18.3676 21.8647 3.25428 0.921813 -0.335824 -0.193606
14.6072 8.8576 11.478 0.0370573 -0.333125 0.942154
14.4403 8.96774 7.18788 -0.266731 -0.271581 0.924715
17.3833 17.288 8.93222 0.0307394 -0.0558247 -0.997967
16.9609 18.8372 4.6034 0.188697 0.297734 0.935814
17.2176 19.3879 10.498 -0.623068 0.689704 0.368909
16.0934 17.8447 9.31916 -0.553429 -0.00385517 0.832887
7.33852 21.2001 4.82186 0.990078 -0.00518134 -0.140423
19.5687 21.9045 5.37206 0.67826 0.723816 0.126703
20.0314 18.3432 3.84491 -0.645447 0.523911 0.555802
20.9763 21.7233 5.71358 0.867036 0.382461 -0.319332
21.246 20.5753 5.71513 0.983827 0.0801982 0.160162
8.84995 18.8138 5.70547 0.0442302 0.855223 -0.516369
9.1345 19.4879 6.52874 0.158131 0.79049 -0.591709
7.9565 11.9701 6.68272 0.510095 0.44753 0.73452
8.98643 22.9805 7.98337 0.350396 -0.854409 -0.383677
7.07415 11.8746 8.64384 -0.651519 -0.661892 0.370705
9.97353 18.6121 6.30697 -0.507324 -0.712281 0.485055
7.61013 20.0025 8.32675 0.307419 0.890112 -0.336445
11.985 21.5555 3.06303 -0.642703 0.187777 -0.742747
12.4115 9.04077 15.253 -0.121374 -0.176428 0.976802
12.8507 21.9615 17.1258 0.511575 0.0209516 0.858983
9.97054 20.0172 5.24514 0.362485 0.300716 0.882142
13.2062 22.8244 3.98609 -0.672675 -0.366465 -0.642816
15.5081 20.7159 7.87747 0.453293 -0.164359 -0.876077
15.3782 21.7274 5.85503 -0.609423 0.458304 0.646963
11.8467 22.9279 5.78589 -0.620271 0.629458 -0.468024
14.0249 21.1998 4.20992 0.484977 0.134789 0.864077
15.4302 9.11768 9.86291 0.0309035 -0.131954 0.990774
16.1949 22.0326 16.0706 0.325985 -0.527315 -0.784648
13.4477 21.3561 16.2766 -0.356164 0.172633 -0.918338
16.3492 17.4797 10.73 -0.500481 0.730512 0.464619
16.6306 20.3868 11.7321 -0.180295 0.957512 -0.225088
18.0086 19.7352 6.29091 0.0442553 -0.505327 -0.861793
18.5427 20.3796 9.7301 -0.64901 0.562615 -0.512103
18.9825 19.0726 5.80559 0.121628 0.571758 0.811357
18.4249 19.2114 9.60545 0.726079 -0.432293 0.534727
20.7092 22.0283 4.50177 -0.832204 -0.55179 0.0544471
17.8172 17.8959 11.895 0.682849 -0.559469 -0.469799
18.4917 22.2915 6.70438 -0.595615 -0.368882 0.713561
10.6695 9.8803 4.79745 -0.891945 -0.0643306 0.447544
11.291 22.3583 8.45784 0.894582 -0.287856 -0.341851
21.2123 9.66562 8.93099 0.655123 -0.266902 -0.706808
8.86295 9.59313 11.0752 0.712337 0.196788 -0.673684
8.99463 9.03951 4.97404 -0.459577 0.804862 0.375482
8.26906 23.0287 4.0941 0.737247 -0.665123 -0.118647
10.3162 11.6706 8.08324 -0.209601 0.214872 -0.953885
11.9979 21.2827 7.59418 -0.966448 -0.150267 0.208321
10.4031 12.1732 5.26882 -0.106394 -0.595659 -0.79616
9.03508 21.2446 6.98669 0.649221 -0.689048 -0.322063
11.8758 10.2971 10.1768 -0.861762 0.322345 -0.39174
13.3816 22.684 9.33885 -0.52729 -0.040487 0.84872
11.4144 9.98521 7.91777 0.172036 -0.0915118 0.980831
12.6382 9.16205 6.06826 -0.681312 0.282965 -0.675089
13.3664 11.424 7.79015 -0.108739 0.670935 -0.7335
14.3145 8.69045 9.51465 -0.499139 0.0781298 0.862993
13.02 10.0957 5.64921 -0.482984 -0.23693 -0.842966
14.8999 8.93113 5.24399 0.0853793 0.626898 -0.774409
15.1991 10.3625 7.41201 0.238699 0.803631 -0.545161
19.0742 21.7312 11.8853 0.722869 -0.551583 0.416193
17.2589 23.2217 7.42157 -0.531799 0.258108 0.806579
18.6307 21.9167 9.67637 0.603019 -0.781845 0.158388
18.2784 9.80383 10.5686 -0.696204 -0.511233 0.503926
20.7223 22.6366 7.71564 -0.0691867 -0.646261 -0.759974
19.9643 8.75313 7.23185 -0.194119 -0.504032 -0.841588
7.56642 8.60083 6.40279 0.0836556 -0.896593 -0.434882
19.72 21.9716 8.02595 -0.447637 0.657649 -0.605904
20.9489 21.0865 9.40412 0.792022 -0.102504 -0.601825
20.8074 10.8044 4.77548 -0.524548 -0.360969 -0.771071
10.9214 21.9504 5.50894 0.390003 -0.213583 -0.895701
7.94774 12.5909 10.8329 0.531194 -0.184121 -0.827002
20.2139 10.2963 8.55252 0.592355 -0.303854 -0.746182
9.49369 12.266 2.82863 -0.125947 0.267434 -0.95531
10.2319 21.6933 4.34438 -0.159744 0.610689 0.77559
11.1852 12.2148 7.45992 0.105376 0.0337285 0.99386
12.4082 9.34559 8.37248 -0.221103 -0.0202366 0.97504
20.6152 8.99045 11.1908 -0.33437 0.729726 -0.596403
13.2972 10.7109 4.50451 0.859163 0.303141 0.412243
12.2184 11.753 7.83138 0.0648812 -0.390339 0.918382
13.9957 12.6866 7.43694 -0.155017 0.71551 -0.681187
12.8392 12.3929 5.63298 0.769406 0.50583 0.390065
11.6875 9.12657 6.59178 0.602891 -0.496859 0.624222
15.7168 11.3435 8.97747 -0.269314 -0.918199 0.290484
16.3585 10.5498 6.949 0.0494989 -0.929075 0.366564
12.6272 11.053 5.3346 0.818707 0.29373 0.493398
16.2062 22.9866 10.121 -0.163714 -0.189432 0.968149
12.7691 14.9859 7.95835 -0.125728 -0.428548 -0.894729
16.4418 9.41629 10.5835 -0.0597001 -0.535303 0.842548
15.1509 22.6608 10.0532 -0.0628685 0.102456 0.992749
18.2715 8.91221 7.64523 -0.456433 0.221725 0.861688
17.2424 12.0152 4.53636 0.626474 -0.602453 -0.494552
18.5441 8.7597 9.12022 -0.417777 0.809564 0.412393
8.27386 14.1333 5.37263 0.855153 0.093372 -0.509897
20.3086 9.66268 6.64673 0.00622803 -0.725315 -0.688389
20.225 14.3906 8.78843 0.0718013 -0.13861 0.987741
19.7791 9.16066 9.21603 0.149176 -0.718406 -0.67944
21.3281 14.6687 6.91942 -0.29057 -0.0223486 0.956593
7.71339 15.0448 6.87471 0.264987 -0.080685 -0.96087
9.50745 15.42 7.22012 -0.12784 0.70396 0.69864
10.1842 12.9299 7.56434 -0.181892 0.3486 -0.919453
10.3838 13.9916 2.8479 -0.100412 0.192244 -0.976197
9.48842 13.3351 2.87069 0.137543 -0.298938 0.944308
11.6272 14.8029 6.78435 -0.2582 -0.732598 -0.629788
11.258 11.1 7.66393 -0.140098 0.100777 -0.984996
16.4438 14.5923 15.3783 0.148655 0.288538 -0.945858
11.6859 15.2957 14.9778 -0.477249 -0.204085 0.854741
11.9887 12.0285 9.38362 -0.772871 -0.614332 0.158953
14.3826 12.8635 8.62618 0.741818 0.0165098 -0.670398
14.2134 14.4165 3.28302 -0.216886 -0.175589 0.960275
11.977 12.6799 4.64413 0.701759 0.652334 0.286347
14.2384 14.3546 6.48195 -0.531649 0.458034 0.712429
17.0011 11.0461 8.91629 -0.196479 0.902058 -0.384301
11.9648 13.066 6.0082 -0.54836 -0.69108 -0.47086
15.2008 12.5456 6.69131 -0.657397 0.649863 -0.381453
15.7316 15.5903 3.64812 0.331726 -0.0317282 -0.942842
17.2603 11.1397 6.10932 -0.534778 0.775281 -0.336083
18.0601 13.5929 2.81553 -0.631246 0.238953 0.737855
16.9632 9.74671 8.35934 -0.348566 -0.384991 0.854566
7.52865 17.2992 3.36506 -0.17823 0.423696 -0.888097
21.3133 15.0325 8.90066 0.124759 0.410485 -0.903292
21.4331 18.2352 3.60555 -0.144658 -0.452308 0.880052
7.29941 16.036 3.99823 0.568201 -0.178761 0.803238
7.46207 16.0188 6.12612 0.593765 0.343448 -0.727658
21.3073 13.3961 9.26483 0.6704 -0.134644 -0.729681
9.95855 15.225 5.66123 -0.0320405 -0.619707 -0.784179
10.4481 15.8511 4.87278 -0.911044 0.373171 0.175332
21.4363 15.8653 11.7072 0.0311291 0.260121 -0.965074
10.6202 13.8984 8.69735 0.842779 0.334522 0.421685
11.0449 14.8745 5.50129 -0.276546 -0.619699 -0.734503
12.2175 15.0199 5.41186 0.103878 0.410558 0.905898
13.4328 15.4394 3.51444 -0.450362 -0.0903598 0.888262
12.1904 14.0633 8.09028 0.210003 0.143731 0.967078
15.2629 14.6274 15.6603 -0.19717 -0.361274 0.911376
13.0436 15.0879 15.2081 -0.0405442 0.532884 -0.845216
10.5414 15.1189 11.5172 -0.397616 -0.581458 0.709795
14.4985 15.3099 5.78104 -0.377545 0.271462 0.885307
14.5684 15.4489 3.63939 0.343093 0.0771965 -0.936124
15.4667 14.1641 3.01635 0.30891 -0.341915 -0.887507
11.4911 15.5381 13.4113 0.712842 0.519935 -0.470663
14.1319 15.5041 7.7108 -0.772393 0.471004 0.426104
12.4934 16.945 6.78258 -0.20988 -0.363994 0.907446
15.0137 15.8974 9.47959 -0.653408 0.675027 0.342632
12.0258 16.3933 9.67304 0.854742 -0.124358 -0.503936
18.3208 14.1665 5.13958 -0.617669 0.670314 -0.411295
18.8646 15.1886 3.90018 -0.746132 0.301286 0.593729
13.816 15.6813 10.6848 -0.504757 0.337574 0.794522
18.0911 15.4442 7.0125 -0.231365 -0.160604 -0.959519
7.83361 16.7177 6.89595 0.464739 0.513258 -0.721515
20.3606 15.5382 8.13454 -0.398878 -0.115392 0.909715
8.08003 15.3069 3.5619 0.555311 -0.282551 0.782173
20.0967 16.8584 11.6121 0.54583 0.350114 -0.761243
11.403 13.5519 5.07012 -0.739529 -0.524014 -0.4225
20.3291 15.7811 11.2861 0.341239 0.325864 -0.881685
20.5605 17.0219 7.38883 0.649862 -0.725112 0.227799
7.18019 19.0469 7.63572 0.422733 -0.810851 0.404744
13.0504 14.3766 4.02927 0.174758 0.146693 -0.973622
11.1324 19.605 7.72337 0.528904 0.752687 -0.392074
12.5592 18.9942 5.67235 0.606865 -0.0902691 0.789662
10.4247 19.996 8.53586 -0.63704 -0.770518 0.0219575
14.3814 18.264 4.8572 -0.654266 0.0627855 -0.753654
13.8464 17.3037 4.92328 0.53896 -0.02027 0.842087
14.8668 16.4581 4.17564 0.346258 0.197412 -0.917134
11.7638 19.0069 9.25597 -0.100996 -0.389928 0.91529
13.9832 16.4632 13.5555 -0.212 -0.659738 0.720973
14.6542 19.3558 4.50224 0.638515 0.135475 0.757592
13.3556 16.1446 6.55874 0.445451 0.268138 -0.85421
14.256 19.8663 7.24541 -0.162395 -0.634054 -0.756045
16.7822 14.7495 5.22388 0.306353 -0.605997 -0.734109
17.0151 15.8987 7.49566 -0.00993466 0.481792 0.876229
15.4543 16.645 8.73811 -0.648951 0.577899 0.494869
14.4864 17.9901 10.5304 0.610373 0.632291 0.477129
14.2158 16.4362 8.70351 0.687906 -0.428603 -0.585735
18.2765 14.7671 3.04445 0.589911 0.116483 -0.799022
19.9429 15.9233 6.69743 0.0439978 0.977297 -0.207254
18.9517 16.7009 7.08235 -0.0147796 -0.928133 -0.371955
19.741 16.7937 10.4448 -0.481101 -0.599757 0.639401
18.8335 19.9042 8.72485 -0.786927 0.262753 -0.558306
20.2508 19.1328 8.20045 0.956018 -0.25211 0.149903
18.2965 18.7211 6.75455 0.245419 0.665417 0.704975
19.7058 17.8441 11.0819 0.576218 0.338197 -0.74404
20.7692 20.446 4.5282 0.949962 -0.234995 -0.20579
7.1427 18.0666 6.86196 -0.112429 0.739246 -0.663985
8.37954 19.1298 8.92803 0.325305 0.920854 0.214951
10.6029 18.8831 9.33951 0.31988 0.747469 0.582209
8.38527 19.5476 7.60459 -0.0466107 0.934138 -0.353856
11.7091 19.6801 6.13321 0.493869 -0.0262509 0.86914
9.71312 20.3557 7.78237 0.865294 0.274914 -0.419153
14.0538 22.4737 10.7616 -0.14926 0.0509624 0.987484
12.8121 20.7825 9.36128 0.136795 0.110634 -0.984402
15.9831 17.2746 16.8105 -0.133947 0.0574222 0.989323
13.6726 21.5552 9.51181 0.437306 -0.190712 -0.878859
13.1386 21.2556 6.40378 0.777625 0.574085 0.256372
10.6967 23.1726 6.22466 -0.610903 0.418076 -0.672317
15.1902 19.6594 6.2814 0.349668 0.933458 0.0799264
13.3541 20.5053 7.19766 -0.503302 -0.634817 -0.586254
15.1046 19.778 8.58636 0.0285424 0.246714 0.968668
12.7248 8.89249 3.12055 0.184482 0.612044 0.769005
18.309 16.5136 5.90011 0.0149125 -0.845578 -0.533643
16.3249 16.2479 11.6507 0.613916 -0.604298 0.50787
18.2418 16.5971 8.15712 -0.253498 -0.142325 -0.956808
16.9148 18.4946 9.68837 0.664533 -0.145959 -0.732866
17.5851 18.1449 7.45103 0.134542 0.645363 0.751934
16.5204 17.2195 7.41216 0.134859 0.202365 -0.96998
18.8808 16.9745 2.91556 0.637826 -0.052507 -0.768388
19.7428 20.3159 8.20026 -0.777419 -0.0712267 -0.624937
20.7022 19.6209 6.6651 0.858323 0.0401233 -0.511538
19.0875 18.5444 8.92676 0.588565 -0.458155 0.666097
20.8569 18.4643 9.19446 0.879687 -0.432439 -0.197857
8.93991 8.85014 6.12106 -0.690486 0.715672 0.105087
8.31487 23.0621 7.11232 -0.394283 0.670962 0.627974
21.2011 20.614 7.99643 -0.00868676 0.792149 -0.610266
9.50528 20.5476 10.364 -0.42138 -0.76185 -0.491959
8.22071 22.2054 8.30677 -0.384047 0.91995 0.0787336
7.50039 20.9473 7.07714 0.109243 0.901781 0.418159
7.40652 9.76438 9.63791 0.809037 -0.141125 -0.570563
14.7492 22.2375 12.7106 0.00142736 0.0674728 -0.99772
12.3933 22.0838 4.77553 0.476217 -0.0467137 0.878086
10.8572 22.6864 4.24173 0.257809 -0.744403 -0.615954
11.5043 21.4089 9.68676 0.442785 0.0110068 -0.89656
12.6977 18.794 8.15247 -0.0752027 -0.347727 0.934575
15.0547 11.1079 10.0497 -0.447794 -0.87808 0.168687
14.3665 22.1838 3.78175 0.187536 0.343376 0.920284
14.287 9.83323 9.35666 0.727559 0.07019 -0.682445
17.2316 15.6331 13.8557 -0.365721 0.930705 -0.00600464
14.539 21.4811 16.0311 -0.0445992 0.627539 0.777307
13.7037 22.1775 5.01746 -0.430586 -0.303592 -0.849957
15.8074 16.778 9.84888 0.791562 -0.283698 -0.541244
16.995 16.8692 12.7955 -0.407073 0.90821 -0.097192
18.4667 21.2926 10.7868 -0.746543 0.655478 0.114118
15.4536 17.9599 7.5901 0.0428068 -0.308565 0.950239
18.9474 22.4069 10.6644 -0.567732 0.801724 -0.186865
17.7316 20.4549 10.7716 -0.643852 0.746993 0.1657
19.6584 23.0305 11.3 0.365385 -0.729427 0.5783
19.2782 21.5162 6.95728 0.677467 0.517053 -0.523159
20.8371 20.0084 9.71212 0.908266 -0.224835 -0.352849
7.20928 20.7752 10.0199 0.70395 -0.241168 -0.668051
18.7997 21.104 8.64483 -0.861477 0.215917 -0.459606
20.6925 22.6852 9.21687 -0.0975427 0.899639 0.425599
20.8812 21.6666 11.8369 0.784565 0.446032 0.430713
19.9606 11.476 10.9775 0.824574 0.420042 0.379003
9.37409 11.0562 8.30541 0.12369 -0.309474 0.942829
8.13949 10.3379 10.3219 0.929653 -0.0207295 -0.367853
8.66898 10.6761 11.3338 0.589466 0.344991 -0.730418
10.1284 23.0705 8.04948 0.45613 -0.535236 -0.710963
10.9465 9.47473 9.75065 0.777957 -0.490334 0.39288
13.3569 21.9484 8.23506 0.625472 0.200932 -0.753931
10.9449 9.54165 11.9463 0.0962665 0.560234 -0.822721
11.2259 8.59117 11.4673 0.622329 0.551163 -0.555811
12.1403 10.2431 11.9494 -0.731744 -0.0728272 0.677677
13.1054 9.0674 9.54499 -0.445494 0.0705235 0.892503
13.1032 9.68879 12.4888 0.796497 -0.00719394 -0.604599
13.4451 22.393 13.5813 -0.497371 -0.351726 0.793039
14.9386 11.2441 8.10243 0.576849 0.756667 -0.307734
14.193 11.4379 6.88015 -0.0402244 0.844393 -0.534212
13.9274 11.1769 10.4643 -0.631973 -0.705654 -0.320409
16.9097 19.4806 13.3223 -0.625256 -0.751811 -0.209369
17.3146 8.63653 10.3366 -0.0867416 -0.570462 0.816731
18.2475 20.9084 11.8377 0.854047 -0.510596 0.099477
18.1752 10.2235 7.98252 -0.146958 0.423632 0.893834
18.6511 20.9394 12.9867 0.922578 -0.372245 -0.101409
18.9777 9.62391 8.61971 -0.192019 0.715395 0.671818
19.5239 22.6142 9.61049 0.403002 -0.870115 -0.283705
18.085 9.17961 13.4809 -0.866846 -0.179493 -0.465146
7.12123 22.1332 9.70826 -0.578157 0.541686 0.610173
20.2638 22.5265 10.4668 -0.111831 0.978125 -0.175403
9.28795 8.96066 7.16556 0.648713 -0.725323 -0.230385
7.80474 10.8375 9.20039 0.901862 0.269477 0.337678
7.9253 11.4298 7.93817 -0.656395 -0.0787432 -0.750297
7.8428 10.6208 6.7979 -0.711786 0.0167728 -0.702196
20.9266 10.8498 9.99531 0.99398 0.0998614 -0.0450672
7.55804 10.3113 7.92435 0.822903 0.0112265 0.568071
10.322 8.87707 10.766 -0.149104 -0.948997 0.277801
10.2918 10.5465 7.9696 0.2338 -0.0394026 0.971486
9.33653 9.89446 8.47829 -0.0776027 -0.234726 0.968959
9.60019 11.404 11.759 -0.798204 -0.082229 0.596748
11.4902 11.1486 11.6388 -0.454614 -0.216517 -0.863971
13.1904 11.8087 8.93278 -0.220674 -0.763357 0.607116
13.7538 12.1823 9.9646 -0.959244 -0.259029 0.112938
13.1744 10.8646 12.5478 -0.920757 -0.120362 0.371107
11.7742 8.7404 13.8374 0.500485 -0.669438 0.54897
14.3633 15.2558 8.77922 -0.769466 0.446462 0.456721
16.1353 10.6937 8.08018 -0.219328 -0.930574 0.293132
19.8567 12.9224 12.9627 -0.318787 0.433999 0.842627
18.419 22.12 12.7295 -0.869608 -0.105052 -0.482437
17.549 12.3803 6.10529 0.722005 -0.61786 0.311381
16.9505 10.3826 11.257 0.813726 0.186819 -0.550408
19.7729 11.8229 13.0881 -0.338756 0.371417 0.864462
19.6728 9.48684 11.7078 -0.315384 0.627044 -0.712284
20.6249 13.8533 11.4454 0.368745 0.146147 -0.917969
19.336 10.3653 7.70409 -0.015794 0.841213 0.540474
18.7597 9.46696 12.4218 0.486535 -0.456872 0.744682
7.1529 11.9249 9.82089 -0.906936 0.0663562 0.41601
7.49604 14.0045 7.53861 -0.367355 0.21137 0.905744
10.1693 13.715 5.35652 -0.414752 -0.0672041 -0.907449
8.81621 15.8589 10.5498 0.2511 0.448201 -0.857942
9.3641 12.27 8.73118 0.112202 -0.52838 0.841561
11.0557 14.5528 7.79923 0.511418 0.479151 0.713348
11.2823 13.3291 7.37957 -0.142424 -0.0836635 -0.986264
10.5978 14.3433 10.7741 -0.875173 -0.347697 0.336421
11.749 13.6393 10.456 0.638389 0.684741 -0.351553
13.2191 13.763 8.02508 0.0578528 0.263492 -0.962925
12.4878 10.4493 8.40356 0.32635 -0.305353 0.89457
11.0631 13.8599 11.7396 0.833352 0.282861 -0.474883
8.90716 13.7957 12.6814 -0.682728 -0.216643 0.697817
14.3907 11.4768 9.18601 0.629219 0.754891 -0.184995
15.7709 14.0714 5.49927 -0.527269 0.664204 0.529925
13.2758 12.545 11.015 0.873994 0.434323 -0.217941
11.0137 12.203 11.8143 0.178372 -0.187366 -0.965959
13.3714 15.044 5.66006 -0.246351 0.121038 0.961593
14.4201 14.0806 7.73637 -0.624625 0.670172 0.400891
17.798 11.7954 9.55203 0.491673 -0.702423 0.514645
21.4094 12.2509 16.0356 -0.601501 -0.341839 -0.722041
17.9703 12.9945 5.19852 -0.830381 0.491518 -0.262443
17.8354 13.6012 6.10349 -0.88103 0.401179 -0.250682
17.9797 14.0552 7.18779 -0.543972 0.553943 -0.630271
16.6999 10.5199 13.1974 0.842611 0.347428 0.411461
17.395 13.1118 7.13768 0.719593 -0.683944 0.120028
7.61003 15.0525 11.4969 -0.271607 -0.216528 0.937734
18.1167 11.6625 8.50388 0.668672 -0.523433 0.528105
9.92255 14.7621 8.02584 -0.277092 -0.796554 -0.537328
8.84952 15.307 5.50607 -0.000809479 0.579922 -0.814672
8.80027 15.5929 9.08642 -0.786226 -0.423172 0.450304
8.89221 15.0278 12.404 0.702048 0.377264 -0.603988
8.39109 14.6217 7.94092 0.611866 -0.185417 -0.768921
8.74108 16.1314 6.25358 -0.23151 -0.616159 0.752829
10.7246 15.4434 7.16305 -0.235989 -0.647452 -0.724649
8.08048 15.9399 8.19401 -0.591926 -0.348258 0.72687
11.6146 15.2921 9.67834 0.848555 -0.377522 -0.370718
11.4087 12.938 9.46893 -0.815599 -0.578601 -0.00430906
12.449 12.9337 7.67813 0.51142 0.222817 -0.829941
12.2386 17.9594 11.0965 0.84456 -0.341781 -0.412195
13.9493 17.1848 11.4494 0.0598797 -0.5822 -0.810838
12.7614 16.71 13.5107 -0.365084 -0.481589 0.796734
11.314 16.0455 8.84548 -0.792053 0.189562 0.580274
12.4082 17.6124 12.1286 -0.520285 0.670429 0.528989
16.6111 11.6606 9.82816 0.239798 -0.897177 0.370906
15.4425 15.6746 6.25239 -0.324641 0.200449 0.924353
16.8145 13.4997 9.17378 0.757409 -0.369341 0.538441
14.266 15.5619 12.9704 -0.0313686 -0.676967 0.735345
18.0596 14.5178 8.23518 -0.768129 0.323131 -0.552778
19.1724 15.9545 8.92857 0.155485 -0.0784318 -0.98472
19.0272 14.7936 7.3306 0.292098 0.261908 0.919828
17.4534 14.5522 10.0204 -0.149781 -0.0598612 -0.986905
20.4515 12.6383 14.1745 -0.573481 -0.373267 0.72924
20.2953 14.9894 10.4712 -0.283335 -0.349021 0.893256
17.5133 11.6203 7.1234 -0.857542 0.510085 -0.0665955
18.7803 14.2713 12.4219 0.483598 0.443776 -0.754451
7.20662 13.9605 11.4927 0.293896 0.350803 -0.889136
19.8917 19.4719 12.1528 0.645045 -0.27078 -0.714559
7.02634 17.0916 9.65369 -0.800904 -0.280841 0.528849
8.85208 18.076 11.3927 -0.542022 -0.259729 -0.79922
10.2161 16.3142 11.1645 0.382608 -0.0559169 0.922217
10.1966 16.0118 13.6306 0.167167 0.584288 -0.794143
9.72377 14.8811 13.1124 0.63845 0.639777 -0.427862
9.52487 17.3205 8.40066 0.226233 -0.595395 0.770924
11.1338 17.3296 11.868 0.0613056 -0.705259 -0.706294
11.8228 20.0689 9.53091 -0.0157132 0.35882 -0.933274
13.4675 18.1899 5.52838 -0.564179 -0.132696 -0.81492
9.64729 17.2293 11.4746 -0.551549 -0.249733 -0.795881
12.9352 18.5224 10.1725 -0.663327 0.472538 0.580264
16.1419 19.683 7.71358 -0.372189 -0.557508 -0.742064
13.1376 15.7196 13.0683 0.247078 0.61496 -0.74885
12.4334 20.446 14.3141 -0.3134 0.899499 0.304437
15.0681 16.0903 13.414 0.000934009 0.692011 -0.721887
13.9004 20.1743 4.68794 -0.550831 -0.0883764 -0.829925
16.7741 15.3188 4.06602 0.336876 -0.44371 -0.830444
16.4017 14.7753 10.2814 -0.246593 -0.209408 -0.946224
16.7299 13.9108 11.0148 0.282624 0.38738 0.877531
16.9335 15.2122 8.50092 0.86886 0.480763 0.11811
18.0593 16.5056 9.95786 -0.572548 -0.257155 -0.778499
18.4979 14.1423 10.1549 0.0558593 0.417079 0.907152
19.549 13.8153 10.5213 0.0254575 0.150333 0.988308
19.2842 15.0175 10.0863 -0.0866659 0.298759 0.950385
20.3443 16.3694 9.25435 -0.383802 -0.458155 0.801742
18.2917 18.6015 10.9935 0.627803 -0.61468 -0.477528
8.0032 16.5953 10.7459 0.301562 0.580088 -0.756676
6.94571 17.1284 11.2201 0.536642 0.354416 -0.765771
9.02559 21.4863 9.69967 0.53222 0.444897 0.720284
6.87914 19.3296 11.6285 -0.651981 0.142644 0.744696
10.254 17.7024 15.1743 -0.206477 -0.825272 0.525637
9.69869 19.7854 12.7378 0.407729 0.903329 -0.133244
9.30344 16.6953 13.7666 0.306185 0.642007 -0.702906
9.58146 20.1826 11.6135 0.443845 0.889756 0.10647
9.50505 18.053 10.3306 -0.402297 -0.782005 -0.476051
9.30863 18.5777 9.3 -0.432178 -0.843801 -0.318153
11.0811 20.7136 5.48728 0.302113 -0.0337056 0.952676
11.8179 20.6478 11.3448 0.0753464 0.089003 -0.993177
13.9105 19.4609 12.5366 -0.339994 0.930295 0.137677
13.1754 20.144 5.73689 -0.863538 -0.137513 -0.485172
14.6365 18.3952 8.32575 0.0582257 -0.343958 0.937178
14.6548 19.7705 10.4588 -0.0783669 0.857579 0.508347
15.3029 15.4865 12.3989 0.0376141 -0.843003 0.536593
16.127 16.1239 12.9649 -0.20359 0.804241 -0.558344
15.3339 16.0042 10.6298 -0.653102 0.370928 0.660205
15.7247 20.3337 12.3883 0.263888 -0.963786 0.0384648
16.3806 14.8162 12.4091 0.455639 -0.344506 0.820798
15.6326 18.8284 9.07137 0.0763579 -0.0957212 -0.992475
19.5046 17.0169 8.71809 -0.219938 0.33094 0.917664
15.5374 21.0387 13.4843 0.0710905 0.958394 -0.276455
18.2776 15.3306 9.69751 -0.217684 0.105302 0.970322
18.3821 17.7217 8.9609 0.0328905 -0.12511 0.991598
19.2309 18.0778 3.12466 -0.499913 0.158001 0.851542
17.8204 18.6755 13.3834 -0.834006 -0.55049 -0.0373375
7.59146 18.9646 12.4065 -0.694614 0.0662818 0.716323
20.6188 20.1269 10.9124 -0.912442 0.250097 0.323885
10.2713 21.5359 7.20827 -0.10696 0.407002 0.907143
7.45264 21.7147 10.8297 -0.762034 0.537901 0.360509
10.4038 21.6947 9.38518 -0.0133566 0.43843 0.898666
7.92077 9.22468 10.4619 0.885251 -0.102208 -0.453745
10.5222 20.1705 10.918 0.41707 0.735256 0.534276
8.8726 23.0331 10.8038 0.760458 -0.344742 -0.550324
12.6202 19.8388 11.2431 0.0741612 -0.0498298 -0.996001
12.992 22.5112 7.06517 0.921304 0.235233 -0.309621
13.6422 20.2658 10.2847 -0.125393 -0.893908 -0.430354
11.6983 21.6102 6.2818 -0.489655 0.271387 0.828605
12.6681 19.8657 8.49581 0.164414 -0.410907 0.896729
12.801 22.9624 8.37346 0.542025 0.429345 -0.722407
13.5575 18.1083 8.01233 0.226406 0.43192 -0.873033
12.3342 22.8137 11.4931 0.62109 0.401038 -0.673362
13.3702 18.4124 14.5496 -0.191495 -0.445689 0.874466
15.375 9.91029 11.1008 0.254241 0.205666 -0.94502
15.8827 16.7618 13.8613 -0.0368305 -0.750769 0.659537
12.9542 21.9784 12.1529 -0.18143 -0.175993 0.967528
18.6231 18.7758 12.1739 0.902097 -0.333697 -0.273619
13.5882 9.73797 7.6504 -0.108338 0.121867 0.986616
17.2463 16.9988 11.4319 -0.648307 0.667067 0.367042
16.7546 21.0841 13.6083 -0.370685 -0.854296 -0.364378
8.43831 17.4909 13.9797 0.553065 0.530461 -0.642441
17.2716 16.4945 14.8072 -0.94144 0.280271 0.187452
20.9673 19.0006 10.2816 -0.979326 0.201556 0.0171943
18.5421 21.5285 14.0481 -0.833698 -0.552036 0.014288
8.00989 19.7306 10.0647 -0.472706 -0.677382 -0.563652
7.04455 22.2928 8.51532 0.146734 -0.903224 -0.403306
8.23796 22.2589 11.4952 -0.815107 0.417352 0.401768
18.1528 10.3255 13.0638 -0.723097 -0.191782 -0.663589
8.20317 8.79305 15.8625 0.290303 -0.296294 0.909909
8.85303 12.0674 11.3017 0.512143 -0.128887 -0.849175
7.79739 22.6959 10.4554 -0.658054 0.371783 0.654784
8.90787 9.6357 15.4031 -0.421284 -0.0990295 -0.901506
20.4646 22.2488 12.8965 -0.614228 -0.74202 0.268571
11.0926 8.9789 8.80541 -0.676902 0.546495 -0.493099
10.1993 20.7559 14.0001 0.496994 -0.269941 0.824699
7.15718 21.9935 14.9145 0.293897 0.532754 -0.793598
13.7602 20.4303 15.0802 -0.539676 0.72444 -0.428878
10.3516 10.2372 12.6175 0.2614 0.794365 -0.548319
13.085 23.1476 12.4025 -0.51339 -0.284164 0.809742
8.69107 9.14521 13.0185 -0.765845 0.470898 -0.437877
10.6801 21.7131 13.5486 -0.570097 0.349933 -0.743327
13.9976 10.2712 13.1528 -0.829755 -0.337712 0.444362
15.3881 18.6909 15.1231 0.15237 -0.43825 0.885845
11.4138 21.4305 12.7507 -0.698041 0.37976 -0.607059
8.72798 21.8019 12.4241 0.968595 -0.144805 -0.202128
17.5235 23.0044 12.351 -0.866674 -0.193897 -0.459652
17.6041 20.3741 12.5797 -0.794492 0.606609 0.0284036
18.2323 22.3027 14.7861 0.822516 0.548243 0.151316
16.2725 22.0078 12.2457 -0.763155 0.0767233 -0.641645
16.7171 9.31638 12.1801 0.942342 -0.021944 -0.333931
19.6033 20.5631 15.5411 -0.651565 -0.515156 -0.556846
20.4963 10.0901 16.3964 -0.696785 0.0990853 0.710403
20.7944 9.91182 11.7918 -0.00376803 0.787009 -0.61693
20.3704 8.92557 13.4093 0.409472 0.883488 -0.227557
18.8825 10.9257 12.0334 0.374736 0.0758394 0.924024
7.17588 9.00018 16.4706 -0.0567518 0.388903 -0.919529
10.1355 10.2574 15.8622 0.536553 -0.427334 0.727665
8.65183 13.4408 9.97121 0.476538 -0.168759 -0.862805
8.6547 13.1773 11.6141 0.619307 0.0123294 -0.785052
9.6577 10.2568 11.7089 0.618814 0.201988 -0.759125
7.88515 8.74952 13.954 0.956623 -0.261968 0.12746
8.09395 11.9755 14.4545 0.280919 0.682453 -0.67479
10.5343 23.0468 9.69059 -0.802096 0.5971 -0.0106245
7.67274 13.0299 9.61938 -0.563688 0.386566 0.729947
9.94941 8.74824 12.2667 0.0742119 -0.592775 0.801941
9.35438 23.0402 15.8312 -0.28727 0.362727 -0.886513
14.2841 10.374 11.1599 0.54444 0.764742 0.344607
8.53218 22.3308 15.9445 -0.333781 0.397967 -0.854525
13.7159 8.99271 13.2482 0.622505 0.318787 -0.714747
11.3158 10.2458 13.814 -0.915244 0.318263 -0.247058
12.5181 11.2421 10.8585 -0.873149 0.0843668 -0.480096
11.5403 11.4598 14.5862 -0.834457 -0.0681072 -0.546848
18.8627 23.1074 11.9913 -0.670451 0.275357 -0.688965
19.3209 12.8165 11.5436 -0.120957 -0.677798 -0.725231
20.4822 20.9365 14.5314 -0.340405 -0.186971 -0.921502
20.8613 11.2977 16.3789 0.605229 0.167675 0.778193
20.7844 22.3137 13.9762 0.715119 0.554191 -0.426002
17.0518 9.6002 14.0271 0.771183 0.144495 0.619998
19.8071 10.1546 12.6854 0.174215 0.441 -0.880437
19.3673 10.2393 14.769 0.860092 0.221649 0.459471
20.1263 9.22205 14.4594 0.260931 0.933281 -0.246782
6.97517 9.91046 12.8556 -0.228322 -0.957047 0.178692
21.3453 10.0016 14.1509 -0.025296 -0.755703 0.654426
19.7994 23.0131 15.8836 -0.26977 0.840577 -0.469738
7.94184 10.2199 13.5629 -0.296582 -0.487133 0.821426
10.315 11.4762 10.1975 -0.280954 -0.945749 -0.16317
10.1513 14.506 9.65823 0.622171 0.545786 -0.561267
9.93255 12.7718 11.6033 0.561997 0.519996 -0.643245
8.3944 14.2578 11.6183 0.553527 0.149194 -0.819359
14.0365 14.1494 9.01301 0.840386 -0.318359 -0.438633
12.6194 13.0195 10.2375 0.709707 0.690754 -0.138474
10.9259 9.03176 14.6118 -0.620502 0.566115 -0.54267
12.7823 19.4041 15.2559 0.711444 0.124462 -0.691634
14.8461 13.3243 9.58749 0.762475 -0.163101 -0.626122
13.8229 11.9105 11.8409 -0.965063 -0.19363 0.176525
12.2703 12.1201 13.9264 -0.875934 -0.0470905 -0.480128
13.1439 11.1476 13.6568 0.9426 0.157309 -0.29455
13.1344 12.8617 12.0916 -0.939695 -0.320307 0.119901
17.9639 11.4409 12.7095 0.677792 0.135797 0.722604
9.61022 13.2599 14.01 -0.990726 0.108053 0.0823824
20.8937 8.70438 15.8678 -0.286817 0.747017 -0.599751
12.4166 14.011 12.4792 0.714674 0.678259 0.170896
18.7706 12.4965 12.7947 -0.420425 0.479798 0.770089
19.8097 9.01312 16.7557 -0.944213 0.305094 -0.124014
19.3094 11.3573 15.015 0.0384498 0.0946239 0.99477
20.6218 10.8684 12.8919 0.579986 0.0874892 -0.809915
20.8434 11.6449 13.8588 -0.536404 -0.394015 0.74634
20.8323 22.6177 15.1137 0.100808 0.743707 -0.660861
7.39695 22.7427 15.9214 -0.228535 0.393164 -0.890614
7.88138 13.8849 9.0002 -0.525152 0.450839 0.721775
8.9891 14.3635 9.14056 0.0653239 -0.459037 -0.886012
20.6129 17.1326 12.9153 -0.365557 0.557154 -0.745619
10.2734 13.2438 9.88922 0.744916 0.667138 0.00515006
8.22207 17.3063 7.81595 -0.467219 -0.501052 0.72846
12.5454 15.5779 10.3144 0.746536 -0.387171 -0.541094
9.72389 15.2906 10.3802 -0.20371 -0.466081 0.860971
10.8733 14.3732 12.8931 0.828772 0.490575 -0.269208
11.9551 17.6506 9.82534 0.979762 -0.198312 -0.027185
14.7128 14.4828 9.91363 0.619577 -0.0323061 -0.784271
11.0723 16.2041 15.4431 -0.757597 -0.330367 0.562942
14.2578 14.1159 11.7882 0.35994 -0.346001 -0.866445
13.0683 18.6095 11.6471 0.941091 -0.297754 -0.160279
12.5894 13.4403 11.2829 -0.886956 -0.390022 0.24737
12.235 18.5471 14.6322 0.0179321 0.332619 -0.942891
13.072 13.3703 13.1529 -0.833846 -0.547232 -0.0723674
13.7233 19.6359 11.1916 0.102132 -0.79852 -0.593242
11.7429 13.873 13.3961 0.406551 0.898032 0.168091
13.529 12.2296 12.9327 -0.906458 -0.41779 0.0615259
7.44777 11.3717 13.669 -0.187255 -0.533554 0.824776
17.635 13.2686 10.9795 0.371764 0.664848 0.647895
17.398 13.5355 8.25929 -0.683094 0.60521 -0.408783
15.3176 12.9497 10.8142 0.509471 0.0394083 -0.859585
7.10642 11.7519 12.0186 -0.885902 0.240335 0.396757
18.0805 15.2403 12.1657 -0.37691 -0.562416 0.735953
7.08703 12.3388 14.0751 0.269085 0.593566 -0.758467
18.8979 15.4776 12.9172 0.367672 0.258993 -0.893163
19.9847 15.8328 13.213 0.489905 0.345305 -0.800473
19.6055 14.5725 13.1441 0.492658 -0.0271985 -0.869798
7.92689 16.2746 9.59166 -0.602714 -0.464363 0.648924
7.49587 16.75 12.305 -0.57316 -0.381555 0.725193
8.88708 18.3911 16.6344 0.555334 0.64648 -0.523132
10.3047 17.0947 14.1406 -0.233389 -0.65967 0.714398
11.3933 16.5563 13.9593 0.490818 0.645884 -0.584749
11.5829 19.4761 12.7545 0.504715 0.674676 0.538586
11.8754 16.4579 12.1306 -0.603999 0.356637 0.712738
10.3951 18.9415 13.1758 0.0770577 0.600129 0.796183
10.4033 17.5519 10.7068 -0.149929 -0.591031 -0.792593
10.4265 19.4516 11.8716 0.445678 0.832728 0.328534
12.5277 17.5853 14.2932 -0.0114946 -0.448558 0.89368
12.9935 19.0077 12.9015 0.205193 -0.899175 -0.386498
11.3402 17.7155 14.3925 0.0348856 0.487156 -0.872618
13.6432 17.3692 14.1288 0.104013 0.538658 -0.836079
16.2273 13.1118 11.5353 -0.328266 0.626585 0.706847
14.4798 20.7575 14.1819 -0.221911 0.959642 0.172752
14.5776 15.1384 11.3279 -0.649468 0.112154 0.752072
14.8364 20.0224 12.9905 0.213189 -0.975563 -0.0531791
15.5253 14.1109 10.9725 0.174387 -0.189861 -0.9662
17.0839 15.7045 10.3819 -0.248205 0.0290789 -0.968271
17.3121 12.8135 12.0081 0.283223 0.817317 0.501775
18.351 19.2387 16.572 -0.716588 -0.647601 0.259063
19.1964 16.8233 13.3778 0.273316 0.647398 -0.711459
18.171 12.2959 11.4217 -0.232204 -0.764637 -0.601175
18.7282 13.0045 10.3718 0.0425742 -0.576096 -0.816272
18.4354 16.4903 12.6496 0.4023 0.1382 -0.905017
11.2903 18.9736 14.8872 0.00742405 -0.121357 0.992581
9.12756 15.8826 13.0628 0.472575 0.480661 -0.738673
8.1584 15.8406 12.3813 0.67826 0.435611 -0.591783
7.62701 17.4754 13.1885 0.489973 0.473249 -0.732095
8.46202 19.5659 16.639 0.650371 0.759595 0.00584362
9.31633 17.5023 14.5811 -0.355779 -0.775097 0.522155
9.00592 18.8227 15.1642 0.790889 0.0997236 -0.603779
9.21871 21.2325 14.5652 -0.0817338 -0.376617 0.922756
7.98992 19.7005 13.3219 0.601388 -0.219606 -0.768184
12.819 20.9199 11.9288 -0.147151 -0.160868 0.975945
10.1083 20.0878 15.5037 -0.276112 0.651686 0.706447
8.45391 22.7061 13.141 0.93749 -0.300512 0.175514
14.7183 19.853 11.8403 0.0287171 -0.985634 -0.166438
13.8076 19.0613 8.64778 0.288132 -0.348215 0.892035
13.5138 20.3622 13.684 -0.526219 0.832604 0.172813
8.13641 20.7358 12.8954 -0.916399 -0.0479762 0.397381
15.6302 20.1111 11.2587 -0.192991 0.965458 0.175059
14.8365 17.1561 13.9954 -0.00996775 -0.434682 0.900529
15.2844 17.9194 11.8755 0.375733 0.65635 0.654239
16.6346 17.8365 15.0176 -0.0576739 0.167744 0.984142
15.7617 19.7926 15.8618 -0.638535 -0.659045 0.397407
16.5432 20.0867 14.3455 0.541683 0.758504 0.362286
15.5865 17.9429 14.2959 0.0150009 0.509351 -0.860428
17.9303 19.1664 15.4685 -0.416217 -0.909231 -0.00789054
17.123 19.4794 16.3101 0.690556 0.719351 0.0752772
18.2253 18.5313 14.4892 0.596134 0.794344 -0.116797
19.9599 17.97 8.31736 -0.602678 0.431686 -0.671138
8.39518 16.7115 13.0545 -0.491801 -0.470413 0.732696
7.30557 17.9856 11.7633 -0.404519 -0.367773 0.837322
7.77993 20.0094 11.9331 -0.769935 0.0869383 0.632173
7.99194 21.0893 11.8198 0.92155 -0.053373 -0.384573
7.18221 9.70483 11.7805 -0.229582 -0.940544 0.250339
8.65622 18.8196 10.203 -0.632932 -0.625274 -0.45654
7.40842 8.68425 9.64354 0.846032 -0.117208 -0.520088
12.2242 21.7681 10.8182 -0.119611 -0.15964 0.979902
8.4562 19.2125 14.2955 0.790368 -0.253098 -0.557906
9.05782 19.9623 14.9366 -0.626585 0.0327881 0.778663
10.9315 9.01585 7.51938 -0.757782 0.582499 -0.294041
11.0602 19.0607 10.9708 -0.49163 -0.547548 -0.677119
14.3096 18.6723 15.5206 -0.00592562 0.411987 -0.91117
11.6014 22.364 13.3541 -0.619555 0.533051 -0.576202
12.2727 9.09694 11.9377 -0.607714 -0.30647 0.732639
14.0147 20.4026 9.007 -0.470889 -0.23964 -0.849021
10.9475 22.7097 14.1563 -0.517159 0.583112 -0.626519
14.4919 18.1384 14.3437 -0.0466625 -0.451611 0.890994
11.411 22.4837 10.7528 -0.694573 -0.443726 0.566282
17.0939 18.2634 11.0584 -0.652721 0.600281 0.462189
11.2644 20.2922 13.8148 0.374817 -0.364877 0.852277
16.9528 19.65 15.2719 0.577835 0.803994 0.140357
18.226 21.7637 15.9149 -0.766562 -0.420013 -0.485769
17.3524 19.272 14.3134 0.701176 0.681816 0.208515
16.1456 23.0151 12.7763 -0.641763 -0.106223 -0.759511
18.7902 18.495 15.5529 -0.526321 -0.8407 -0.127316
18.9006 20.4309 14.0367 0.628829 0.531815 0.567227
18.9068 21.4045 15.1098 0.716929 0.683394 0.137788
19.2109 21.1372 16.5415 0.737379 0.412085 0.535217
7.76008 18.5281 13.6507 -0.703093 -0.0865604 0.705809
