2.90302 33.0417 11.8764 -0.0360945 0.654305 0.755369
3.03651 34.504 11.0065 0.760847 0.363285 -0.537714
3.02378 32.2278 9.16172 0.442715 0.648489 0.619247
2.44577 34.2812 9.1091 0.567925 -0.821261 -0.0546877
3.74098 31.1009 11.0534 -0.631842 -0.53427 0.561545
8.9397 30.3472 7.10287 0.812318 0.438512 -0.384507
12.8228 32.252 11.0693 -0.0404228 -0.710184 -0.702854
9.36228 35.3091 11.5645 -0.490133 -0.847001 -0.205814
13.5729 30.3972 10.7424 -0.146437 0.633632 -0.759649
13.6601 33.2087 10.4391 -0.927339 -0.339163 -0.158149
13.5525 34.4131 10.5885 0.126226 0.694122 -0.708704
11.3552 31.9784 4.86865 -0.628394 0.760725 -0.162537
15.8426 31.2094 12.9471 -0.381401 -0.831426 -0.40406
15.5366 35.195 10.8219 -0.423424 0.767452 0.481383
16.5486 33.7771 11.1626 0.909873 0.171204 0.377915
16.3643 33.9159 12.2233 0.829489 0.421307 0.366673
15.0499 33.3736 15.0212 -0.792866 0.0757193 0.604673
16.1612 30.4776 4.9724 -0.215468 0.183051 0.959201
19.4253 32.1939 11.8561 0.833637 0.431212 0.345118
14.9217 34.3056 14.5586 -0.0764514 -0.228985 -0.970423
18.6977 33.722 14.6123 -0.649663 0.00201374 0.76022
22.5069 36.8301 8.03376 0.425085 0.844462 -0.325862
21.7563 35.7902 9.92552 0.589139 0.795276 -0.143007
22.2549 35.886 12.2759 -0.588432 0.600668 -0.541245
25.71 28.4272 13.3492 0.0921011 0.430162 -0.898041
22.7015 35.1158 7.93971 0.14295 -0.724316 0.674486
26.254 28.9023 10.2402 -0.847816 0.517102 0.117529
25.2582 39.0687 15.3331 0.299192 -0.882406 -0.363103
26.1812 30.0275 11.0058 0.529173 -0.206792 -0.82293
25.5934 36.3347 10.7744 0.105656 0.393612 -0.913185
28.048 29.9905 7.44316 -0.224489 0.811897 0.538913
27.986 30.8112 13.3885 -0.346687 -0.642567 -0.683312
28.448 29.1094 10.2439 0.98232 -0.174802 -0.0670178
26.851 35.5317 9.1351 -0.877639 -0.451291 -0.16151
28.6121 30.324 9.92709 0.333678 -0.586725 -0.737843
28.8306 35.8878 10.3422 0.832261 0.327408 0.447376
32.4027 34.9021 10.9352 0.680133 0.691235 0.244157
29.2679 35.1472 3.89863 -0.399485 0.815963 0.417871
34.3416 28.0267 6.85789 0.667879 0.104171 -0.736944
29.2914 34.2251 12.1561 -0.69645 0.18992 0.692017
36.1692 27.4759 8.30789 -0.818574 0.564412 -0.10666
31.6979 32.7011 6.03322 0.57682 -0.0691784 0.813937
34.341 30.9449 7.29722 -0.48349 -0.806089 -0.34126
36.6717 32.7156 12.1386 0.941029 0.332118 -0.0645212
36.3981 28.3245 10.6382 -0.236977 0.271619 -0.932773
37.0146 28.8192 13.115 -0.232761 -0.4375 0.868571
37.4266 30.7494 6.98247 -0.883538 0.438652 -0.164149
37.0815 31.9828 12.807 -0.645386 -0.555315 -0.524503
40.517 30.5219 9.64334 -0.223437 0.862038 0.454936
0.327143 33.9252 4.58089 -0.557092 -0.207614 0.80408
41.5544 32.4041 5.17679 -0.922479 -0.3799 -0.0686181
41.7214 32.0737 7.50648 0.585026 -0.546519 0.599218
1.7946 33.5289 9.50149 0.71702 -0.53367 0.448417
1.10272 33.5981 7.60291 0.174626 0.206011 -0.962842
1.06564 34.0549 5.27945 0.235583 0.787844 -0.569037
1.30873 38.5146 13.5256 0.141442 -0.850266 0.506994
2.88724 39.1603 12.2123 -0.41074 -0.367615 -0.834357
3.04857 37.0711 12.227 0.935107 0.126904 -0.330864
9.00951 29.4461 6.49689 -0.949034 -0.149896 -0.277248
0.742515 37.534 12.729 0.980935 0.111784 0.158969
12.3978 36.3118 12.1568 -0.283253 -0.7581 0.587411
2.3878 37.8507 11.7299 -0.652013 0.428332 0.625629
9.13046 30.2695 5.75273 0.589139 -0.618292 -0.520222
10.7723 34.9775 11.206 -0.159866 0.806749 0.568858
14.1155 31.7399 11.2889 0.175216 -0.984431 0.0139353
10.3827 38.4601 10.6833 0.521569 -0.738633 0.427068
11.886 32.4987 5.5591 -0.870073 0.321697 0.373476
11.6492 37.3388 12.3782 -0.287249 0.64924 -0.704255
16.1246 34.7797 11.6851 0.977824 0.0458252 -0.204353
14.0388 35.4941 7.10705 -0.387178 -0.600006 -0.700062
16.1619 34.9038 12.7856 0.766969 0.640907 -0.0315683
13.411 35.4357 12.8917 0.156294 -0.984099 0.0843904
14.9002 37.2275 13.0058 0.846493 0.406876 0.343369
21.0703 37.838 9.50902 0.84937 -0.432796 0.302089
14.6987 33.6598 8.5358 -0.439919 0.80156 0.404935
20.5249 36.0065 10.486 0.444019 0.121783 0.887702
21.9361 36.5187 13.0491 -0.885792 0.233803 -0.400886
22.2768 38.6867 11.2416 0.342913 0.778812 0.525226
23.0213 36.9908 9.00177 -0.051056 0.932759 0.356866
20.1126 37.0406 10.6754 -0.909351 -0.373937 0.18235
23.4925 34.9543 10.0519 0.22193 0.685063 0.693856
24.7557 37.0207 11.1856 0.0237411 0.103119 0.994386
24.5199 35.0874 9.32412 0.915993 -0.212997 0.339985
25.0853 37.9772 10.6263 0.455446 0.191709 0.869377
27.8947 35.5215 13.2975 -0.660019 -0.114295 0.742503
25.9112 38.2765 7.79023 -0.851293 -0.51321 -0.109158
25.5791 35.689 7.39614 0.410031 -0.76215 -0.501001
28.5871 39.8745 12.6707 -0.120055 -0.71506 0.688677
26.387 35.9013 10.0221 -0.64455 -0.715561 0.269309
28.7185 37.6195 12.5018 0.0931267 0.776914 0.622681
25.9766 37.3507 11.0237 -0.185888 -0.30256 0.934828
30.423 40.2386 11.278 -0.51246 -0.848742 0.130471
31.1766 36.3248 11.169 -0.786887 0.473779 0.395401
27.587 38.3326 11.0352 0.652583 0.699586 -0.291058
33.0722 33.9878 5.19605 0.70015 -0.713994 0.00158276
29.0724 37.2565 10.6016 -0.661837 -0.671683 0.332887
30.6204 36.4166 10.2062 0.434306 -0.748964 -0.500431
37.4666 35.851 8.40615 0.624249 -0.183205 -0.75944
37.1294 38.752 9.37203 0.161268 -0.486605 -0.858608
36.9437 37.112 9.22152 -0.268441 0.477375 -0.836691
36.7953 31.9175 11.4679 0.928873 -0.236444 0.285113
38.2587 38.5576 10.0448 0.200185 -0.207612 0.957509
39.4987 34.0296 4.51049 -0.174727 -0.295613 0.939193
39.9375 39.0784 11.1196 0.630397 -0.686118 0.363099
40.2054 33.1658 6.06024 -0.927771 0.00862727 0.37305
38.997 36.6131 7.4009 -0.833335 -0.376935 -0.404318
40.9146 33.7838 6.63527 0.466466 0.549421 -0.693215
39.417 40.2839 12.6777 -0.990534 -0.00671082 -0.137102
3.04618 34.9762 9.77367 -0.515106 0.548009 0.659053
2.54383 37.9861 10.2022 0.555167 0.468195 0.687447
2.58505 39.1745 10.1127 0.835581 0.518686 -0.181022
40.9608 39.5646 11.5406 0.717329 -0.556047 0.419822
3.86034 39.1246 11.8795 0.453264 -0.348682 0.820349
5.00407 1.00786 7.66324 0.456364 -0.473362 -0.753432
3.28864 38.0926 12.2933 -0.425326 -0.0965457 0.899876
5.78334 41.4094 11.1045 -0.528882 -0.54308 -0.652187
11.9854 35.4246 11.2978 -0.561838 -0.057822 0.825224
8.60983 41.3528 9.43239 -0.864213 0.0693916 -0.498317
7.5714 38.0871 10.7652 0.929414 -0.317498 -0.188109
7.66421 40.5034 11.7935 0.21881 -0.00150613 0.975766
11.3435 36.4256 11.8782 -0.154976 -0.395081 0.90548
15.482 40.6266 9.62438 0.169197 0.982574 -0.0769436
12.0208 32.7247 4.47882 -0.529639 0.774262 0.346411
8.17926 39.6277 11.6834 -0.47772 -0.329286 0.814465
11.1592 38.8115 12.0262 -0.781124 0.175369 -0.599243
11.9634 39.6372 10.002 -0.589275 0.449324 0.671463
14.9613 35.1407 6.67564 -0.178176 -0.00309923 -0.983994
18.6029 39.3147 9.57837 0.18168 0.672768 -0.717199
19.8613 37.7447 11.4503 0.541722 0.527312 -0.654583
19.8875 40.7656 11.5464 0.634725 -0.761565 0.130931
20.3308 36.8975 9.54377 0.906029 -0.15144 0.395192
19.3405 39.6789 11.329 0.518302 -0.161281 0.839852
21.2338 39.3313 10.8427 -0.00169849 0.973408 0.22907
22.0627 38.7865 7.61123 -0.487961 0.726514 0.483809
22.1277 39.1932 10.1093 -0.72735 -0.337711 -0.597422
20.1766 40.0075 10.6665 0.0980992 -0.906432 0.410801
24.0652 37.8788 11.0456 -0.376898 -0.255623 -0.890283
26.0429 39.2962 11.7669 0.257094 0.505882 0.823399
24.865 38.688 9.17958 0.807843 0.55637 0.194531
24.6103 40.776 12.3682 -0.382297 -0.922318 0.0563698
25.3039 40.1258 11.8055 0.722668 0.587868 0.363541
26.8132 41.1557 11.6614 0.659485 -0.53652 0.526522
26.7222 40.1013 8.42819 0.0639619 0.990541 -0.121394
26.8592 40.9127 13.5651 -0.183262 -0.353669 -0.917242
30.9944 39.2704 11.0268 -0.702276 -0.496181 -0.510502
24.5218 40.7993 11.3183 -0.948706 -0.211883 0.234654
29.7576 40.5759 9.52115 -0.80299 -0.205216 0.559548
28.8946 39.3008 9.81955 -0.749859 0.653191 0.105133
31.6223 38.0096 9.31478 0.226438 -0.063111 0.971979
29.9571 39.1185 8.88459 0.590207 0.759905 0.272398
32.1529 40.7299 7.29883 0.197622 0.261991 0.94462
31.9949 37.3154 11.4758 0.654452 0.431915 -0.620598
31.5661 37.076 10.3995 0.520607 -0.356128 -0.775977
32.5985 39.7538 10.5747 -0.701839 0.650758 -0.289717
37.4929 37.6571 10.2527 -0.715503 0.676382 0.17482
32.5973 39.3034 9.66191 0.220515 -0.910634 0.349454
38.0293 39.6795 10.6201 -0.266124 -0.112139 -0.957394
36.6931 40.8512 11.7037 -0.531719 -0.609881 0.587639
39.5476 38.3202 10.4447 0.473049 -0.751546 0.459786
37.3691 0.175504 11.6942 -0.547586 0.669544 -0.501857
39.9429 0.0532956 11.7275 0.43239 -0.354597 -0.829035
39.717 40.606 9.48367 -0.512679 -0.708372 0.485148
40.8005 37.7182 8.67813 -0.301262 0.56458 -0.768434
38.3008 40.6116 8.53835 0.301825 0.189472 -0.934346
0.573033 39.0097 14.1186 0.470388 -0.539774 0.698125
41.7647 37.9093 8.20922 -0.149757 0.893134 -0.424128
40.4315 40.0896 10.1869 -0.119309 -0.990982 0.0609992
39.3924 3.15979 10.8429 -0.563794 -0.219324 -0.796262
9.21895 38.2569 15.4958 -0.139528 0.293465 -0.945733
4.49884 1.70664 7.02737 0.0983047 -0.641831 -0.760519
4.48199 2.99115 6.57763 0.925088 0.324885 -0.196627
5.45232 0.588089 11.5693 -0.582839 -0.806881 -0.0961308
7.18712 41.594 11.0442 -0.77452 0.0961279 -0.625202
8.84724 41.5458 8.32714 -0.469153 0.752437 -0.462314
7.42028 41.9353 7.80637 -0.24273 -0.37961 -0.892736
10.747 40.8277 13.1126 -0.345763 0.852957 0.391039
8.11344 40.2192 10.0932 -0.37415 -0.815609 -0.441354
13.7681 0.508232 8.18229 0.626118 -0.770607 -0.118915
13.1221 40.9989 8.33888 -0.816993 -0.402022 -0.413401
10.1088 41.1433 10.9182 -0.484081 0.827579 0.284216
13.3321 41.4754 11.0898 -0.373801 0.792979 0.481099
12.6524 41.5001 9.09909 0.316816 0.934634 -0.161517
16.5722 36.3008 7.20835 -0.544404 -0.819713 0.17803
11.766 41.584 9.74458 -0.0214576 -0.716085 0.697683
14.9592 41.3142 12.1743 0.597051 0.560046 -0.574351
16.5162 41.6413 11.761 0.488287 0.824828 0.285016
18.5805 40.3748 11.6659 -0.764729 -0.236059 -0.599554
17.4348 2.1669 11.4331 -0.494837 0.796764 0.346849
20.7873 39.5872 9.86994 0.424375 0.898948 -0.108623
21.2179 1.79496 6.69226 -0.284999 -0.89112 0.353101
22.8751 41.2575 6.61481 0.803799 0.53011 -0.269982
20.2765 2.74002 12.1664 -0.0728557 -0.833625 0.547505
23.8924 41.6917 10.6349 0.695469 -0.633691 -0.338759
22.4689 3.92573 6.72638 0.56683 0.793973 -0.219797
24.6576 2.83039 6.21337 0.652979 0.2059 -0.728851
24.6383 0.657037 12.3358 -0.713362 -0.355629 0.603856
26.0624 41.5934 13.5098 -0.483516 -0.574504 -0.660422
23.6511 40.1839 8.23086 -0.00842869 0.472375 0.881357
26.1058 40.2034 11.0358 0.737215 -0.118037 0.665267
24.0908 40.2443 14.6071 0.0326297 0.301048 -0.95305
27.2554 0.0688689 11.8029 -0.768398 0.637606 0.0549785
25.6091 0.422013 12.9595 0.74955 0.64086 -0.165749
29.519 39.9773 8.504 0.804945 0.460643 -0.373994
29.0507 2.16399 11.1718 -0.444605 0.22409 -0.867243
29.8069 41.8109 11.1784 0.273102 -0.701779 0.657968
30.336 2.79819 8.92105 -0.289894 -0.858239 -0.423541
29.5968 39.2242 7.71094 -0.926731 -0.222454 0.302793
30.5771 0.228157 11.8694 -0.842032 0.533285 0.0811689
31.7367 39.2183 10.1863 -0.389635 0.676137 -0.625319
35.7474 1.53105 10.7163 0.193803 0.630464 0.751635
32.2924 41.6149 9.37427 0.743537 0.663404 0.0839496
33.0049 1.07382 10.8035 0.504793 -0.384407 -0.772926
35.027 0.00417692 12.3257 -0.984016 0.0671275 -0.164943
38.1585 0.409218 11.0545 -0.0100618 0.965869 0.258835
36.14 40.4377 8.75825 0.15864 0.206707 0.965456
38.3118 3.73519 15.7662 -0.486256 0.577766 -0.655547
37.3693 0.3959 13.1185 0.623746 -0.0747114 0.778049
38.8304 0.317139 10.0106 0.475456 0.163481 0.864416
40.1385 39.6548 9.11538 0.741224 0.654979 -0.146935
40.0526 1.54823 12.333 0.845919 0.349654 -0.402695
39.6752 2.32352 11.7111 0.268354 -0.361328 -0.892989
38.9299 4.94402 10.5778 0.204264 0.952975 -0.223863
39.9717 4.56116 12.3382 0.662849 -0.606289 -0.439369
4.0887 0.186222 15.8817 0.873899 0.474005 0.107793
5.10753 3.89792 11.7072 0.904877 0.178003 0.386669
7.32113 3.63107 8.43507 -0.158816 0.604545 -0.780579
8.139 3.0224 10.234 -0.0890086 -0.312924 0.945598
6.0828 3.13858 10.2186 0.212552 0.869751 0.44537
7.16216 3.7068 9.91139 -0.679775 -0.228136 -0.697036
7.19597 4.47522 9.08386 0.885478 -0.385957 0.258779
11.8003 40.6602 13.3819 0.276629 -0.223972 -0.934512
6.65884 2.5076 8.59247 0.907329 0.000586003 -0.420421
11.3784 0.703606 12.5973 -0.746055 -0.652892 0.130902
10.6776 1.16398 11.9595 -0.747173 -0.157665 0.645657
10.8261 41.7859 10.5458 -0.201194 -0.497185 -0.843995
10.7628 2.06038 11.0674 -0.0737877 0.422949 0.903144
16.8311 2.3274 19.0071 0.629687 0.30069 -0.716296
12.19 1.54751 8.77163 0.228032 -0.774794 0.589656
13.9322 0.298772 10.6978 -0.161186 -0.495314 -0.853629
17.6381 2.87213 14.1039 -0.559073 0.07913 -0.825334
13.8994 1.14639 13.8573 -0.866503 -0.123905 0.483549
18.0961 2.05557 13.7462 -0.310049 -0.494074 0.812257
19.6885 3.91749 10.3056 -0.365283 0.710101 -0.601934
19.1276 1.77966 13.8529 0.451319 0.618509 -0.643241
20.8863 1.87415 14.6571 -0.379696 -0.924911 0.0192649
18.7705 1.34778 12.8905 0.785161 0.291217 -0.546548
20.5827 2.14964 11.302 -0.640217 -0.727878 0.245593
21.5108 6.52729 16.0181 -0.686211 0.727063 0.0222222
22.3481 2.31121 12.5047 -0.0119987 0.892009 0.451858
22.9499 2.94148 11.7145 -0.864777 -0.446746 -0.229299
24.2378 1.62349 12.4349 -0.308053 -0.118786 0.943924
23.3197 2.34529 14.3322 0.692558 -0.0656799 -0.718366
28.2154 2.65715 13.4243 0.762294 0.585942 0.274919
30.1309 3.9071 10.4006 0.830075 -0.503585 -0.239537
25.12 40.8766 14.9809 -0.79563 0.417011 -0.439404
27.5038 2.88697 12.2575 0.894198 0.340384 0.290771
29.5289 4.03449 13.2515 -0.759809 0.550585 0.345756
31.6234 3.47077 11.1848 0.865972 -0.500013 0.00893465
29.9264 1.9212 10.5753 -0.164486 -0.834178 0.526395
29.3929 4.87093 12.5454 -0.432989 0.705489 0.561076
31.9541 3.88567 12.9816 0.982867 -0.183969 0.0113424
32.0533 4.04422 8.89351 0.940556 0.253077 0.22651
31.1731 1.12862 12.019 -0.895311 0.331192 0.297876
32.1105 4.30367 13.949 0.873265 0.378502 -0.30683
36.526 3.10742 14.0596 -0.638403 -0.718359 -0.276411
34.3946 6.09493 11.8578 0.164582 0.741288 -0.650696
32.7663 1.91913 10.1679 -0.452237 -0.721717 -0.524029
34.8311 6.8275 12.5181 -0.778213 0.600397 0.184143
36.7591 4.10134 16.2566 0.755398 -0.537333 0.37503
36.8042 5.91504 12.1668 -0.300205 0.247105 -0.921312
37.8397 6.05697 12.03 -0.241407 0.701848 -0.670173
37.3495 6.21328 14.2731 -0.455095 0.698781 -0.5519
37.6368 2.94343 13.7432 0.432641 0.471039 0.768729
37.3823 4.26035 12.2736 -0.917806 -0.25849 -0.301356
38.3334 0.516618 12.6366 -0.572168 0.547232 -0.610869
39 1.79645 14.641 -0.169376 0.972421 -0.160341
3.04414 1.38392 13.1488 0.720896 -0.25429 0.644706
3.95793 9.53466 10.3798 -0.992179 0.117907 -0.0409842
3.34619 1.59064 14.6691 0.0625107 -0.605782 0.793171
2.83118 8.21435 11.6619 -0.623987 0.774571 -0.103347
4.53611 3.31885 12.5059 -0.284652 -0.929037 -0.236355
7.5748 5.1101 8.2918 -0.581546 0.805682 0.112607
8.66314 3.39253 7.3058 0.645434 -0.75998 -0.0764501
3.68488 6.06496 16.2996 0.547586 0.050969 0.835196
5.19748 3.02272 10.7215 0.0431912 -0.980001 0.19425
7.69164 5.37021 9.3546 -0.922788 0.328281 0.201725
9.61689 2.01773 9.09744 0.721501 0.554561 0.414607
9.12935 4.61113 11.0964 -0.996582 -0.0255432 0.0785566
6.65459 3.32677 12.7049 -0.117491 0.024624 -0.992769
11.4904 0.898196 9.94313 -0.190436 0.259159 -0.946874
12.24 1.86991 9.85414 -0.948504 0.308443 -0.072127
14.6363 4.58082 9.99439 -0.910008 -0.33004 -0.250917
13.2766 3.94375 10.6134 0.101206 -0.975041 0.197615
14.2469 5.36929 8.15894 0.799435 -0.600748 -0.00247607
15.1158 0.41428 10.6222 -0.245054 -0.0282668 0.969097
14.6891 4.32145 8.9437 -0.952084 0.128036 -0.277747
18.362 2.66138 11.3417 0.0981518 -0.491558 -0.865296
16.3548 4.11419 12.4893 -0.399041 0.42561 -0.812171
16.9537 1.57452 10.5456 -0.0227524 -0.940936 0.337819
15.9067 3.22365 11.9912 0.188055 0.0908754 -0.977945
22.2262 7.92158 14.6063 -0.814819 -0.28898 -0.502554
22.9865 8.57895 12.9106 -0.249689 0.964733 0.0833426
21.3541 2.11488 12.0812 0.0295268 0.992202 0.121093
24.3949 9.93307 13.6561 0.428937 0.00304813 -0.903329
25.0878 6.11771 15.1206 -0.0826517 -0.418079 -0.904643
24.2625 4.56164 11.5702 0.808591 -0.433051 0.398305
23.7553 6.09444 12.6117 -0.519897 0.179876 0.835076
25.8258 6.73758 14.5155 -0.625811 0.175997 -0.759859
24.9709 1.22297 13.224 0.387684 0.581724 -0.715051
31.2947 2.39209 11.5959 -0.460703 0.357876 -0.812205
31.8044 4.51077 10.8648 -0.665848 0.619973 0.415066
29.1128 6.59072 14.747 -0.380144 -0.756353 -0.532372
31.8503 4.2473 11.993 -0.888127 0.440058 0.132585
27.6881 8.0177 12.2726 0.755197 -0.126659 -0.643144
32.1179 5.24733 11.7747 0.642522 -0.40776 -0.648766
30.7207 7.25477 13.9047 -0.93303 0.308952 -0.184403
35.0627 5.21723 11.6366 0.517519 0.850254 -0.0961405
29.4716 8.59534 11.0938 -0.0859677 -0.490644 0.867109
31.1113 3.55029 15.1293 0.1021 0.977293 0.185669
32.4609 6.83881 13.3511 -0.571993 -0.803075 0.167017
34.6726 7.3911 14.0238 -0.376901 -0.261365 0.888613
33.4268 8.40223 11.1632 0.623708 0.733962 -0.268863
35.3109 4.36535 12.4725 -0.348969 0.887885 0.299801
36.5721 8.3869 11.9861 0.47973 -0.706761 -0.51995
35.0964 6.45745 13.595 0.907596 0.163378 -0.386753
40.7407 8.06756 10.7091 -0.126052 -0.919511 -0.372303
36.0609 7.47214 12.6925 -0.0387094 0.619443 0.784087
37.9905 9.6235 14.2159 -0.288793 -0.229384 -0.929506
38.4168 6.68897 14.5866 0.168881 -0.970594 -0.171542
1.72583 10.9018 9.70588 -0.845508 0.468873 -0.25549
38.9121 5.08863 11.5861 -0.342349 0.930763 -0.128365
40.9718 10.4112 11.7868 -0.296742 0.935852 -0.190066
4.3143 7.66392 10.1736 0.160004 0.410281 -0.897813
2.01381 8.67188 10.0748 -0.292194 -0.898193 0.32844
1.22108 9.04746 11.2651 0.345461 -0.929201 -0.131306
3.47184 8.19926 13.0048 -0.478718 -0.300877 0.824804
5.13166 11.3038 11.8631 -0.249551 -0.808651 -0.532736
1.30053 9.03816 9.27566 -0.437738 -0.156557 0.885367
10.7047 4.37938 10.0869 0.156117 -0.910916 -0.381916
3.43114 9.2923 13.1083 0.51129 -0.125343 0.850218
11.6911 3.31632 11.4887 -0.634964 -0.104115 0.765494
5.97272 10.7809 12.1231 0.0472729 0.546987 0.835805
12.2922 7.21263 10.2797 -0.297579 -0.713774 0.634014
6.61385 8.19884 12.4675 -0.292014 -0.85166 -0.435205
10.8438 3.25868 10.7511 -0.76792 0.437921 0.467466
6.97447 10.5226 11.592 -0.200236 0.715118 -0.669711
12.674 4.34622 7.74491 0.736605 -0.50768 0.44685
12.0306 5.20267 12.0376 -0.706554 -0.0291676 -0.707058
15.2864 3.64422 10.1315 -0.192732 -0.468806 -0.862018
17.0234 9.72234 13.2248 0.148397 0.83386 -0.531654
13.7004 2.89671 9.76452 0.157123 -0.813138 0.560463
17.9361 12.2943 14.7319 -0.441629 0.594328 0.672115
17.5353 4.01733 12.4374 -0.16807 -0.98411 0.0572669
19.6074 11.3592 12.5422 0.283187 -0.186835 0.94069
16.1059 5.01003 13.0093 -0.993585 0.00908099 -0.112718
21.5883 10.2178 14.7971 0.154749 -0.684462 0.712435
20.2765 9.17806 13.3419 0.659552 0.386327 -0.644781
20.8079 10.1524 9.22368 -0.137298 -0.905124 -0.402368
18.8077 4.50496 10.9142 -0.936764 -0.0940351 -0.33709
22.0334 9.57487 14.1427 0.333028 0.829473 -0.448405
25.954 8.19809 14.4971 -0.972006 -0.20624 0.112559
23.029 8.60463 10.2767 0.610122 0.259931 -0.748456
22.4208 9.36598 9.91204 0.323951 -0.230615 -0.917536
18.401 14.8333 15.2857 -0.661145 0.737663 -0.136893
24.5834 8.0887 12.0994 0.966553 -0.251858 0.0484056
24.7244 6.20919 13.1472 -0.538401 -0.534909 0.651151
28.3507 7.81576 13.0444 -0.677467 -0.678569 0.28387
27.9839 9.92754 17.2072 -0.519715 0.752018 0.405421
27.6564 7.66013 14.2437 0.501086 0.740987 -0.447047
30.7975 9.5753 10.5407 -0.295407 0.842123 0.45118
30.4017 9.05759 11.4634 -0.460084 0.868845 0.182843
30.8716 11.1908 15.917 0.714541 0.509313 0.479616
33.8052 9.63676 12.9357 0.62224 -0.771726 -0.131367
30.6997 11.4445 10.466 -0.75237 -0.0515337 0.656722
32.7974 9.14309 12.9666 0.398319 -0.646097 0.651076
31.3445 10.1994 16.0219 -0.160974 0.436949 0.884965
35.2234 8.75288 13.6056 -0.0774443 0.723545 -0.685919
35.3935 9.46865 11.2877 0.572582 0.265706 0.775597
34.7805 10.3436 11.2333 0.857098 0.361863 0.366659
32.6229 9.11473 11.3288 0.488935 0.273592 -0.828306
38.1743 8.55244 13.4796 0.460007 0.371918 -0.80627
34.2186 11.0929 10.4861 -0.837302 -0.0524642 0.544217
41.6011 7.25651 9.58014 0.129813 0.378631 -0.916399
37.1839 9.3104 11.8643 0.0168075 0.557136 0.830251
40.2228 9.78043 11.4044 0.00420112 -0.778056 0.62818
2.23017 11.6638 9.2247 -0.713321 0.646945 0.269508
0.128317 9.2352 10.8617 0.384961 0.735143 -0.558005
40.6896 12.5496 10.7518 -0.10348 -0.986922 0.123597
0.655731 8.75337 18.9251 0.801684 -0.390058 -0.452944
0.603344 8.17767 8.60155 -0.298653 0.511399 0.805778
0.125115 8.92108 7.92708 0.683652 0.559236 0.468908
0.996159 10.972 14.5964 0.832687 0.10434 -0.543824
4.43039 6.93674 14.7341 -0.608558 0.460369 0.64631
3.87228 10.4309 10.9762 0.763013 0.46659 -0.447331
4.99104 8.59843 11.3109 0.627934 0.726786 -0.278356
6.13688 13.7016 12.1102 0.0310675 0.986098 -0.163234
5.16691 7.71452 14.471 0.0312925 0.334238 0.941969
6.26105 9.70628 9.88233 -0.832347 0.300607 0.465654
7.43541 11.4917 12.1224 -0.890697 0.394371 0.226121
4.92841 10.7107 12.7104 0.333315 -0.799882 -0.499089
12.9504 5.32791 11.4253 -0.660872 0.292303 -0.691236
12.1571 11.4122 8.84689 -0.802742 0.00146103 0.596324
12.7983 11.2074 9.59922 -0.716457 -0.619286 0.321208
10.5719 15.926 12.1619 -0.19782 -0.703717 0.682386
17.4801 10.0682 14.0832 -0.571347 0.790877 -0.219261
14.2856 15.4071 9.23977 -0.299224 -0.568275 -0.766504
18.0347 10.2581 13.1366 0.218002 -0.850372 -0.478896
12.3781 15.774 12.614 0.127457 -0.740203 -0.660193
20.5221 10.3629 14.7776 -0.000256794 -0.417117 0.908853
16.5271 16.4063 9.57084 -0.211454 0.385762 0.898039
19.7347 9.96857 8.8622 -0.0764855 -0.99166 0.103733
20.8169 12.4809 14.2841 0.82097 -0.422217 -0.384372
21.4127 8.86796 13.4495 0.558536 0.529359 -0.638605
23.4346 12.5239 8.79935 0.0825315 -0.498387 -0.863017
20.61 12.2122 8.30754 -0.1334 -0.748746 0.649295
19.3436 13.5416 17.915 0.079864 -0.720641 0.688693
21.024 14.0852 16.0489 -0.94585 0.0796858 -0.31467
21.8491 10.157 9.5137 -0.0544576 -0.595119 -0.80179
23.7559 8.34852 10.9377 -0.556589 -0.713995 0.424757
23.3867 9.46379 11.3106 0.124741 -0.0590235 0.990432
27.0412 9.94885 16.5294 -0.494358 0.866607 -0.0678426
25.894 12.901 12.7642 -0.187985 -0.178559 -0.965805
27.8677 9.6455 11.1774 0.35566 0.472469 0.806399
26.3317 14.0345 13.3249 0.716174 0.0120676 0.697817
30.917 11.8345 15.0831 -0.974153 -0.169067 -0.149808
27.7319 15.5549 13.1193 0.747128 -0.664662 0.00494306
30.3145 10.1642 9.59617 -0.119744 -0.988827 0.0887829
28.7782 14.7793 14.0764 0.906349 0.323016 0.272381
30.3405 12.0502 16.002 -0.813578 -0.58007 0.0401148
33.0561 17.5568 9.66969 -0.145791 0.986982 -0.067915
32.9077 17.7555 11.5915 -0.787801 0.604877 0.116162
34.8233 12.4392 15.5967 -0.212218 -0.604724 -0.767641
36.8292 10.2104 15.6384 -0.767942 -0.192879 0.610789
40.4972 14.3624 7.3602 -0.242946 0.0854779 -0.966266
34.3817 9.82927 9.88349 -0.778053 -0.5097 -0.367204
38.2523 9.45382 11.8969 -0.0617537 0.323293 0.944282
38.2429 10.4788 11.6195 -0.73237 -0.451322 -0.509846
39.943 15.1759 8.01232 0.370922 -0.118993 0.921009
38.7008 10.6242 13.4176 -0.962342 -0.0644832 0.264084
39.6832 11.7316 15.9447 -0.538645 0.44638 -0.714567
41.0978 14.3922 9.55169 0.779224 -0.190385 -0.59713
41.5659 14.0817 5.9886 -0.848941 -0.421303 0.319064
41.2913 12.232 10.0095 0.682928 0.648841 0.335582
1.1182 11.8749 15.0789 0.562072 0.34792 -0.750351
1.99475 11.7057 10.3484 0.95905 -0.25384 -0.125651
2.09703 11.1626 17.6993 -0.0882828 -0.24944 -0.964358
4.96956 14.0351 10.1751 -0.458208 -0.272243 0.846126
2.15807 12.6039 16.7969 -0.513582 -0.678272 0.525529
6.36495 10.8886 10.1519 -0.869494 0.0272936 0.493189
4.65775 11.9926 10.9115 -0.657249 -0.433992 -0.616177
5.92059 11.9338 10.4585 0.169324 -0.195377 0.966001
6.44814 15.3989 13.0598 0.852347 0.470731 0.227853
5.2278 13.4599 14.6323 0.452601 -0.326588 -0.829754
7.09189 12.9222 11.8997 -0.0485574 -0.815143 -0.577221
10.1542 16.7353 12.6728 -0.274771 0.51001 -0.815102
8.44734 15.5635 12.6847 -0.73654 0.674006 -0.0567898
10.8213 17.257 13.5837 -0.760243 0.640177 -0.110476
13.5089 15.2625 10.1923 0.114561 -0.733221 -0.670271
11.5565 19.4778 12.5132 -0.954301 -0.175847 -0.241637
13.149 18.2819 14.025 -0.259691 0.248061 -0.933288
11.5866 15.7694 11.8183 -0.186874 -0.978823 0.083565
12.4753 15.2936 9.89688 0.161869 0.984833 0.0624636
14.1152 14.8575 11.2414 -0.83423 0.493369 0.246267
16.8548 15.5857 10.19 -0.809305 -0.0273151 0.586753
16.6139 18.4438 14.8179 -0.791377 -0.462925 -0.399279
15.6183 15.7845 9.8635 0.149735 -0.739509 -0.656282
15.1429 17.0335 9.72759 -0.704069 -0.542147 -0.458654
15.2854 16.8519 15.7407 0.745668 0.537957 -0.393168
22.6374 10.5465 14.834 0.499749 -0.791186 0.352527
18.6329 18.8428 12.893 -0.043186 -0.684846 0.727407
22.0453 12.6111 9.94161 -0.824474 0.481709 0.296982
20.2714 16.6379 14.6923 -0.0244009 -0.826926 0.561781
19.5283 15.1459 15.3377 0.224292 -0.579938 -0.783176
21.5182 17.0972 10.9553 0.324425 -0.450754 0.831606
24.8062 11.711 11.6174 -0.167404 -0.813797 -0.556517
21.2797 16.6157 13.8946 0.578498 0.799545 -0.161458
20.8489 15.1451 15.9607 0.875007 -0.124493 -0.46783
27.2842 17.4045 10.7529 -0.319046 0.874005 -0.366504
26.7853 12.2969 12.4111 -0.130946 0.277814 -0.951668
27.7508 15.5281 12.0572 -0.176185 0.984287 -0.0117734
28.3826 15.9226 13.8333 0.890645 -0.161118 -0.425196
30.4057 19.9103 10.1314 0.243897 0.945348 -0.216405
28.4187 16.279 12.7305 -0.547994 0.705335 0.449672
26.9013 17.8917 11.664 0.772437 -0.246798 0.585177
33.5927 10.7402 14.7407 -0.353245 -0.879401 0.319174
33.0592 13.6127 17.3892 0.787403 0.570381 -0.233799
35.7128 16.9727 10.9116 0.419064 0.889903 0.180163
31.9912 17.202 19.0077 -0.0201994 0.993647 -0.110716
35.7797 18.008 12.1341 0.459516 0.738703 -0.493116
35.8733 19.2021 9.30833 0.361795 0.481192 -0.798472
38.427 15.1141 6.7466 -0.49598 -0.75213 0.433941
35.2602 20.3247 11.8011 -0.648203 -0.184217 0.738849
38.9569 11.7072 16.9024 0.112655 0.596875 0.794386
36.889 18.5437 9.95259 -0.799924 -0.49431 -0.340263
39.0068 15.0037 8.63831 0.483485 0.549711 0.681219
40.5764 13.2893 15.5411 -0.782784 0.295084 0.547881
1.85682 10.3041 18.4691 -0.301027 0.237615 0.923538
0.439244 18.1087 7.54013 -0.720123 -0.365675 0.589665
1.46443 13.6827 8.35999 0.718528 -0.434482 -0.543086
0.712929 12.7837 15.3405 -0.334494 0.242584 -0.910641
1.11991 10.7403 17.7872 -0.0999936 0.520699 0.847864
1.58742 13.3832 9.36984 0.946613 0.169566 -0.274173
4.4208 17.6583 7.59806 0.365413 -0.13162 -0.921493
4.23315 17.171 16.8245 -0.126365 0.989439 0.0710134
6.39823 16.5882 13.3985 0.259141 0.0542375 -0.964315
3.16324 16.3577 9.4006 0.391611 -0.170105 0.904271
8.90646 16.1077 10.7105 -0.0895891 -0.97882 0.184081
6.48401 19.4003 13.1136 -0.599989 -0.0779415 0.796202
7.33763 14.9325 12.5134 0.426077 0.141879 0.893493
9.97924 14.3816 10.5745 -0.906329 -0.219253 0.361241
9.12785 16.164 9.66443 -0.601749 -0.782868 0.158164
8.9551 16.4836 12.7898 -0.564997 0.533173 0.629687
9.07871 17.6004 12.6632 0.096483 0.356825 0.929175
9.82436 14.5633 8.42189 -0.10081 0.912506 0.396447
9.05954 15.0183 7.77586 0.341151 0.88535 0.315866
11.3123 19.7119 13.5634 -0.898275 -0.43733 0.0429555
14.1979 18.7676 15.294 0.940795 -0.0383753 -0.336798
13.041 18.4397 11.3718 -0.542941 -0.145018 0.827155
12.2937 16.7555 10.8142 0.963342 0.259601 -0.0676784
11.8985 18.7621 13.2369 0.566768 0.420508 0.708482
15.2142 16.5842 11.5877 -0.908882 0.199101 0.366458
14.5409 17.0582 10.6737 0.617196 0.65595 0.434508
13.9006 18.7526 9.18266 0.693187 -0.713377 0.102878
16.1794 17.1461 12.5959 0.804282 0.584876 0.105116
20.5133 17.0846 15.6373 -0.439988 0.850312 -0.288756
20.2981 15.9641 5.73811 0.117518 0.604743 -0.787702
20.6802 16.3759 10.9327 0.30458 0.196483 -0.932001
20.4412 18.9746 14.1937 -0.301359 -0.0917522 0.949086
22.0566 16.3215 13.1016 0.571484 0.665811 0.47969
25.7416 20.6686 13.2062 0.835706 0.389901 0.386746
26.8541 19.9785 10.5078 0.213818 -0.927403 0.306931
25.0224 21.4642 13.3659 0.614039 0.514585 -0.598463
27.6882 19.3613 12.7596 0.671702 0.616718 0.410458
25.6239 17.2733 10.7599 -0.623015 -0.52746 0.577614
28.7865 19.0259 9.163 0.703149 -0.481924 -0.52281
29.5244 21.7723 12.7416 -0.658021 -0.169233 -0.733736
31.0546 20.5984 11.892 -0.364553 -0.681787 0.634246
26.0696 19.6051 9.85434 0.0396933 -0.885789 0.462388
28.037 17.9652 11.1569 -0.505365 0.794392 0.336968
31.0775 19.6737 11.3058 0.933288 0.35913 0.000121055
31.6785 15.7602 16.6056 -0.667582 -0.115028 -0.735597
32.046 21.5213 7.53003 -0.271931 -0.711196 -0.64827
34.0748 16.8309 9.18946 0.061164 0.748949 0.659799
32.3792 18.619 14.3298 -0.934427 -0.244374 -0.25909
37.4056 19.6517 14.5795 -0.169415 0.259162 -0.950859
34.8222 19.4934 11.3718 0.943312 -0.190793 -0.27159
33.8261 18.7987 9.9869 -0.208012 0.621267 0.755485
36.5207 20.6314 14.6447 0.619029 -0.270895 0.73717
38.5482 12.306 16.1557 0.784135 0.577682 0.22675
37.9406 19.77 9.60804 -0.988109 -0.147196 0.044424
39.3808 18.0356 8.10951 -0.351124 -0.934461 -0.0591116
41.056 16.3686 19.0577 -0.57062 -0.813975 -0.108799
0.0522264 13.8787 16.9473 -0.10933 0.623418 -0.774207
41.0869 18.4409 8.6515 0.0860218 -0.048994 -0.995088
0.0939003 18.9571 8.27604 0.0573365 -0.471359 0.880076
1.64809 19.6218 16.5797 -0.0160675 0.13819 -0.990275
1.40604 12.7318 17.8182 0.367201 -0.552101 0.748564
2.32715 15.7739 9.60572 0.117127 -0.744552 -0.657209
1.51474 23.6618 9.97197 0.00590869 0.605952 -0.795479
1.6331 24.7294 10.3017 0.596361 -0.445117 0.668001
6.89875 19.2091 14.2166 -0.467966 -0.692469 0.549085
5.58097 19.8779 12.8486 0.151218 -0.659133 -0.736666
6.51286 20.4424 12.8514 0.184844 0.0112628 0.982703
6.19276 18.4928 12.6124 0.910116 -0.114468 -0.398228
6.76558 19.5855 16.3844 0.325526 0.841033 -0.432084
9.44157 22.259 12.7424 0.497876 0.753769 0.428897
8.33321 16.6894 9.23287 0.653273 0.0178935 -0.756911
7.34329 21.2228 13.1372 0.614146 -0.571362 0.544399
10.9777 20.077 14.5117 -0.558226 -0.782468 0.275913
10.5106 20.216 12.6486 -0.826088 -0.290505 0.482893
13.9921 22.7592 7.73987 0.676904 -0.364941 0.639233
13.7609 23.742 17.1152 0.637537 -0.393549 -0.662318
12.1686 18.6129 15.1315 -0.0287474 0.487872 0.872442
13.9709 21.9796 7.09913 -0.0722112 0.568938 -0.819204
11.8969 18.804 10.7186 0.250062 0.480459 0.840612
16.086 24.2061 17.2923 -0.0669927 -0.926689 0.369809
16.945 16.4043 12.6564 -0.254646 -0.439219 -0.861535
15.4667 21.739 13.4425 0.0424419 -0.920404 -0.388658
14.0763 17.931 11.3677 -0.719293 -0.616064 0.321065
17.1813 18.1242 11.6932 0.854563 -0.305603 -0.419916
19.4811 18.8429 13.6866 0.511197 -0.769618 -0.382577
18.315 18.0906 12.2181 0.44935 0.551053 -0.703154
14.9644 17.6122 12.2596 0.875297 0.149852 -0.459782
19.5555 23.6632 13.9606 0.533794 -0.839202 0.103941
26.7443 22.0787 11.8767 0.543233 -0.81538 -0.200134
28.2178 25.2006 10.3448 0.739624 -0.594191 -0.316059
24.0455 21.1254 12.8835 -0.717674 0.14135 0.681883
22.4759 21.6758 15.4733 -0.146151 -0.643471 0.751389
28.76 22.7567 10.4781 0.237438 -0.684727 0.689037
27.0633 22.9415 11.235 0.181623 -0.85952 -0.477743
28.0885 23.4448 11.3018 -0.249968 0.0851282 -0.964505
27.5101 22.7116 12.281 -0.532824 0.356727 0.767362
30.0421 20.4856 11.5059 0.222674 0.532007 -0.816936
27.7902 20.4484 10.8073 0.587578 -0.8061 -0.0703955
29.7538 22.7715 10.141 -0.0644466 -0.97329 0.220347
31.6378 24.0588 9.32197 0.0553621 -0.0397161 0.997676
32.3205 18.8023 15.4497 0.811371 0.578456 -0.0840605
33.2808 23.7221 10.152 0.763605 -0.628129 0.149541
34.6059 19.3159 9.20791 0.238487 -0.136636 0.961485
34.7464 23.7566 6.38474 -0.28999 0.107695 0.950951
35.5753 20.8313 12.7103 -0.142554 -0.706375 0.693334
37.9051 24.7158 9.04377 0.965973 0.246744 0.0775428
37.2232 19.2165 12.2639 0.366252 -0.501532 0.783789
38.8847 23.1924 14.1881 -0.213182 0.713489 -0.667448
37.5457 21.5024 13.1428 0.0814163 -0.344051 -0.935415
37.6145 23.6066 8.53581 -0.727167 -0.0937584 -0.680028
0.213689 18.5487 6.26368 -0.60584 0.278892 0.745102
36.8987 23.1216 14.5906 0.0700309 -0.656125 -0.751396
2.10521 17.9036 18.6322 -0.273101 0.95887 0.0773571
39.7362 21.0028 8.55995 0.555466 0.188049 -0.809997
38.7808 18.1719 7.22566 0.58755 0.808776 -0.0258271
0.354668 23.2602 10.7568 -0.382118 0.365472 0.848773
3.46402 16.2778 17.2379 0.448558 -0.628963 0.634981
2.05645 25.6993 10.4646 0.887147 -0.420424 0.190301
2.74638 24.7553 8.51228 0.962177 -0.271316 0.0245456
2.0341 31.1694 13.9234 0.22403 0.481395 0.84739
4.03078 18.7362 15.6204 -0.583348 0.678366 -0.446681
3.17926 27.2019 7.01649 -0.632624 -0.363448 -0.68388
3.96286 25.4938 8.05685 -0.465506 -0.00555345 0.885027
5.14532 21.1727 16.8349 0.0857159 -0.390933 -0.916419
8.39537 22.5563 12.8699 -0.261592 -0.956031 -0.132568
7.92811 29.0947 9.32301 0.430185 0.776855 0.459822
9.84072 21.0649 12.6006 0.130214 0.169766 -0.976844
6.21852 21.9339 14.6951 -0.464166 -0.819645 -0.335755
13.1039 24.247 16.4572 -0.0164259 -0.73301 -0.68002
8.56073 28.4629 9.91704 -0.203191 -0.665749 -0.717978
13.3799 21.2611 6.71035 -0.528425 -0.053439 0.847296
14.2247 25.8926 17.7144 -0.913285 0.231425 -0.335192
13.8387 24.7123 19.2238 -0.349686 0.703789 0.618385
17.3379 25.7944 16.0101 -0.888269 0.207485 0.409791
11.7754 22.2723 5.75596 -0.155985 -0.944275 0.289851
15.5857 26.5588 15.1613 0.326344 -0.942256 0.0751931
17.6243 18.8336 12.8173 -0.126364 -0.0550872 0.990453
14.0509 19.4417 13.2964 -0.826497 -0.290693 -0.482079
13.804 20.4572 12.9362 -0.948943 -0.00705602 -0.315368
17.7119 26.1196 13.2148 -0.387172 -0.552349 0.738247
20.545 22.2196 15.0245 -0.0294684 -0.634946 -0.771994
18.0675 24.2452 13.7561 -0.291502 0.646457 0.705067
25.6744 24.5756 10.336 -0.528025 0.464612 0.710862
22.5975 24.3686 15.3205 0.961957 -0.147631 -0.229876
20.1766 23.6399 13.1065 -0.0524124 -0.959351 -0.277307
27.4559 25.1462 9.12104 -0.40267 0.761646 -0.507694
21.5088 21.7766 14.9274 -0.0999661 -0.299879 0.948725
20.9487 25.1802 14.8445 -0.285729 -0.044333 -0.957284
27.1895 21.7626 12.8368 -0.811132 0.141787 0.567417
28.5007 25.0599 8.04933 -0.881476 -0.444529 0.159354
30.1823 23.6665 11.7739 0.892486 0.137088 -0.429739
30.1821 24.4955 12.7588 0.839037 0.538114 -0.0803145
29.4323 26.8724 13.4082 -0.165731 0.505556 0.846726
29.6139 24.8303 11.7133 -0.987849 0.134019 -0.0786928
29.895 27.5331 11.3915 0.34109 -0.830154 0.441024
31.1277 28.3966 12.62 0.174986 -0.938192 -0.298624
32.8326 23.6986 11.1573 -0.905851 -0.344784 -0.246088
34.4367 27.2947 12.1319 0.364675 -0.401902 -0.839933
32.2198 23.0191 9.91588 -0.271968 -0.584698 0.764305
31.4342 27.3758 13.4432 -0.845399 -0.194856 0.497325
37.7838 28.0289 13.1643 -0.642356 -0.596508 -0.481204
35.8759 25.0535 10.5111 0.584498 -0.465365 0.664679
36.4511 23.7677 13.9094 0.467888 0.778177 0.418953
37.4655 26.4623 10.0711 -0.202 -0.0770436 -0.976351
35.9842 22.0608 14.1535 -0.79686 0.544966 -0.26082
36.4652 26.8679 10.3288 0.592497 0.566673 0.572564
38.4952 26.4086 10.1347 0.00424871 -0.784571 0.620025
38.6346 29.1675 11.558 0.779801 -0.527448 -0.337208
36.0924 22.432 15.211 -0.959359 0.211798 0.186474
38.4184 27.076 10.9237 -0.412191 0.67317 -0.613956
1.70134 23.67 7.7865 0.41181 0.274766 0.868859
1.4053 24.98 12.7115 0.242834 -0.401739 -0.882971
2.5723 17.9205 15.7167 -0.95068 0.211767 -0.226634
1.55163 27.4436 11.329 0.932037 0.0667253 -0.356166
3.00782 26.6334 10.99 0.883637 0.397595 -0.247193
3.1724 31.4817 12.58 0.157972 0.357739 -0.920363
5.7423 22.1485 15.7219 -0.0121594 -0.940958 -0.338304
1.90689 28.9505 9.15505 -0.662148 -0.747586 -0.051721
4.29672 26.2638 8.90687 0.0338373 -0.699898 0.713441
4.64478 30.5024 12.9396 -0.311103 -0.939609 -0.142651
5.34391 22.5076 14.7691 -0.371481 -0.926076 0.0662224
7.67537 30.9375 11.3915 -0.855714 -0.35305 -0.378297
8.34321 30.0218 11.551 -0.256328 -0.42116 -0.870012
4.9188 30.3708 11.9214 -0.788305 -0.458239 -0.410599
12.1542 24.3929 16.0754 -0.0797284 -0.996696 0.0155102
8.98716 31.0111 9.81917 0.340694 0.224025 -0.913094
10.7509 29.7303 10.153 0.811415 0.565248 0.148661
17.5257 24.8462 16.4252 -0.984867 -0.0967765 -0.143774
15.0388 26.4735 17.2554 -0.874755 0.483659 0.0296154
15.0313 31.4382 13.5937 -0.421577 0.771684 -0.47621
17.0634 25.091 15.1857 0.375101 -0.87899 0.294406
13.2911 31.1521 14.6948 -0.741582 -0.341763 -0.577282
17.4453 26.6411 14.7184 0.369275 0.0419148 0.928375
13.8391 30.2302 14.8202 0.460642 0.330179 0.823887
19.3457 26.9962 13.6871 -0.163124 0.664219 -0.729523
16.8842 30.2461 16.7556 0.412143 0.115609 0.903755
18.5791 25.8524 14.0718 0.659623 0.112435 -0.743139
18.8676 27.9081 14.2112 -0.74934 0.343498 -0.566126
20.3195 27.2322 13.8594 -0.223788 0.971635 0.0764463
17.9893 30.1725 16.7465 0.302962 -0.428643 0.851164
21.9459 25.3138 14.1937 -0.591306 0.785116 -0.184255
25.6714 27.5762 12.6289 0.581906 0.554494 -0.594913
26.7268 25.0523 8.03815 0.387213 0.299014 -0.872156
27.6199 27.9962 13.503 -0.0600083 -0.964831 0.255931
23.468 26.2834 14.7542 0.993597 0.0470398 0.102726
28.3857 27.9864 10.2031 0.447866 -0.303105 0.841156
29.7084 24.7619 10.643 0.46386 -0.880337 0.0992004
28.2187 28.6074 11.1654 0.894118 0.350449 0.278818
30.721 26.7559 12.741 -0.584998 0.734133 0.344712
29.8799 26.7232 9.58126 -0.697862 -0.675031 0.23942
30.5387 25.6232 9.37416 -0.929963 -0.300164 0.212298
30.386 25.4561 11.1063 0.632823 -0.597772 -0.492142
33.6415 28.4737 14.4148 0.803801 -0.176287 0.568179
33.6397 27.2961 11.0154 0.138509 0.622263 0.770457
32.4876 27.4165 11.9658 0.577316 0.815241 -0.0456882
32.4011 28.7913 12.548 -0.531671 -0.426303 0.731841
36.3306 25.8662 12.1338 -0.189321 0.970621 0.1485
35.2153 29.3594 13.4676 -0.207195 0.968414 -0.138727
35.6685 26.1063 11.3289 -0.263461 -0.958511 0.108834
38.2383 27.3717 12.3274 0.560993 0.187511 0.806305
36.7318 23.5602 17.7315 0.332399 0.263095 -0.9057
40.4315 27.3552 12.4195 -0.860433 0.344328 0.375624
36.8042 26.3678 11.2495 0.0861247 0.801332 0.591988
38.8994 30.5217 15.1871 -0.780454 0.609692 0.138448
41.5429 26.6457 10.0193 -0.777563 0.627687 0.0374838
41.2249 28.1723 9.31854 -0.0350058 -0.975943 -0.215196
39.2402 29.6435 10.6799 -0.2467 -0.434972 -0.86599
40.778 29.0434 11.4077 0.823252 0.0956758 0.559556
41.5489 23.8621 10.3627 0.258936 0.847978 0.462477
0.242277 30.2865 8.30038 -0.670776 -0.640689 0.3736
0.0157802 27.6558 9.8737 -0.497268 0.541803 0.677624
0.99673 31.2416 14.221 0.401148 0.821569 0.4051
3.66029 33.6302 11.079 -0.813717 -0.400764 -0.421013
0.730723 31.6965 10.9012 0.997389 -0.0668484 0.0273126
0.316848 29.0021 8.24983 -0.572531 -0.470378 -0.67153
5.6076 30.5516 10.6627 0.114179 0.896537 -0.428001
4.05015 31.9154 13.2827 -0.28869 -0.140367 0.947077
5.81269 33.0671 10.5862 -0.0591809 -0.976937 0.205162
7.96681 31.5105 9.50348 -0.15361 0.928289 0.33865
4.00287 32.618 11.3596 -0.234973 -0.345203 -0.908638
9.01766 32.2198 9.16252 0.81746 0.159746 0.55339
15.1084 32.0254 11.1786 0.178779 -0.821455 -0.541526
9.73046 31.2571 10.7362 -0.418024 -0.438756 0.795455
15.0211 31.5483 16.5243 0.12313 0.19084 0.973868
14.2202 32.3071 14.7965 0.754344 -0.620441 -0.214519
13.2449 32.4456 13.0579 0.739737 -0.276566 0.613433
14.4816 30.7134 13.0229 -0.14671 -0.651934 0.743948
14.4001 33.2956 13.2307 -0.679671 0.198188 0.706236
14.1251 31.1388 14.0307 0.633107 -0.294653 0.71579
19.2932 31.9667 12.8903 -0.11426 -0.894489 -0.432244
16.8866 30.5132 12.3904 -0.205022 0.412919 0.887391
17.2693 31.0695 14.6945 -0.639598 -0.685449 0.347958
18.0577 31.1667 17.2156 -0.803892 -0.0206032 -0.594419
18.9764 29.4275 13.5733 0.915181 0.374481 0.149021
25.1884 27.2064 10.0307 0.473358 -0.435653 0.765597
18.5561 31.173 14.958 -0.585411 -0.80973 0.0403959
28.7949 28.2032 14.972 0.782148 0.554952 0.283323
25.2316 29.467 13.2181 -0.474085 -0.275975 -0.836111
24.7169 28.2844 12.8038 -0.19187 0.00617274 0.981401
26.4584 34.0986 16.4991 -0.502953 0.658239 0.560143
27.9119 26.7515 12.2956 -0.324762 -0.605988 -0.72616
26.8521 29.891 11.8948 -0.577394 -0.394462 0.714854
27.0362 27.4146 12.3698 0.720335 0.668092 0.186469
28.8469 29.412 14.5057 -0.616966 -0.161083 0.770328
31.226 26.1806 10.9424 -0.219458 0.602946 0.767004
27.2938 35.6661 10.5522 -0.450569 -0.892733 -0.00405918
31.4434 27.0822 10.4321 0.186702 0.36202 0.913282
31.4594 34.0343 14.773 -0.261976 -0.928936 -0.261622
33.3679 31.299 12.5568 0.24824 0.168745 0.953888
29.8024 34.594 13.2075 -0.869504 0.375512 0.320864
33.0755 29.4419 10.5415 0.656565 0.232114 -0.717667
32.3192 33.599 15.0774 0.00691378 -0.620146 -0.784456
35.6167 29.9979 11.2982 -0.847918 0.260106 -0.461931
35.4756 30.1614 12.3523 -0.88938 -0.445406 -0.103036
32.7049 30.8792 9.78982 0.774205 -0.403584 0.487573
36.124 29.4734 12.9262 0.472899 0.627938 0.61811
38.6897 30.2261 16.8913 0.436196 0.0720956 0.896959
35.0513 26.8926 10.1221 0.468952 0.694062 0.546226
36.6229 29.3141 10.8308 0.775172 -0.277127 0.567723
37.8701 32.6362 16.4341 -0.02765 -0.963543 -0.26612
40.8182 29.6218 10.4502 0.818399 -0.574635 -0.00422096
41.2926 30.5588 10.324 0.401176 -0.622607 -0.671876
41.3142 30.0165 11.2547 -0.915805 0.27764 0.290202
39.5123 33.3049 14.9911 0.174043 0.0449679 0.983711
1.66658 30.3329 14.5104 0.147915 -0.683381 -0.714921
0.454563 33.2219 10.1926 -0.436502 -0.899665 -0.00826031
1.97101 33.1177 8.55076 -0.253925 -0.883235 0.394232
2.92132 32.3965 15.2928 -0.846402 0.364531 -0.388227
1.42713 31.9082 13.3779 -0.49152 -0.688634 -0.533096
2.60372 34.1105 10.1495 0.903162 -0.380905 -0.198016
5.66846 32.6788 9.62586 -0.892111 -0.273823 0.359387
9.95151 31.4194 16.3281 0.535778 -0.607811 0.586095
7.92894 32.8556 10.9627 -0.609169 0.000446695 0.79304
9.15449 35.4951 12.6037 0.0954038 -0.995222 0.0207502
6.86401 33.0425 10.6321 -0.113205 0.713828 0.691111
9.79 33.6888 12.157 0.879175 0.0577626 0.472984
11.9932 33.5475 12.3094 -0.785936 -0.445342 0.428923
12.7688 31.7105 12.1721 0.999287 -0.0183586 0.0330001
12.8826 30.8994 11.4143 0.801112 -0.136225 0.582806
11.7784 34.1313 13.3461 -0.644636 -0.668682 0.370551
13.7907 33.0054 12.3618 0.610324 -0.737327 -0.289574
14.1117 35.3213 12.0562 -0.493624 -0.862452 -0.111856
14.4078 34.0399 12.2985 -0.00640453 -0.63006 -0.77652
12.6176 32.361 13.9539 -0.394373 -0.804648 -0.44386
15.782 31.6149 11.8899 0.683401 -0.529561 -0.502523
13.7315 35.2571 15.419 -0.988709 -0.137671 0.0591743
16.2418 34.7849 14.2145 0.743649 -0.459725 -0.485427
20.7165 35.8782 13.8176 -0.187032 0.918076 -0.349509
17.4324 33.1257 14.6348 -0.845588 0.529596 -0.0671519
21.5147 35.5436 12.9437 0.551031 -0.139559 0.822732
20.2815 31.7024 13.1135 -0.0742985 -0.203272 -0.976299
17.3667 34.3407 16.9458 0.302417 0.738498 -0.602632
27.5988 34.3309 16.5532 -0.392765 0.333553 0.857017
27.6042 37.0878 12.8968 -0.590864 0.673089 0.444781
25.9535 34.8874 15.7846 -0.161569 -0.922361 -0.350921
26.64 35.5611 15.1808 -0.545524 -0.561589 -0.62211
26.0794 35.7723 12.9954 0.489102 -0.58375 0.648086
27.7101 29.0147 12.076 -0.608185 -0.740175 -0.286797
27.4716 31.1572 11.6709 0.730805 -0.289436 0.618184
26.8056 36.5749 12.3894 -0.256369 0.935334 -0.243773
29.3178 32.3593 12.7342 0.955125 -0.181952 0.23373
28.2483 35.296 11.0482 -0.276435 -0.646354 -0.711203
27.6066 36.387 11.6386 -0.269449 -0.95194 0.145627
30.8407 34.3802 13.9134 -0.746422 -0.65499 0.117655
29.4215 32.6745 14.7334 -0.807697 -0.582391 0.0919076
30.3248 35.3154 11.4859 -0.203887 0.233476 -0.950747
29.0974 33.4305 12.9532 -0.917835 -0.0366879 0.395263
33.5083 35.5183 13.0144 -0.0377997 0.0697376 0.996849
34.0968 33.1535 12.3994 0.77504 -0.615925 0.14124
35.5234 30.7416 13.9516 0.689811 0.18663 -0.699521
34.2958 31.8099 12.3453 0.561761 -0.318875 0.763376
35.7376 33.8425 12.1155 -0.211037 -0.813374 0.542113
38.8624 31.983 13.8093 0.0192832 0.564498 0.825209
39.1732 41.4152 11.1629 0.332568 -0.792019 -0.511961
41.6037 32.8533 9.3968 -0.669536 -0.633758 0.387391
37.7341 33.1386 14.5732 0.764097 -0.0371255 -0.644032
39.0286 32.929 16.4166 -0.170411 0.83192 0.528081
41.7634 32.908 8.18566 0.953521 -0.283511 0.102073
41.5596 31.9981 8.70747 0.972231 0.0294863 0.232157
0.871224 32.3873 12.6089 -0.887818 -0.45785 -0.0463899
0.772735 32.5897 14.052 -0.606985 -0.722988 -0.329934
1.41238 32.8275 10.2956 0.23646 0.660762 0.712376
2.2824 31.0316 11.937 -0.0197554 -0.902339 0.430575
1.71641 39.2025 14.263 0.383061 -0.872588 0.303076
9.5661 34.6438 14.5126 0.559597 0.00747642 0.828731
1.13385 37.6297 11.7791 0.721618 -0.691918 0.022717
8.41693 35.7674 11.8178 -0.279005 -0.8826 0.378383
8.55645 34.4681 14.8763 -0.408479 -0.593035 -0.693869
10.6135 37.2232 12.5016 0.0755213 0.100031 0.992114
6.59017 40.8072 11.5299 -0.223435 -0.547046 -0.806732
10.3243 35.0378 12.6606 0.341505 0.500588 0.795478
8.82194 35.585 14.6213 0.951299 0.0981344 0.292232
12.7923 35.1019 13.7719 0.281292 -0.855389 0.434954
11.0882 33.2787 11.4971 -0.72467 0.676095 -0.133225
10.2941 32.6917 11.9022 0.507408 -0.400281 0.763094
15.5461 36.2459 13.7662 0.286638 -0.0768695 0.95495
11.777 35.044 14.1093 -0.354106 0.257725 -0.898992
14.7406 35.6486 14.3047 -0.303802 0.629212 0.7154
15.7632 35.6707 12.1241 0.653306 0.275998 -0.704994
13.7235 35.5168 14.0513 0.304066 -0.91244 -0.273854
20.762 36.0206 14.9051 -0.863757 0.341139 -0.370874
19.0798 37.8094 10.8007 0.66977 -0.0644355 -0.739768
17.0105 33.008 13.5113 -0.732202 0.633895 -0.249114
19.7778 38.0258 13.3223 0.190188 -0.816623 0.544936
22.5704 34.975 16.0298 -0.252463 -0.724386 0.641504
22.8592 36.3187 11.4871 -0.591284 0.803636 -0.0674757
22.9619 36.9159 12.5613 -0.415873 0.907911 0.0524148
21.0331 37.4343 17.4569 -0.913457 -0.376822 -0.153626
25.5356 36.9712 14.4299 -0.866923 -0.306361 0.393176
22.6016 35.4138 10.431 -0.405932 -0.905462 -0.123924
22.9342 37.7204 11.1928 0.000732678 0.564691 0.825302
23.8863 39.2178 13.7764 0.445583 -0.0668698 -0.89274
26.3626 36.7658 13.2994 -0.859399 0.408965 -0.306889
27.0621 39.9928 14.3641 0.284215 0.0921979 -0.954317
28.0888 29.9067 13.9537 -0.307886 0.50103 0.808811
31.132 38.3128 14.2499 0.901725 0.123836 0.414194
29.9542 36.1648 12.0425 0.803116 -0.0233279 0.595366
27.5633 38.9451 12.8903 0.381319 -0.848037 0.368008
29.2667 35.0582 11.4091 -0.0255608 0.224088 0.974234
29.2572 36.9101 16.5334 -0.193157 0.494319 -0.847549
32.0339 37.0111 12.8146 -0.36616 -0.93049 0.0107794
28.9151 36.6938 9.6914 -0.976423 0.111514 0.184832
32.8057 36.2761 12.5544 -0.392543 -0.396521 -0.829868
29.69 39.4561 12.497 0.0123494 -0.837522 0.546263
36.2534 32.5838 13.2048 -0.477961 -0.87653 -0.056989
32.6279 38.277 11.8488 -0.304644 0.901334 -0.307878
35.1147 31.6544 11.6705 -0.481489 0.412339 -0.773399
36.025 34.2116 14.3976 -0.515425 -0.0928865 0.851886
36.7724 32.136 13.9542 0.101678 -0.928666 -0.356709
36.8649 40.3018 10.7187 0.931018 0.346748 0.113891
38.86 40.4565 11.6191 0.779038 -0.613051 0.131406
38.356 34.9884 15.7595 0.0470371 -0.879668 0.473257
0.870118 35.9285 15.9951 0.730128 -0.03856 0.682221
38.8493 39.1641 12.2208 0.0236357 -0.141904 -0.989598
40.0738 34.2828 6.26128 0.214778 -0.136588 -0.967065
40.309 38.2965 13.3468 -0.631748 0.775046 -0.0140434
3.61641 32.8538 13.6375 0.0775217 0.0787758 0.993874
2.3607 39.3572 13.4009 -0.107171 -0.888291 -0.446603
2.12415 39.8626 12.4749 -0.623833 -0.756469 -0.196436
1.85859 41.4356 13.4861 0.00894344 0.808228 -0.588802
7.8636 35.9187 16.9613 -0.408935 0.44737 -0.795382
3.78108 0.983621 7.38599 0.547527 -0.769714 0.32826
3.67672 37.1926 13.1282 -0.692762 -0.711929 0.11506
7.96992 38.4662 12.9627 -0.796918 -0.582436 -0.160282
10.3532 36.7258 15.3433 -0.770629 -0.583475 0.256296
7.05699 40.5223 9.19671 -0.146812 -0.370404 0.917195
7.55276 39.2689 10.8689 -0.606243 0.490467 0.626029
10.2598 38.3056 15.4022 -0.126802 0.840649 -0.526527
12.5482 38.4229 14.7301 -0.361024 -0.926517 0.10596
8.83841 40.3773 12.0257 0.337298 -0.676469 0.65469
13.9546 38.7426 15.2179 0.425146 0.121696 0.896906
12.7902 38.9909 13.5795 -0.779105 -0.583522 0.229126
13.2985 38.0193 15.6782 0.165258 -0.383204 -0.90876
14.1639 39.4765 11.46 -0.68543 0.55635 -0.469745
18.894 38.0511 9.39829 0.686225 0.694614 0.215883
14.7629 40.4791 13.5715 0.348857 0.935657 -0.0533345
20.4822 35.8219 15.9111 0.828042 0.230847 0.510937
15.6607 40.5539 12.5633 0.216774 0.756822 0.616628
21.6455 38.2156 12.0306 0.318289 -0.930249 0.18256
21.5948 38.5857 13.0968 0.742695 -0.476113 0.470872
22.96 37.0511 14.071 0.35972 0.534631 -0.764704
20.3572 38.0997 12.2667 0.0760949 0.902043 -0.424885
