8.0691 8.16744 19.1672 -0.910774 0.372954 -0.177187
9.43536 9.43554 16.728 -0.868916 0.478993 -0.124703
15.5581 5.21409 15.8042 -0.562435 -0.82633 -0.0290736
14.589 5.5963 15.9779 -0.459926 -0.62784 0.627921
15.338 5.16828 16.82 -0.19503 0.979352 0.0532181
14.9305 6.42791 17.7569 -0.946043 0.31363 -0.0814843
11.5306 0.205879 14.6485 -0.18462 -0.829282 0.527453
15.0854 6.57738 0.236522 -0.19971 -0.401006 -0.894041
16.2335 4.88096 19.4751 -0.918082 -0.395499 0.0265799
17.1017 6.31524 19.1893 -0.432884 -0.383682 0.815721
0.730816 6.31015 17.0164 -0.906818 0.264831 -0.327941
18.0087 7.48705 18.9884 -0.04612 0.894802 -0.444074
15.8851 4.4287 1.01536 -0.400708 -0.87714 -0.264686
19.4907 6.28258 18.0765 0.707075 0.691019 -0.150127
0.316638 9.62627 17.4452 -0.533753 -0.786597 -0.310441
2.27086 9.95188 16.5208 0.720638 -0.389348 0.573662
4.52933 8.52361 17.1544 -0.642715 0.286492 0.710521
1.85011 8.98303 16.369 -0.317684 0.362119 -0.876326
3.91735 8.75195 16.3047 -0.132888 0.808596 0.573161
4.49464 10.5661 17.7032 -0.0138152 -0.890161 -0.455437
4.17747 7.09837 0.850005 0.584542 -0.377866 0.718003
4.66735 11.0121 15.9189 -0.469659 -0.849822 -0.239212
6.65127 6.0036 19.1016 -0.108156 0.917629 -0.382439
6.43722 10.6781 17.2825 0.787231 -0.233203 -0.570862
7.47808 9.20625 16.3534 0.365417 0.798226 -0.47886
6.98462 12.2204 18.9236 -0.620007 0.650229 0.439082
6.8372 9.38922 17.408 -0.503033 0.399905 -0.766181
6.59723 11.1133 18.8761 0.676554 -0.646897 0.35185
8.70701 10.2625 18.3801 -0.656731 0.358415 0.663508
10.0935 10.2811 16.7522 -0.746856 0.427675 0.509215
14.7732 5.34957 17.8889 -0.804371 0.0439629 -0.592498
7.72424 5.84407 18.8306 -0.344654 -0.926995 -0.147963
15.1314 7.66844 0.021225 -0.409503 -0.364341 -0.836398
12.3063 11.4218 16.6342 -0.668879 -0.743127 -0.0190632
16.3697 5.27649 16.593 0.116597 -0.853652 -0.507625
15.7288 7.95745 18.5272 -0.486562 0.0197001 -0.873424
16.0883 6.87585 0.0175473 0.331647 -0.0745863 0.940451
15.7968 9.41838 18.4939 0.527971 -0.774339 -0.348777
18.3915 8.11322 17.2502 0.274539 -0.172369 0.946001
17.3016 8.6277 17.2847 0.0582239 0.291709 -0.954733
18.7347 6.95718 17.7314 0.457861 0.44413 -0.770138
0.39858 8.05506 17.5902 0.3721 -0.72786 -0.575987
16.668 12.9801 13.7686 -0.747486 0.606591 0.270764
18.9488 11.0092 16.223 -0.293662 0.0446016 0.954868
2.6501 12.2587 16.3905 0.820398 -0.151381 0.55139
1.86945 12.3186 17.172 -0.614567 -0.367979 -0.697781
2.03437 9.5347 19.226 0.547841 -0.386113 0.74215
3.79287 11.7026 15.8849 0.690722 0.648301 -0.320326
6.11692 11.5709 16.7323 0.0797583 0.320859 0.943763
8.20866 12.736 15.1932 -0.812696 -0.577247 -0.0794453
1.05057 8.80571 17.3387 -0.120149 -0.328172 -0.936946
4.90204 9.67712 19.4622 -0.273432 0.95561 0.109752
4.99003 9.90288 18.4691 0.347313 0.916965 0.196338
8.05898 10.2721 17.4818 -0.196941 -0.956157 -0.216742
7.25713 10.717 18.1094 -0.276185 0.889052 -0.365113
8.50843 12.5081 17.4723 -0.859068 -0.382212 0.340464
9.40321 11.1002 18.9028 0.744308 -0.508919 0.432443
11.1155 10.3134 18.1755 -0.152466 0.163538 0.974684
9.30563 7.99513 18.2227 0.0827004 0.579415 0.810826
8.18883 15.8425 17.3442 0.294202 -0.892343 -0.3423
14.9462 8.62867 18.9553 -0.854245 -0.143106 -0.499786
9.86894 11.15 18.0094 0.244602 -0.95063 0.190979
11.5626 9.34718 18.5042 -0.836749 0.0537715 0.54494
16.241 15.3193 16.0494 0.630463 -0.19554 0.751186
16.5905 9.88604 17.9428 0.108594 0.749358 0.653199
17.1702 11.3916 15.2712 0.169389 0.940652 0.294076
17.8232 12.2258 14.3662 -0.92903 -0.364947 0.060973
18.37 10.2546 18.0794 -0.80633 0.56921 -0.160722
16.5928 9.37393 1.69495 -0.370494 0.711966 -0.596522
18.0053 11.0485 15.8377 0.0643126 -0.725857 -0.684833
0.222722 11.6482 16.5637 0.142366 -0.421862 0.895413
18.4825 14.9157 16.7677 0.923191 0.37118 -0.0997133
1.36005 11.4661 17.6523 -0.0307979 0.677792 0.734608
6.29806 12.6922 16.5982 0.635441 -0.170132 0.753173
2.84247 8.67423 16.1186 0.265847 0.945777 -0.186631
7.26446 13.5639 0.226305 -0.362719 -0.0843811 -0.92807
8.24002 11.757 15.7459 0.171418 0.717133 0.675526
5.25434 17.9358 15.2757 -0.722922 -0.633233 0.276405
7.21518 11.6182 15.9757 -0.0292251 -0.995253 -0.092831
7.24133 14.646 0.359622 0.84777 -0.0429409 0.528624
7.99953 11.1465 16.5515 0.469995 -0.693497 -0.546046
8.27358 17.8193 17.746 -0.488534 -0.454987 -0.744527
9.11689 11.3662 16.4336 -0.176619 0.210825 0.961436
8.6521 16.0418 18.3905 0.858553 -0.386144 -0.337311
8.54462 14.5068 15.1418 0.972299 -0.232879 0.0200675
12.6899 15.9428 16.3535 0.25299 0.485281 -0.836958
10.2981 8.20534 17.8401 0.18422 0.0569138 0.981236
9.50623 14.8538 16.6802 -0.34388 0.121764 0.931086
7.80436 13.3123 17.3102 0.117794 -0.0897309 -0.988976
17.9174 9.42895 17.5218 0.708931 -0.545547 0.446985
16.4469 14.286 15.9716 0.0481587 -0.372312 0.926857
15.7871 14.8459 17.0285 0.399896 0.648623 0.647589
18.0453 12.8956 16.3012 0.58923 -0.778707 -0.215459
17.3153 14.9708 15.6544 0.543988 -0.737724 0.399799
18.17 13.4075 15.25 -0.117501 -0.993072 -0.00137373
18.8912 12.912 17.0244 0.881533 -0.211244 -0.422227
19.1785 12.0689 17.5798 0.940937 0.292215 0.171022
17.5751 13.2701 14.3478 0.706561 0.394484 -0.587498
18.9799 13.4022 15.9397 0.352265 -0.505409 -0.7877
0.655889 13.3818 16.0677 0.270444 -0.611086 -0.743931
18.8735 14.8487 17.95 -0.233309 0.720185 0.653377
6.75321 17.6068 19.2012 -0.0351698 0.973405 0.226374
4.89028 11.4889 14.9022 0.543201 0.784557 0.299003
2.35029 16.6875 3.10704 -0.720268 0.59306 0.359853
7.53013 14.4165 18.7923 0.665929 -0.337266 0.665425
5.45609 16.8109 18.4921 -0.727471 -0.684338 0.0496785
5.96953 18.4851 16.1552 -0.2347 -0.971926 -0.016616
7.5995 16.5574 0.296442 -0.897941 0.345106 0.273136
5.49416 14.3027 1.06644 0.480775 0.655075 -0.582866
8.87381 18.6571 14.6992 0.561868 0.636874 -0.527916
8.87364 16.9569 17.8769 -0.0373822 -0.202709 -0.978525
9.8677 0.752882 17.8541 -0.239844 0.711544 0.660439
7.83645 15.3185 18.186 0.680801 -0.728114 0.0797487
8.85883 19.1876 18.1284 0.53788 -0.151263 -0.82934
12.7355 14.5715 15.1915 -0.00944131 -0.987613 0.156625
12.8696 15.6581 18.1396 0.626956 -0.774747 -0.0818081
12.746 14.3335 17.4909 -0.725547 0.388097 -0.568298
12.8011 14.1307 16.3586 0.409536 -0.87232 0.267093
17.1122 13.9027 13.4437 0.440834 -0.644512 -0.624715
14.7256 14.202 17.474 -0.455972 0.734991 0.501875
16.9965 10.912 16.2115 0.135283 -0.979641 -0.148331
13.1583 16.9161 13.8519 -0.303991 -0.0303634 -0.952191
17.2159 13.9406 15.1525 -0.15684 -0.757792 0.633366
15.3355 15.8968 16.3979 0.849153 0.0868399 0.520959
18.0798 15.5524 16.1089 0.721395 -0.244144 -0.64806
4.855 12.8515 8.33482 -0.496133 -0.384919 -0.778261
3.67165 18.9225 18.1972 0.357332 0.549515 0.755214
2.28134 0.394292 19.0893 -0.888889 0.0255817 0.457407
4.17541 16.5369 2.54854 -0.73643 -0.297891 -0.607398
3.2042 19.3752 16.8097 0.24879 0.369074 0.895482
2.41 19.2344 17.6351 -0.00236295 0.959721 0.280945
4.68948 19.3274 17.6909 0.582861 -0.694874 0.421217
7.62645 15.6403 0.816747 -0.973783 -0.045406 -0.222903
5.39224 1.37785 18.572 0.790185 -0.310451 -0.528419
7.35976 17.8897 18.3272 -0.27036 -0.806875 -0.525222
7.27346 18.4748 16.9978 0.400751 0.342535 0.849746
8.97941 19.2286 15.6172 0.327083 -0.769293 0.548821
9.29027 17.8193 17.2242 -0.770474 0.0860023 -0.631643
10.3266 18.9806 16.1055 -0.710009 0.700634 0.0707058
9.84067 1.65411 17.2715 -0.435597 -0.593906 -0.67641
9.61434 17.0683 16.3851 -0.573793 0.634794 -0.517492
9.85185 18.714 15.1545 0.235773 0.965028 -0.114598
10.279 2.90679 15.8072 0.908976 -0.306256 -0.28279
10.7378 1.15099 18.7719 0.0826871 0.987896 -0.13124
13.7688 14.3756 16.8593 0.444361 -0.839917 -0.31158
11.989 1.06016 15.2389 -0.462062 0.855629 -0.233234
13.6241 15.3596 14.3731 -0.0531802 -0.566322 -0.822467
10.9703 4.34846 0.667338 0.370494 0.743436 0.55681
14.0441 16.412 18.23 -0.0327599 -0.830125 -0.556614
13.3256 17.9834 14.5029 -0.98462 0.0345889 -0.171253
13.6593 14.5939 15.8188 -0.0225865 0.987453 0.156292
16.3223 16.852 16.1748 -0.167176 -0.411964 -0.895733
15.781 18.416 14.7316 0.838823 -0.082355 -0.538139
16.2765 17.4749 15.1119 0.725661 0.508979 0.462987
2.15466 18.8233 18.5635 0.807293 -0.589189 0.033675
1.97846 3.78074 1.65613 -0.657307 0.0648921 0.750824
2.49274 18.8895 0.0930618 -0.836791 -0.533426 0.123438
2.50891 0.276381 0.776726 0.307848 0.758424 -0.574476
5.0492 17.6298 19.1818 -0.777544 -0.621444 0.0960886
2.33158 4.66757 2.0956 -0.215518 -0.172462 0.96115
6.57989 0.457561 19.385 0.949535 -0.300776 0.0889786
7.58366 2.15697 18.2619 -0.449673 0.253034 0.856602
6.45121 18.3623 17.8085 -0.118423 -0.583098 -0.803724
4.98009 4.36586 1.02147 0.617971 -0.512368 0.596314
8.58237 1.35988 0.419077 0.779771 -0.566174 0.267215
7.97293 2.97447 17.3667 0.396917 0.18366 0.899292
8.79903 1.40988 18.8969 -0.242494 0.964407 -0.105427
8.12446 2.96761 8.09944e-05 -0.451914 0.499775 -0.738917
13.6317 2.77844 1.61133 -0.173281 0.320221 -0.93136
7.05133 4.41806 0.878552 0.917913 0.387763 0.0841124
10.4819 0.839957 0.563165 0.510016 -0.634294 0.580995
10.1272 4.9544 0.524199 -0.464487 -0.885579 -0.00123239
13.873 1.77763 1.32753 -0.448622 -0.235592 0.86211
14.474 5.7956 0.544997 0.363717 -0.56939 -0.737228
11.3654 1.29356 0.245023 -0.526251 0.833452 -0.168575
14.6649 2.55294 1.4644 0.0755304 0.63618 -0.767835
16.5462 4.24511 18.6353 -0.907763 0.217431 -0.358734
17.5253 4.92703 18.1174 -0.83353 0.302664 0.462192
15.6918 17.8461 15.942 -0.505635 -0.84279 0.184493
17.6197 5.80164 0.970996 0.656702 -0.43452 -0.616388
19.4327 4.97853 18.7559 0.225043 0.48424 0.845499
18.5776 3.27398 0.832919 -0.301563 -0.720286 0.624698
2.24532 7.71135 18.5485 0.702543 0.524697 -0.480756
19.2605 7.07888 0.461608 0.470334 -0.764922 0.440092
2.52984 3.59478 2.53203 -0.730806 -0.471499 0.49357
3.48807 7.38135 18.5483 0.347478 0.937599 0.0129471
4.73757 2.92833 17.7356 0.498828 -0.470318 0.727992
3.91364 8.9474 1.66495 0.957033 -0.165809 0.237897
3.27685 2.94453 5.80593 -0.700117 0.484353 -0.524632
5.80199 7.79315 0.430998 0.376398 0.750324 -0.543451
6.44202 2.12274 18.2545 0.496821 -0.654791 -0.569577
5.28123 9.66305 1.83458 -0.973404 0.211683 -0.0876058
4.07804 8.40282 0.719646 0.713807 -0.563875 0.415362
6.47275 7.93669 1.26538 0.100145 -0.99445 -0.0322654
7.85247 4.02018 17.6282 -0.937189 -0.237425 -0.255552
5.79553 5.10241 0.619673 0.0108466 -0.266942 -0.963652
9.17048 4.73987 2.46525 -0.634075 -0.201296 -0.746611
8.94998 9.41856 18.8981 -0.967568 -0.219381 0.12524
8.22322 8.03888 18.1476 -0.0443716 0.997953 -0.0460465
15.348 7.86475 2.05435 0.730779 -0.266179 -0.628578
15.4923 3.38323 1.81968 -0.352308 0.913802 0.2021
11.7915 8.06428 2.72408 0.0614159 0.545338 0.835963
16.665 4.56241 17.5241 -0.735041 0.676851 0.0398323
15.831 5.81378 19.463 -0.429348 -0.223615 0.875018
18.0946 4.36536 0.890646 -0.469331 0.252218 -0.846236
17.1027 6.23342 16.5511 -0.128452 -0.347574 -0.928812
18.2064 5.95692 17.3984 -0.485873 -0.128265 0.864567
13.1082 6.1315 3.90918 0.248312 0.412102 -0.876649
17.8364 7.83832 2.06297 -0.499225 -0.722557 -0.478211
2.97336 9.23057 18.7798 0.153744 -0.943835 0.292469
1.33723 7.98656 18.1105 0.593966 -0.135316 -0.793028
2.62665 7.06187 19.4436 0.130078 -0.968154 -0.213908
1.24185 5.83557 0.678096 -0.534488 0.280552 -0.797253
3.48918 10.5873 17.8377 0.0452586 0.997358 -0.0568212
4.75739 7.78498 18.2095 -0.675321 -0.502311 -0.540024
3.4473 6.35322 0.521496 0.37458 -0.354853 -0.856604
5.50112 9.85192 0.780449 -0.663603 0.709712 0.236516
5.31629 10.6663 16.646 0.0852801 -0.751729 -0.653935
4.68123 9.22867 0.880451 0.714947 -0.687252 0.128593
7.26453 8.63491 3.13592 0.459976 -0.729909 0.505623
4.95388 5.94597 0.592503 -0.319967 -0.115188 -0.9404
7.01311 9.47202 0.219111 -0.154298 0.12603 -0.979953
7.48674 5.89783 0.404971 0.644075 -0.751496 -0.142904
8.9892 8.60034 2.69428 0.677575 0.667993 0.307697
7.09053 3.90474 1.80777 -0.684822 -0.710592 -0.161488
7.45952 12.4982 0.591393 -0.598953 -0.116684 0.792238
9.62548 9.62791 0.58498 0.48225 -0.657993 0.578343
11.6484 9.11667 2.17492 0.877341 -0.199178 0.436579
15.3752 8.99731 4.45753 -0.0635283 -0.99784 -0.0166908
13.3855 9.03381 19.4489 0.93481 0.296149 -0.196024
16.3634 7.50097 17.6303 -0.235991 0.83924 -0.489883
15.689 8.82911 2.08849 -0.030344 0.0612703 -0.99766
14.0653 6.00276 4.8038 0.569488 -0.819947 -0.0580451
18.4971 9.1038 18.9525 -0.738573 0.674173 -3.92258e-05
19.1345 6.74588 18.9404 -0.267412 -0.908906 0.319969
17.1119 9.25302 0.611013 -0.742431 -0.620698 0.252052
18.6028 7.48417 1.31685 0.629405 -0.165936 0.759154
1.37353 9.7237 17.0536 0.59563 0.107692 0.796007
1.92892 8.65189 18.7196 0.250588 0.441564 -0.861526
14.7764 13.0402 1.52394 -0.995082 -0.0386678 -0.0911959
3.90919 8.79601 3.80566 0.46073 0.886252 0.0478093
1.87455 10.8142 18.2517 0.658551 -0.331419 -0.675627
4.03234 11.0617 16.8903 -0.52638 -0.813433 -0.247489
4.78283 8.17442 4.75059 -0.457566 -0.399383 -0.794434
6.33835 8.16376 3.08067 -0.221858 0.427063 -0.876582
4.01857 9.72003 18.9294 -0.0739243 0.964303 -0.254272
5.89408 9.98142 19.2235 0.0304317 0.916411 0.399079
7.61022 11.4603 1.18351 0.816527 0.468425 -0.337435
10.3962 8.47448 2.64946 0.557672 -0.234664 0.796201
11.006 9.48007 3.02515 0.833867 0.000143617 0.551966
5.70187 9.69424 17.6475 0.529622 0.386749 0.754935
8.22087 9.38301 3.29234 -0.463546 -0.284831 0.839045
10.6093 9.16954 4.82351 0.427648 -0.292786 -0.855216
9.31492 13.8757 17.0859 0.855026 -0.224423 -0.467509
7.07842 11.5851 0.260424 0.895516 -0.235661 -0.377511
12.7389 9.18509 1.18396 -0.21449 -0.741189 0.636107
15.7474 9.94377 2.27499 0.5596 0.193185 0.805932
8.8059 13.6183 16.2573 -0.362424 0.930565 -0.0519461
14.4358 8.46421 0.325922 0.530247 0.771174 0.35232
12.9333 11.5618 1.99759 0.288769 0.137706 0.947444
14.6088 10.3424 2.66874 -0.787695 -0.600764 0.136454
18.8987 11.1652 18.4789 -0.416408 0.422498 0.805046
0.160043 10.3346 16.5462 0.746749 0.58021 -0.32515
3.17457 12.5851 2.25962 -0.25627 -0.850584 -0.459165
3.58366 7.82842 1.50253 0.775099 -0.365252 0.51557
17.9453 10.444 16.7041 0.434515 -0.747081 -0.503057
18.1597 11.3271 14.7097 0.657153 0.521987 0.543764
2.38734 14.6269 1.69383 0.751762 -0.623741 0.214011
6.15666 9.21577 3.49886 -0.735748 0.0685969 -0.673772
5.18605 14.1049 2.88755 0.411588 -0.348727 0.842012
2.3481 11.3617 16.9633 -0.316315 -0.114886 -0.941672
4.32982 14.7372 3.21981 0.545199 0.229172 0.806374
7.70927 13.6922 2.8401 -0.10476 -0.549007 -0.829226
9.00926 12.0439 15.0284 0.604538 0.108404 0.789166
8.47583 12.8768 2.86507 0.0681329 -0.120615 -0.990358
7.58723 10.5705 0.598024 0.998185 0.0229661 -0.0556659
8.6601 9.51699 1.0846 -0.619844 0.177198 -0.764457
6.35107 13.5718 0.942334 0.410521 0.903288 0.124669
9.23573 11.4108 1.32635 -0.107802 0.992902 0.0502367
7.60702 11.4249 3.46872 0.639231 0.470534 -0.608261
9.66817 11.3095 2.3107 -0.353923 0.887175 0.296073
7.20877 15.4591 17.2268 0.130904 -0.965932 0.223248
9.33472 11.0877 3.43906 -0.641551 0.755758 0.13131
9.55996 13.2076 2.8093 0.0943791 0.167826 0.981288
11.2243 10.326 2.20158 -0.636783 0.0693533 -0.767918
15.7151 14.3854 18.0456 -0.385706 0.854235 0.348586
16.1638 11.4295 15.4252 0.103786 0.860528 -0.498718
12.1661 13.44 18.7884 -0.298282 0.489112 -0.819632
13.8564 11.0483 1.60546 -0.164299 -0.329041 0.929913
17.7826 14.7644 17.8245 0.19637 -0.967313 0.160449
14.9975 10.7637 1.13417 0.579811 0.579641 -0.572569
14.7781 13.868 18.5854 0.823756 -0.566872 -0.00907831
2.96724 13.0667 1.35013 -0.861744 -0.506657 -0.0263613
19.317 14.2169 15.3313 -0.290682 -0.319084 -0.902047
19.0961 13.0736 18.0903 -0.619333 -0.710662 0.333745
3.02192 17.6272 1.3706 -0.448791 0.768813 0.455537
2.08867 14.5425 2.67883 -0.949975 0.214912 -0.226627
2.54164 15.3318 3.43338 -0.977627 -0.0460671 0.205242
7.70048 15.4253 19.2387 -0.959564 0.26617 -0.0916026
2.25307 16.93 2.07471 -0.238986 0.855863 0.458676
5.72516 17.3875 2.84959 0.511665 -0.530019 -0.676224
7.83174 17.5123 19.4021 0.179624 -0.327899 -0.927479
4.64009 14.5625 0.556366 -0.530801 -0.159627 0.832327
7.17268 14.3422 1.95573 -0.31353 -0.91872 -0.240108
5.25173 13.6392 0.260142 0.911956 0.254265 -0.322002
8.07733 18.8218 16.1534 0.278626 -0.117112 0.953233
8.37628 16.3486 2.8203 0.168047 -0.0915702 -0.981517
9.24577 0.144091 2.69983 0.983521 -0.0760076 0.16404
8.92221 14.0428 2.79231 -0.514546 -0.343171 -0.785796
8.99121 15.7449 16.3805 0.447147 0.288207 0.846756
7.82487 15.91 16.3411 -0.343537 -0.922093 -0.178122
9.91341 15.4406 1.09456 0.680591 0.730208 -0.0599377
11.0834 15.2253 1.03207 -0.364171 -0.563632 -0.741416
14.8163 15.341 17.1422 -0.302077 -0.591258 -0.747772
16.6793 14.7586 18.3631 0.098628 -0.196133 -0.975605
10.6671 13.7447 19.0078 -0.368966 -0.35732 0.858013
15.2533 14.1545 0.901589 -0.188148 -0.0418725 0.981248
14.6085 16.4167 16.948 -0.837086 -0.509958 -0.198066
14.0525 13.4555 19.3898 -0.762757 0.206815 -0.612723
13.6218 15.8687 0.897255 -0.485128 -0.360782 0.796547
1.98072 13.6318 2.02786 -0.501236 0.397601 -0.768554
4.55464 17.8286 18.2919 -0.758689 0.301154 0.577666
4.52444 15.528 2.22918 -0.530713 0.0628501 -0.845218
2.76325 0.805321 1.93577 0.556912 0.822647 -0.114454
4.76604 17.0564 0.701113 0.568048 0.80952 0.148322
5.7195 16.6023 0.00361727 0.212392 0.922118 0.323401
5.0316 15.4141 0.987046 -0.297149 0.367104 -0.88144
4.92955 18.943 1.09539 0.740193 -0.377503 0.556422
5.80628 16.7451 1.2035 0.0233285 -0.889688 -0.455972
7.48732 1.01762 16.7358 0.966782 0.190057 0.17091
6.92064 0.107505 17.8708 -0.5979 0.100609 -0.795231
4.54863 2.15664 0.527356 -0.785711 -0.113894 0.608018
6.13172 14.593 1.8761 -0.173049 -0.869551 0.462531
9.61273 2.6923 16.9708 0.829594 0.52386 0.193248
8.2001 0.393231 16.1153 -0.769609 0.156997 -0.618913
8.63229 1.94693 3.4902 0.568141 -0.0119139 -0.822845
10.3164 19.3521 1.91459 -0.345247 0.763865 -0.545266
8.86309 0.095898 1.61694 0.47922 -0.850775 0.215707
11.6515 2.27986 1.54278 -0.382486 0.704544 0.597765
12.3285 3.13546 1.33889 0.201417 -0.324774 -0.924096
10.5237 14.6556 1.73545 -0.196817 0.839077 0.507161
12.6839 2.26376 1.8563 0.363357 -0.217011 -0.906023
14.2745 12.7332 18.636 -0.0792864 0.697284 -0.712397
14.6024 1.06793 1.77193 0.841375 0.494382 -0.218344
12.826 15.2095 0.511304 -0.569163 0.147186 0.808943
13.0244 17.4955 15.5747 -0.578883 -0.249632 -0.776259
14.306 18.5699 16.2437 -0.348588 0.908417 -0.230792
16.7877 4.08014 3.58128 -0.674753 0.00340114 -0.738036
4.8204 19.3211 2.34533 0.6916 0.0646996 0.719377
15.0993 17.9996 13.9867 -0.504902 0.848308 0.159521
3.95545 0.956614 1.40303 -0.393103 -0.731999 -0.556459
1.60215 0.468239 2.80046 -0.464583 0.849818 -0.248944
2.97906 0.98117 2.9785 -0.178634 -0.981703 0.0659514
2.48558 3.82224 3.86833 0.511343 0.426173 -0.746261
5.68846 19.1228 0.32442 0.711719 -0.586462 0.386676
4.24948 3.26892 3.94713 0.547328 0.835434 0.0498168
4.62906 1.97278 4.12178 0.780379 0.533332 0.326444
4.37816 3.84853 1.84654 -0.704245 -0.165715 -0.690345
4.86138 2.07733 3.13354 -0.909289 0.344473 -0.23352
4.78666 3.04113 1.16496 0.38349 0.538436 -0.750348
6.50024 1.96257 2.8349 0.383176 -0.920414 -0.0775533
7.78856 4.13836 0.0660963 -0.877776 0.146212 -0.456214
9.43227 1.07461 3.27142 0.917788 0.311701 -0.245982
7.97528 2.80409 3.22519 0.0805825 -0.696823 -0.712702
11.5362 0.914009 1.44159 0.790964 -0.566479 -0.231252
9.16681 5.37183 0.257089 -0.252124 -0.690574 0.677895
14.4175 3.41835 2.03769 0.40056 -0.620768 0.673942
10.206 2.91521 1.86091 -0.160019 -0.894096 0.418314
15.0118 1.44232 3.71477 0.507869 -0.631097 0.586333
17.8504 2.67211 2.44476 0.75352 0.617244 -0.226312
13.6134 0.867266 0.96819 0.912931 -0.301858 -0.27466
14.432 7.883 4.12752 -0.468302 -0.445512 0.763029
15.2552 1.17124 2.7036 -0.163922 -0.958612 0.232794
17.5341 3.4672 1.09061 -0.0561829 0.0105725 0.998365
16.4575 3.60044 1.45542 -0.0486399 -0.686107 -0.725873
16.6698 5.7753 3.32282 0.685007 0.185254 -0.704589
0.206636 0.615354 5.57742 0.298382 0.0260106 -0.954092
0.521852 3.33476 2.43009 0.65034 -0.736296 0.186884
0.444199 3.48929 3.53238 0.897196 0.437797 0.0580739
18.5051 4.63393 2.86765 0.312942 -0.949673 0.0137572
2.45519 2.68533 2.02916 0.96294 -0.201759 0.178996
0.906468 3.79225 1.39402 -0.336746 0.824542 0.454679
5.78556 3.29514 5.83078 -0.300648 0.331157 0.894397
2.39154 7.24825 2.46108 -0.590709 -0.774941 0.224788
5.38269 3.19761 3.5209 0.780779 -0.0250018 0.624307
8.76016 6.56356 2.07704 -0.628683 0.581795 0.516016
4.5174 4.94915 1.76999 -0.851053 -0.126144 -0.509702
8.46952 5.67519 5.41867 -0.211103 -0.903815 -0.372229
7.10474 3.65992 2.81211 -0.0413713 0.973415 0.225283
8.35512 5.57964 2.59825 -0.95759 -0.190311 -0.216338
7.51111 3.44485 0.837588 0.65177 0.391665 0.649457
7.24918 5.82552 3.60855 -0.934679 -0.284417 0.213264
9.51952 2.98525 0.961193 0.869205 -0.173979 -0.462832
6.37843 4.6225 1.9882 0.42806 0.658515 -0.618969
10.3168 4.50916 2.11647 -0.54242 0.587424 -0.600594
12.5028 6.14163 6.28772 -0.605695 0.273347 0.747272
13.686 7.39382 3.48142 0.590594 -0.00842662 -0.806925
14.3662 8.77113 4.69953 -0.0557089 0.660193 -0.749027
13.3164 3.73266 2.09254 -0.36414 0.0430034 -0.930351
15.1141 9.61079 3.20941 0.506571 0.684045 0.52485
15.1613 7.17421 3.75566 -0.82626 -0.557374 0.0814164
16.8309 4.20264 0.684432 0.427697 0.481012 0.765312
18.4032 5.48697 1.60885 0.813854 0.130292 -0.566274
16.325 6.8656 2.8206 0.240786 0.292462 -0.925467
2.66105 1.84054 5.08747 -0.0345522 0.153513 0.987542
18.273 6.50839 1.57511 -0.226303 0.145212 0.963172
1.50442 4.51596 0.669501 0.00367457 -0.314718 -0.949178
0.432106 4.3028 0.559595 -0.0430564 -0.890266 -0.453401
0.417262 4.51299 3.10359 0.803668 0.150781 -0.575659
2.02159 8.56206 1.82048 0.0715457 -0.14666 0.986596
1.38046 6.62331 1.58434 0.955885 -0.259504 0.137628
3.19865 6.32452 2.48797 -0.777484 -0.620216 -0.10417
7.23209 6.89967 4.09164 -0.702713 -0.0408855 0.710297
7.15574 7.86154 2.37136 0.0620037 -0.880958 0.469114
8.28175 8.45171 4.64258 0.312485 0.949658 -0.0224467
6.35507 5.90278 2.77553 0.919048 0.320439 -0.229498
8.1348 6.1361 4.52792 -0.451767 -0.869258 -0.200741
10.35 10.0814 4.31544 0.175439 0.700039 0.692219
7.92395 5.81443 1.51162 -0.904553 0.426307 -0.00678743
8.18441 7.03832 1.16847 -0.517605 0.822222 0.23672
11.5541 6.25452 5.64882 -0.589319 0.690571 0.419302
12.3211 7.00049 5.60427 -0.370236 0.169448 0.913352
12.8898 7.94235 3.02022 0.219853 -0.342736 -0.913344
10.2546 7.70879 5.38273 -0.400009 0.889939 0.219093
14.3633 8.9123 6.21177 -0.58318 0.449081 -0.676924
13.6896 8.74996 0.992069 -0.3895 -0.917052 0.0854742
16.3933 8.20808 5.30037 0.0988515 -0.076677 0.992144
12.6957 10.0894 4.26877 0.911376 -0.300868 0.280843
15.6105 7.48285 5.25286 0.516834 -0.313095 -0.796778
16.4303 9.5769 19.3406 0.677823 -0.11616 -0.72599
17.0788 7.31549 19.4618 -0.337123 0.418971 -0.843096
14.0549 11.9557 3.89325 0.484198 -0.874105 -0.0386258
19.4882 5.46837 2.85023 0.302835 0.484961 0.820429
17.6523 8.51081 0.033788 0.90464 -0.0237526 0.425515
1.80411 7.54386 1.56741 -0.776148 0.180695 0.604106
2.61103 14.9999 5.51692 -0.218778 0.910746 0.350254
1.79388 6.72788 0.602282 -0.743211 0.649372 -0.161101
5.68873 8.83056 4.40431 0.750636 0.154228 0.642464
4.30704 8.04081 2.8038 -0.861838 -0.487685 0.139277
2.51953 7.06941 3.55979 -0.404584 0.899712 0.163801
9.03163 7.73194 5.56525 0.609661 -0.792449 -0.0183739
5.13954 10.8605 1.89104 0.828031 -0.25431 -0.499691
8.02821 8.92211 1.87878 -0.431737 0.669258 0.604728
6.28015 12.2776 2.85529 -0.110036 0.569947 -0.814281
8.9223 8.69913 3.76373 -0.412845 -0.875569 -0.250874
7.56335 10.1703 1.61648 0.987957 0.0991552 0.118785
9.64272 7.88972 3.12807 0.349026 0.421255 0.837093
9.71389 11.6407 4.30957 -0.850613 0.479371 0.216011
11.4515 7.19048 4.94369 -0.0114695 0.704152 0.709957
8.63663 11.1013 2.23658 0.41332 -0.825129 0.385135
13.5702 9.04761 1.97316 0.317763 -0.942488 0.103653
11.9621 10.5061 1.44383 0.51607 -0.741359 0.42902
12.4879 9.10587 4.79212 0.832116 -0.329586 0.446044
12.8053 9.80836 3.09428 -0.0574499 0.681878 -0.729206
14.5947 8.36179 1.40712 -0.0712374 -0.882482 -0.46492
12.9935 14.1244 4.30956 -0.382815 0.786326 -0.484918
14.9603 14.0331 3.73937 0.0328799 0.349918 0.936203
15.606 12.8026 0.0846923 -0.504457 -0.840435 0.197969
17.6126 8.36018 1.12882 -0.7564 -0.561915 -0.33483
13.0376 13.8762 3.05714 0.152592 0.845797 -0.511217
14.6745 13.0139 3.93332 -0.507403 0.53708 0.67386
2.16265 11.5713 3.2318 -0.933749 -0.0601384 0.35284
1.4846 11.7132 2.40237 0.748673 -0.526811 -0.402441
4.32951 13.6177 3.21811 -0.100007 -0.174682 -0.979533
4.21664 7.45194 5.37086 0.0216536 -0.621245 -0.783317
3.51698 14.3494 3.88381 -0.327351 -0.854929 -0.402414
3.6044 8.94235 2.83376 0.7582 0.615962 -0.213832
4.59242 14.7717 5.50404 0.139233 0.271932 0.952191
5.81287 11.4477 2.43842 0.511739 0.185277 -0.838925
6.18739 16.2236 2.95437 0.932991 0.0427658 -0.35735
6.88196 11.3445 2.63728 -0.466844 -0.560921 0.683685
6.62164 15.2527 3.00768 -0.930607 -0.2557 -0.261893
8.46652 12.8863 5.24556 0.779116 0.11262 -0.616681
7.35933 10.0942 3.75157 0.720566 0.148121 0.677381
8.13113 10.4792 3.11324 0.76878 -0.120834 0.627994
7.43594 12.9294 4.72448 -0.551682 0.57086 0.608084
11.9564 12.2429 3.38189 -0.95197 -0.129418 0.277496
10.0875 14.0458 2.66027 -0.606659 0.137471 -0.782986
11.6018 11.7928 0.0220151 0.801645 0.34239 0.490036
11.3895 12.402 2.33179 -0.971267 0.0620627 0.229756
11.6151 12.5979 4.44345 -0.78194 -0.561958 0.269767
12.0901 14.3642 19.4146 0.933473 -0.219881 0.283337
10.3146 11.5677 0.786697 0.483945 -0.873746 -0.0486237
10.9548 12.5599 1.35083 0.762839 -0.635926 -0.116941
13.9051 13.9084 3.59676 0.119494 -0.898005 -0.423449
14.4642 14.9045 0.65536 -0.603535 -0.448419 -0.659292
14.6472 12.0231 1.13442 0.559717 -0.456561 0.69157
13.1823 12.7708 18.4957 -0.138248 -0.427902 0.89319
3.70719 13.8522 5.03558 -0.0244578 -0.651072 -0.758622
1.80981 12.5994 3.36448 0.377763 -0.155689 -0.912719
1.28805 13.4866 2.90086 -0.203335 -0.687504 -0.697132
1.72218 18.8136 4.64041 -0.462803 -0.436586 0.771496
6.00622 14.4651 4.71311 0.274624 -0.957767 0.0852309
4.46743 17.4553 4.15592 -0.175475 0.963529 0.202041
2.32447 15.5378 2.43226 0.885412 -0.396379 -0.242755
6.61325 15.9836 3.88047 -0.790313 -0.61269 -0.00400349
6.66193 14.2313 3.43325 -0.00118722 -0.679362 -0.733802
7.42566 16.3635 1.52832 0.60152 0.667921 -0.43824
8.99856 15.432 2.59121 -0.584153 -0.459533 0.669025
6.99663 14.6512 5.0341 0.423292 -0.594765 -0.683431
5.84144 12.0002 5.5343 0.939375 0.27944 -0.198717
9.11601 19.2158 3.64382 0.502719 0.746243 0.436343
7.25342 12.9439 3.40015 -0.362515 0.58453 0.725884
6.82313 16.8892 5.85395 0.282752 -0.932473 0.224824
10.5114 14.965 4.41969 0.0727125 -0.988723 -0.130916
11.2966 0.929654 3.41396 -0.554444 -0.828031 0.0834043
9.09767 13.6077 0.946684 -0.865072 -0.485002 0.128156
11.9566 0.0725542 3.54666 -0.424273 -0.526874 -0.736476
11.5792 14.5435 1.96851 0.389972 0.0642741 -0.918581
11.6307 1.85356 4.38603 -0.111352 -0.993368 -0.0286536
11.3422 13.0571 0.398414 0.652231 0.711237 0.262177
12.0163 16.1007 7.15719 0.0187306 0.215749 0.976269
14.0103 14.5621 1.49934 -0.0606457 -0.847 -0.528122
14.7606 15.3708 19.1882 -0.920619 0.211428 -0.328266
12.257 14.7495 18.3948 -0.857138 0.320456 -0.403265
18.8579 19.4593 4.37265 -0.892467 0.220604 -0.393494
2.51416 13.1612 4.3349 0.287559 -0.44481 0.848206
2.0791 1.71665 2.24644 0.0673119 0.0172733 0.997582
4.18639 17.9319 3.25178 -0.516391 -0.844927 -0.139423
2.16258 17.8803 4.47228 0.857315 0.468097 0.214235
3.16658 18.1693 2.75742 0.699592 0.309718 -0.64393
5.9196 0.0905173 1.38621 0.890768 -0.383307 -0.244147
4.43472 17.6975 2.22529 -0.918219 -0.393352 -0.0463391
5.07507 3.82798 5.30277 0.0388075 0.614342 0.788085
6.59772 16.5614 4.8265 0.375291 0.84 -0.391863
6.37148 1.87264 0.390571 -0.872157 -0.42099 -0.249217
6.9448 17.4017 1.78363 -0.385167 0.340545 -0.857716
5.65512 2.35225 1.02413 0.554894 0.786505 -0.271114
6.35929 1.6581 1.43657 0.135035 0.833577 0.535644
8.90932 1.16316 2.29452 0.953594 -0.0609546 -0.294861
9.66631 1.98578 3.90175 -0.272444 -0.556314 0.785041
7.37924 1.40884 1.32951 0.00600119 0.303783 0.952722
8.02237 2.44342 1.65677 -0.939866 0.212414 -0.267454
11.9712 3.97404 0.596254 0.344483 0.296483 0.890746
13.6825 19.3265 3.04247 -0.764232 -0.257012 0.591519
12.6437 1.63924 4.30003 0.260403 0.496633 0.827977
11.5064 0.526141 2.42207 0.983979 -0.178212 0.00511443
11.8174 1.58485 2.2923 0.883359 -0.364676 -0.294429
11.5713 15.6312 19.3626 -0.921743 0.205639 0.328789
15.9833 1.72863 3.4286 0.581264 -0.812958 0.0351081
16.1004 3.37186 3.96866 0.149382 0.293527 0.944207
16.259 2.31498 4.31085 -0.796678 0.336697 0.501935
12.8016 16.2844 0.392923 -0.318883 0.11343 0.940982
17.6637 3.99471 3.00207 0.415338 -0.653407 0.632893
2.62167 17.7719 5.80935 0.21326 -0.545726 -0.810373
3.21421 18.1861 0.46565 -0.104978 -0.765158 -0.635227
1.62732 2.1348 5.18686 0.253755 0.836681 0.485358
1.4326 1.7815 7.21155 0.986207 -0.115284 -0.118762
3.89287 0.22744 7.7889 0.740368 -0.00461391 -0.672186
3.41868 3.3211 3.20138 -0.731188 -0.668534 0.135744
4.05438 3.07038 5.01847 0.0302178 0.991204 0.128848
4.03307 2.20902 8.22558 -0.078727 -0.169209 -0.982431
3.54649 1.1962 7.3902 -0.343506 0.1475 0.927495
5.42248 2.38315 6.55323 0.568413 -0.102348 -0.816352
5.23165 1.07259 3.92022 0.527213 0.503181 0.68473
3.91789 5.84258 8.61758 0.198386 -0.947009 0.252619
8.1496 3.11732 6.06764 -0.739921 -0.124982 0.660982
8.49187 3.79338 2.80695 -0.623522 -0.414698 -0.662757
6.61135 2.00069 4.54266 0.576194 -0.342572 0.742055
8.70285 3.06322 7.0561 0.0202458 -0.935075 0.353872
13.7561 1.36082 5.50296 -0.879472 0.340076 0.332983
9.57506 3.79345 2.2816 0.259442 -0.162758 0.951945
11.9247 1.81961 5.40455 0.426617 -0.872577 -0.237922
14.7066 4.76317 5.7569 0.851089 -0.450794 0.269132
13.9839 3.29816 4.66529 0.345498 0.923787 0.165069
13.3936 2.74768 3.57414 -0.944548 -0.310751 0.106128
15.6837 4.35895 3.85309 0.619839 0.524654 0.583556
14.6482 3.08778 6.3964 0.132711 0.661533 -0.73808
18.8473 1.0127 4.40816 0.736909 -0.222259 -0.638409
17.636 5.73512 3.79976 0.569753 0.757496 -0.31872
18.6622 5.44667 3.99798 -0.492478 -0.868189 -0.0609459
17.8862 5.83972 4.82166 -0.0546024 0.997011 0.0546555
0.952808 2.69463 6.38955 -0.573559 0.795371 0.195997
1.79094 0.828737 3.7729 0.933694 -0.332033 0.134051
1.67443 2.29814 3.8672 -0.581153 -0.320973 -0.747822
2.40615 5.57007 4.65771 0.607354 0.700608 -0.374527
2.36891 0.633952 4.97394 -0.92076 -0.132881 0.366801
7.65385 8.54302 7.21276 -0.932008 0.339281 -0.127473
3.43615 3.80077 4.25661 -0.381048 -0.812254 0.441639
3.77987 7.81322 7.43079 -0.638029 0.236694 0.732731
6.18687 4.25177 3.52989 0.726495 -0.525931 0.442268
7.03514 4.45091 4.6649 -0.7801 0.579859 -0.234963
4.76509 2.92182 5.7695 -0.525467 0.635419 0.565798
6.71719 4.41229 7.72881 0.41494 -0.492219 -0.765209
9.19952 2.5415 6.25199 0.652214 0.684312 0.326088
7.18591 8.28507 5.18841 -0.222999 0.113694 -0.968166
9.04942 2.9979 3.29876 -0.202467 0.138512 0.969444
8.29735 4.38884 4.03588 -0.539773 0.552025 -0.635542
9.52728 5.29665 4.9747 -0.189268 -0.705832 -0.682626
10.4243 5.77412 4.55476 -0.412879 0.177289 -0.893364
9.8027 1.85023 1.12647 -0.961295 -0.205925 0.183048
14.9574 5.66871 2.11444 -0.724317 0.667828 0.17138
15.2356 5.57065 6.65356 0.856645 0.505279 -0.104173
14.0186 7.7905 6.69799 0.426978 -0.330806 0.84158
14.8592 5.82904 5.6473 0.908561 -0.302024 -0.288613
14.8587 9.49244 5.35765 -0.487876 0.824681 -0.286144
16.979 6.38589 4.25546 -0.302259 -0.670617 0.677431
16.8777 7.25236 5.21741 -0.2365 -0.351353 0.90588
15.2606 6.64389 6.11823 -0.756979 0.0607292 0.650611
14.773 4.90582 3.87689 0.459416 0.887012 -0.0463205
0.873272 19.4604 3.61271 0.243096 0.0385172 0.969237
3.06474 5.14236 5.43161 -0.51355 -0.837743 -0.185617
2.24318 5.44833 3.52705 0.895105 -0.442462 -0.0549011
2.56754 6.9787 6.15204 -0.713119 0.691103 -0.117634
5.23003 6.85211 8.33143 -0.438389 -0.898313 -0.029117
7.10197 8.20642 8.09016 0.882478 0.0478656 0.467912
19.4359 3.38343 1.38304 -0.191379 0.975528 -0.108251
5.27255 7.37381 3.83406 0.213002 0.35865 -0.908846
4.87715 6.50091 6.33792 -0.927002 0.28977 -0.23812
3.84854 5.87804 1.78728 0.887524 0.241644 0.392314
6.19572 5.52179 5.36275 -0.61468 -0.384111 0.688932
7.74301 6.34737 6.33251 -0.478075 0.844072 -0.242872
6.23554 4.15846 5.34863 0.425421 0.176768 0.887564
9.38316 8.35686 4.71668 0.0607131 0.953171 0.296274
9.11851 5.93266 4.16473 0.529795 0.561159 0.635938
10.0787 5.34387 6.97391 0.0994086 -0.040221 -0.994233
11.4406 5.06284 4.8529 -0.0115408 0.54272 -0.839835
12.4355 10.0465 5.28091 -0.986799 -0.0548333 -0.152385
11.1618 3.85858 4.9136 -0.253177 -0.364185 0.896254
10.6986 4.44455 7.3282 0.895861 0.117906 -0.428406
12.261 4.16248 4.87509 0.139885 0.86876 -0.475066
12.178 9.04225 5.8159 0.914419 0.321914 0.245376
12.9025 11.0219 4.93034 0.872507 -0.181952 -0.453459
12.1674 10.0861 6.37072 -0.547689 -0.756136 0.358184
1.42878 5.99258 4.86199 0.26012 0.533832 -0.804587
15.2975 13.3606 4.77105 -0.585784 -0.0772203 0.80678
14.8771 6.6934 5.05132 -0.623786 0.408211 0.666525
0.127908 4.38764 5.96933 -0.297142 -0.954203 -0.0346996
2.4485 7.03827 7.26906 0.940974 -0.157059 0.299834
0.817264 5.77515 2.13632 0.803095 -0.363388 0.472215
13.8484 12.0895 1.85478 -0.514175 0.109308 -0.850691
2.1998 15.7881 7.83858 -0.861434 -0.279459 -0.424069
3.69823 5.38821 2.81093 -0.353055 -0.521908 -0.776508
3.72902 8.51722 4.91694 0.190153 0.911654 0.36432
4.51915 6.74479 3.33552 0.853293 -0.169876 -0.492983
6.25596 9.82083 8.72861 -0.435469 0.0852229 -0.896161
5.41204 7.4906 5.88012 -0.307047 0.834157 0.458154
5.63475 10.2878 2.68984 0.845828 0.249292 -0.471623
5.68941 6.95186 1.92536 0.574584 -0.816936 -0.0496903
5.22868 12.9513 5.97247 -0.78189 -0.521836 0.34108
8.38102 7.16103 6.95684 0.160375 -0.806016 0.569753
10.031 11.8999 3.27222 -0.669645 0.620128 0.408677
9.32692 6.78983 3.07739 -0.59979 0.356354 0.716424
8.62694 11.831 5.37667 0.988516 -0.103253 0.110343
12.0936 5.16993 6.17674 0.87875 -0.405128 -0.252327
12.6391 10.9597 3.36361 -0.93514 0.257538 -0.243284
10.5989 7.56944 4.30065 -0.662508 -0.674995 -0.324754
9.02403 9.51147 6.03121 -0.647651 -0.692814 0.317107
12.4444 8.02249 5.30429 -0.41367 0.0918764 -0.905779
11.9535 13.2736 2.95127 0.61777 -0.0710654 -0.783141
13.8885 5.44934 3.58601 0.643078 0.57517 -0.505599
15.2737 11.5346 6.41113 -0.532731 -0.655362 -0.535442
0.901459 6.95731 5.05615 0.410532 0.054871 0.910194
14.818 15.051 3.53361 -0.651399 -0.247236 -0.717324
13.7391 13.429 2.38037 -0.622622 -0.781056 0.047887
15.3907 11.4209 5.22759 0.899564 0.060821 0.432533
3.19523 7.31578 5.39082 -0.15934 0.911081 0.380187
2.98401 13.4098 5.85424 0.863388 -0.490768 -0.117082
3.93127 14.7318 6.96316 -0.201441 0.944369 -0.259977
2.98818 15.1063 7.43488 0.579315 -0.359422 0.731581
2.4364 14.7354 4.39476 0.646674 0.762679 0.0115375
4.88568 12.7415 4.96284 -0.997801 -0.043554 0.0499681
5.12874 16.3503 1.8618 -0.76473 0.583551 -0.273233
5.28669 14.0238 6.42907 -0.475989 -0.700712 0.531449
5.81042 12.5401 7.95536 0.344163 0.156327 0.925804
5.09775 15.6401 5.2443 -0.618256 0.140101 -0.773389
6.43822 10.1368 4.97205 -0.267509 -0.0697626 -0.961026
5.36837 15.1144 8.47775 0.780048 -0.308054 -0.544635
8.87303 10.9307 4.59621 0.710775 -0.621885 0.328722
6.16282 11.2343 4.77772 -0.84548 0.0911707 -0.526167
10.4039 12.8237 3.84129 0.393183 0.334756 -0.856356
9.1924 13.2127 8.09048 -0.658046 0.169887 -0.733562
8.36184 10.787 5.52028 -0.842269 -0.181871 -0.50745
11.4417 13.7957 4.73358 -0.657592 -0.124312 0.743047
11.2638 11.3964 2.04391 0.902999 -0.289415 0.317539
9.37156 12.2198 7.72763 0.113618 -0.279885 0.953287
13.4947 11.2579 6.47182 -0.480844 0.179405 0.858256
11.7898 13.1764 1.61789 -0.722845 0.554276 0.412642
12.3225 11.796 4.30363 -0.764947 -0.587526 -0.26395
13.1 14.0008 5.57521 -0.843739 0.299417 -0.445481
15.2998 12.3966 5.63752 -0.936198 -0.31157 0.162656
12.9259 13.8667 1.25327 -0.182523 0.820023 0.542446
1.44651 16.0548 5.74547 -0.0480906 0.565726 -0.82319
18.5352 18.0058 6.14314 0.595645 0.410498 0.690434
2.04328 14.6326 7.61135 0.284964 0.1282 0.949926
1.64167 15.3065 4.85039 0.120879 0.67685 -0.726128
2.54511 12.1348 4.10076 0.604084 0.440518 -0.664099
2.90216 19.2767 5.56681 0.560937 0.797299 0.222853
4.5376 13.9364 8.39326 0.879486 0.258983 0.39929
3.44142 18.4213 3.77124 -0.0661669 -0.926233 0.3711
4.64935 13.6806 5.56505 0.575856 0.0999359 -0.81142
5.46418 17.3564 6.36075 0.855944 0.371527 0.359622
5.32796 15.8746 7.75764 0.222424 -0.568483 -0.792058
5.68438 16.929 5.32528 -0.371655 0.646947 -0.665832
7.54246 15.781 4.59096 -0.0748982 -0.740814 -0.667521
4.85844 16.9303 7.2274 -0.31887 -0.947354 -0.0290168
8.21376 13.8162 4.7826 0.622276 -0.0587049 -0.780594
9.16144 15.6181 6.71949 -0.653885 -0.737472 0.169024
6.75583 12.2101 4.30656 0.675107 -0.663143 0.323221
9.12631 14.1659 5.37834 -0.606538 0.516464 0.604464
7.33687 14.0851 7.3938 0.993665 0.0145616 0.111437
9.4164 15.4637 7.70867 -0.103144 -0.983376 -0.149439
11.5542 15.0548 4.59575 0.0266225 -0.488899 -0.871934
12.2026 15.2014 2.67001 0.0131678 0.866927 -0.498261
12.777 14.3095 6.61893 -0.861813 -0.396304 -0.316578
11.7586 15.3615 11.4995 -0.190613 0.137574 -0.971977
10.7311 15.254 3.25021 -0.921442 -0.297615 -0.24974
13.7977 15.8312 7.52453 0.4082 0.856259 -0.316533
13.0716 15.0622 5.91186 0.999113 0.0367518 -0.0205665
17.3106 0.267111 5.68889 0.316074 0.28069 -0.906262
17.3953 18.0684 6.4687 0.347261 0.883019 -0.315732
18.3695 0.306361 6.56549 0.329526 -0.682731 0.652144
0.178933 17.8981 5.87034 0.564547 0.0168076 0.825229
1.03036 18.3804 3.97943 -0.776076 0.0799866 0.625547
3.81266 19.3316 4.94637 -0.750474 0.0369563 -0.659865
3.70944 18.604 5.82114 -0.0132256 0.591669 0.806072
3.29597 16.7852 6.02983 0.562487 0.524947 -0.63878
3.65866 0.367068 2.37443 -0.531873 -0.720949 -0.444235
4.42115 0.0644307 4.13588 -0.769867 0.544113 -0.333535
5.64053 18.8389 6.8023 0.92191 -0.319387 0.21926
4.99586 17.6656 8.32175 -0.664003 0.701466 0.258931
4.62861 0.760268 5.06745 0.938273 -0.318989 -0.133755
6.0846 16.8956 3.83369 -0.761079 -0.354837 0.543
5.37671 0.503098 6.06241 0.994946 0.0423305 -0.0910497
8.57662 15.8634 4.89691 0.0121879 -0.123689 -0.992246
5.44939 2.15435 2.15959 -0.08523 -0.996342 0.00621223
10.6796 1.66417 3.87916 -0.224765 -0.816985 0.531052
7.32755 2.0013 3.53641 0.454484 -0.867557 -0.201964
9.83749 14.2203 6.15559 0.633942 0.198517 -0.747468
13.7358 1.66022 3.77413 0.686465 -0.0674817 0.724025
9.40009 16.4493 4.57317 -0.294576 0.404817 -0.865649
14.2786 0.718883 3.53058 0.0989335 -0.514142 0.85198
13.06 3.53348 4.23756 -0.546729 -0.685521 0.480779
15.1588 3.59541 4.49817 -0.296602 -0.801848 -0.518717
12.0931 15.4628 8.74329 -0.599146 -0.151198 0.786233
13.2762 4.0354 5.18872 -0.0676692 -0.963994 0.25717
18.1676 0.623516 7.80197 -0.822677 -0.473143 -0.315179
17.1092 3.07216 3.63286 0.145877 -0.10028 0.984207
18.1938 19.1224 5.27475 -0.53104 -0.831093 -0.165171
18.14 1.75766 3.95267 -0.0930915 0.828184 0.552671
19.1517 1.86333 5.01424 -0.0277801 0.471505 -0.881426
0.844241 2.50934 4.44898 0.35348 0.93515 -0.0233679
5.05545 1.15248 10.244 -0.174618 0.952523 -0.249415
1.41511 3.30886 7.11036 -0.79254 0.328606 0.513711
3.76129 18.4152 9.48373 -0.993095 -0.104613 0.0530942
3.7418 2.97254 7.1089 0.896135 0.414778 0.157804
4.99149 0.355459 8.34762 -0.732503 -0.625024 0.269786
1.40332 2.44494 9.00039 -0.765112 -0.546016 0.341277
5.64869 0.315495 9.37108 0.320786 0.847944 0.422003
3.67026 5.03491 6.49716 -0.136183 -0.728769 -0.671081
5.2096 1.47348 5.7477 0.862927 -0.194717 -0.466307
6.28403 19.3658 10.116 -0.179494 0.583261 0.792205
11.4606 16.2817 11.8297 0.617506 0.150926 0.77195
7.89076 4.47975 6.29303 0.448025 -0.465483 -0.763282
9.85392 2.52179 5.38199 -0.80047 -0.115592 -0.588121
11.3818 18.4333 9.80318 0.244786 -0.842224 -0.480353
10.65 15.7779 9.77821 -0.408182 -0.704037 -0.581136
14.2998 3.90697 6.89508 0.405562 -0.414268 0.814802
10.6404 2.12855 4.8129 0.428754 -0.644027 0.63356
12.2932 18.1956 10.2328 -0.452799 0.334713 0.826402
12.6108 0.521436 14.003 -0.186156 -0.739671 -0.646709
12.6397 14.7481 11.1183 0.0148494 0.915661 -0.401676
14.1856 2.30969 5.61535 0.502009 0.0135016 -0.864757
17.5179 4.82862 5.98123 -0.411993 0.207241 -0.887306
2.42185 18.3943 7.75848 0.00374481 0.861162 0.508316
1.60835 1.67389 8.32828 0.959507 0.203956 0.19429
19.2592 2.22931 6.45469 -0.816545 0.577266 -0.00430413
0.106541 6.80144 5.81147 -0.268495 0.874248 0.404477
0.229245 0.438101 8.11763 -0.259445 -0.542239 -0.799165
1.28595 2.57428 7.93089 0.962096 0.0293834 -0.271124
2.73273 3.66793 7.44484 0.770615 0.282207 -0.571411
1.87514 4.24604 7.18082 0.464203 -0.0324992 -0.885133
1.03637 4.26757 6.54283 0.464951 -0.506804 -0.725927
5.07317 7.05146 7.29934 -0.786701 -0.52921 0.317865
3.30309 3.21192 8.18845 0.270378 0.941891 0.199342
6.54633 5.59905 7.67072 -0.5792 -0.269859 -0.769223
4.15565 4.54033 7.34763 -0.556259 0.477677 0.680001
6.69373 5.98975 6.11229 0.113555 -0.855444 0.505292
4.58985 5.54268 5.96566 -0.265884 0.339437 -0.902268
3.42833 18.0297 14.7861 -0.767254 0.628526 0.127581
12.5927 17.4969 11.0426 0.920282 0.176145 -0.349363
6.94664 3.24203 5.54057 0.323392 -0.18189 -0.928619
13.199 4.19456 6.99156 -0.434289 -0.355418 -0.82769
9.2324 8.87773 17.6332 0.807409 0.216425 0.548864
13.5851 16.8686 9.24636 0.0998099 -0.81471 -0.571214
9.14843 5.1698 6.1245 -0.00363185 -0.759044 -0.651029
13.4491 3.14595 6.90151 -0.36268 -0.149095 0.91991
13.9157 8.61123 7.9189 -0.563293 -0.414969 -0.714494
17.4143 5.98012 5.85472 0.999825 0.00588632 0.0177345
15.2766 4.90041 2.9168 0.994079 0.074135 0.0794466
15.5241 6.5622 1.94414 -0.493645 0.455222 0.741005
13.4433 10.9261 8.16685 0.397619 0.803332 -0.443347
19.1043 6.26234 6.65204 0.712682 -0.696906 0.0800401
16.0669 5.81865 2.48808 -0.704974 0.383056 0.596892
0.947873 6.05982 7.71124 0.870173 0.46411 0.165531
19.3946 5.4802 8.53245 -0.0442537 -0.988909 0.141776
19.0696 4.64116 7.05834 0.130255 -0.646212 0.75196
1.71552 5.29166 7.59455 0.447264 -0.0254398 0.89404
2.7089 7.94539 6.85013 0.763228 -0.411652 -0.498021
0.330037 9.1926 4.93329 -0.539366 0.157287 0.827252
2.72764 4.77496 7.52569 0.0314824 0.390412 -0.920102
4.83552 7.95605 7.80958 0.539472 0.535813 -0.649518
5.98675 6.23883 8.78634 0.22434 0.810198 0.541526
2.88124 18.6276 11.6936 -0.617453 -0.718966 0.319123
2.73733 19.3572 14.1495 -0.109654 0.87804 0.465855
7.40495 7.50899 7.34089 -0.614125 0.225429 -0.756328
6.98676 6.50505 7.08817 -0.80475 0.402813 -0.436026
6.02271 6.56684 7.73191 -0.697445 -0.601789 -0.389129
11.0533 8.97948 17.6489 -0.727096 0.683744 -0.0618488
7.44599 5.91673 5.36774 -0.0569783 -0.975997 0.2102
10.0707 3.6753 4.79625 -0.493615 0.0550936 0.867934
6.57116 10.8344 8.93145 0.973247 -0.0320478 0.227517
13.2826 10.946 17.0502 -0.466836 -0.714353 -0.52131
12.9636 5.36877 6.88222 0.871371 0.0344265 -0.489415
10.4373 4.62403 4.97742 -0.10159 0.0908223 -0.990672
14.009 9.94391 8.03255 -0.781244 -0.616997 -0.0947175
13.717 9.66426 9.04161 0.344165 0.922572 0.17439
14.6695 9.93403 6.32703 -0.942194 0.294651 -0.159535
13.6076 8.53332 3.90293 0.269139 0.39744 -0.877272
0.488576 6.76016 6.97469 0.499166 -0.423289 -0.756082
18.2728 5.4912 7.7333 -0.0438329 -0.0116855 -0.998971
18.5405 4.35449 5.64718 0.228622 0.946366 -0.228307
19.0098 4.21953 4.70016 0.758965 0.546709 0.353668
1.097 7.96051 4.78173 -0.876066 0.134252 -0.463124
0.964408 5.4102 8.556 -0.261665 -0.800338 -0.539435
2.31093 6.06626 7.02894 0.499792 -0.254388 0.827946
2.28168 6.5029 5.22248 0.171711 -0.781633 0.599637
1.73623 11.0238 5.88833 -0.862093 -0.219066 0.456953
3.31618 8.77306 7.15386 -0.241863 0.253579 0.93659
15.4703 14.7907 2.59432 -0.451942 0.842819 -0.292241
6.18611 6.81873 3.36634 -0.149248 -0.552466 0.820065
3.46727 9.62245 6.41748 0.48566 0.230953 0.843087
1.85029 10.3828 4.88649 -0.691255 0.721886 0.0323501
6.62701 11.2103 6.41248 0.52557 0.714748 -0.461424
6.10944 8.04581 5.37291 -0.105462 -0.639336 -0.761661
7.0112 10.2519 8.17948 -0.572235 0.60374 -0.555018
6.29306 11.7898 9.31708 -0.873098 -0.401203 0.277013
7.65737 9.54242 5.83453 -0.824533 -0.256538 0.504315
9.49058 4.4812 6.8308 -0.61769 0.510069 0.598572
7.34149 10.879 7.15984 0.0420013 -0.99894 -0.0188291
10.7869 11.1082 17.0592 -0.0957626 -0.123809 -0.987674
8.31516 12.2154 8.02777 -0.126961 -0.72818 -0.673525
13.2486 6.92739 6.43209 -0.0432254 -0.441858 0.896043
10.7046 12.1653 16.9485 0.982661 -0.0698597 0.171749
14.2412 9.40889 7.16364 0.941676 -0.00219432 0.336514
12.9397 12.0204 5.85168 -0.605974 0.160086 0.77921
12.2993 9.07838 7.3851 0.547822 -0.476103 -0.687907
13.6423 12.626 6.37728 -0.295255 -0.347758 0.889881
19.0708 7.08304 4.9272 -0.146095 -0.988359 -0.042461
14.9195 12.3428 4.6517 -0.94224 0.176903 0.28441
0.932765 5.09826 4.2758 0.886353 -0.378344 -0.266898
1.63287 17.151 6.02517 -0.355736 0.479131 -0.802425
1.11689 8.68263 5.55444 -0.874009 -0.472277 0.114291
0.196796 15.9594 5.67801 -0.505951 0.164119 0.846805
3.49403 16.3584 4.9954 -0.971864 -0.228008 0.0590967
2.07078 10.0523 5.99106 0.904921 0.369843 0.210555
2.4597 9.14014 6.62791 -0.215484 -0.712094 -0.668198
3.11065 16.3834 3.92348 0.865174 -0.250186 -0.434604
3.93454 15.6042 5.61738 0.433736 0.662861 0.610318
2.11281 8.72221 4.48394 -0.574989 0.810744 -0.109915
4.23443 8.78466 7.69044 -0.250232 -0.193279 0.948697
5.77621 16.5023 6.91138 0.630948 0.568329 0.528115
5.45884 10.3926 5.18332 -0.295505 -0.674183 -0.676871
5.21881 11.7279 8.3274 0.367791 -0.350064 -0.861502
7.63916 11.095 8.15428 0.652258 -0.749799 -0.111182
6.68293 13.0618 7.66592 0.657338 -0.150415 0.738432
7.9684 11.3993 6.29636 0.537295 0.840266 0.0725726
10.1834 13.2752 7.61869 -0.166927 0.932175 -0.321224
6.44621 12.1507 6.92681 -0.063344 -0.554007 0.830099
6.09616 13.7611 8.177 -0.855154 -0.300321 -0.422516
8.48675 10.4314 6.79371 0.4559 0.88586 0.0860662
11.4233 15.2851 7.68797 -0.302327 0.35067 0.886357
13.6668 10.4147 7.19937 -0.963173 -0.224943 0.147302
12.7621 13.1274 6.08321 -0.01113 -0.159858 -0.987077
14.6432 12.4849 6.69459 -0.391079 -0.865857 0.312008
13.41 14.8682 4.8957 0.81293 -0.568519 0.126222
15.8507 10.5654 6.26578 0.321445 0.12115 0.939146
17.1453 17.8717 7.59974 0.332494 -0.85493 0.398173
0.605198 16.8967 5.90163 -0.164611 0.129958 -0.97776
0.26409 19.0815 5.8035 0.947269 0.149986 -0.283172
1.23208 8.7105 6.59887 -0.234295 -0.959872 -0.154113
19.1206 17.128 6.31991 -0.140116 -0.308414 -0.940876
2.85462 14.1444 6.88376 -0.319275 -0.70605 0.632105
1.64424 19.1284 7.23684 0.240415 0.948286 -0.207255
4.14202 16.9673 8.07639 -0.0233882 -0.831951 0.554356
3.86355 16.9199 6.88893 -0.320313 -0.728982 0.604966
4.61289 14.9785 7.7161 -0.694965 0.633677 0.339819
3.57902 18.6976 10.5158 -0.761145 -0.585002 0.280057
4.0794 17.4585 9.09968 0.741858 -0.306622 0.596347
5.88029 17.9952 8.80987 0.579034 0.14483 -0.802336
6.4098 15.8431 7.70083 0.127193 -0.228972 -0.965087
5.7271 1.87676 11.3882 -0.177139 0.708697 0.682913
10.3093 13.8828 8.4847 0.88892 -0.43441 0.145288
10.5982 13.4267 6.59342 0.49957 0.863835 -0.0649541
7.23534 13.2584 6.6812 -0.76868 0.455507 -0.449047
8.399 15.6918 7.60266 0.0545065 0.754936 -0.653529
10.7668 14.5156 7.78072 0.64913 -0.60362 -0.462896
9.39288 13.2326 5.90952 0.872919 -0.176623 -0.454771
11.2781 14.4083 10.8808 0.304317 -0.216151 0.927723
11.6952 14.5323 8.41555 -0.824164 0.0459219 0.564486
12.1816 10.771 18.6713 -0.666873 0.681302 -0.301842
12.933 16.7006 7.14855 -0.109208 0.387382 -0.915428
13.084 15.6695 6.74497 -0.634476 -0.631008 0.446397
13.2746 10.5262 18.0884 0.0835391 -0.914643 -0.395537
15.285 14.4376 14.8947 0.537823 0.337547 -0.772534
14.6016 14.2201 14.1043 -0.74519 0.220003 0.629516
18.1539 17.8338 7.21257 0.0690474 -0.916356 -0.394365
14.6628 15.2941 14.4687 -0.00887953 -0.131008 0.991342
15.4907 16.0424 14.0746 -0.559032 0.637769 -0.529843
1.9537 19.2663 6.16069 0.391584 0.919394 -0.037105
2.77335 0.0642853 7.19492 0.100144 -0.665937 -0.739255
4.80248 0.992129 9.23541 0.469061 0.845163 -0.256284
4.01905 0.974563 10.1855 0.186535 -0.502976 0.843931
4.38807 1.20394 8.23707 0.659538 0.421249 -0.622541
4.0722 18.2901 11.3996 0.412506 0.902861 -0.121161
4.05248 17.7718 10.2427 0.743094 0.552963 0.376886
3.4352 18.3622 7.46485 0.0425812 0.412658 0.90989
