13.9009 11.8921 17.7349 -0.322588 -0.940213 -0.109257
11.7657 18.3942 5.59943 -0.852812 0.522218 -0.000930724
15.4564 10.4491 6.29836 -0.702348 -0.383496 -0.599699
17.0079 13.577 11.3071 -0.108235 0.359615 0.926802
15.0342 23.4501 17.2682 0.840809 -0.541276 0.00770172
18.8248 12.7195 6.73379 -0.819258 0.347702 -0.455982
18.7128 11.5982 18.4367 0.129097 -0.412362 0.901827
14.6836 13.5041 8.87903 0.428672 -0.122208 0.895157
20.4716 12.6323 18.1235 -0.977557 0.139927 -0.157488
18.2864 12.74 18.0964 0.351999 -0.063115 0.93387
19.743 12.8185 17.0081 0.973933 0.170833 0.149237
16.9548 14.2685 18.1675 -0.925817 0.0588411 -0.373365
20.9095 23.2138 5.55153 0.537249 0.839991 -0.0760138
18.5617 17.5345 16.6337 -0.870784 -0.200137 0.449088
18.5346 11.4902 14.3459 0.143027 0.148825 0.978465
21.0147 12.5139 7.35266 0.484047 -0.587301 0.648672
18.6132 23.577 17.1728 -0.175667 0.439898 -0.880699
21.5588 11.5127 5.93533 -0.331986 0.857112 -0.393884
22.2353 13.4296 17.8481 -0.678257 0.699244 0.225889
11.0137 16.682 5.64055 0.936749 0.0993756 0.335599
10.1361 14.0423 6.06054 0.794072 0.0132058 -0.60768
21.3486 15.3518 17.6052 0.856056 -0.341113 -0.388343
12.2496 14.0898 16.3803 0.818141 -0.399641 -0.413439
10.7349 16.4769 18.0241 -0.947209 -0.225345 -0.228065
13.05 14.3392 6.6259 0.0524035 -0.325018 -0.944255
13.3435 18.1367 16.5485 0.811603 -0.583839 -0.0208049
10.5149 16.128 16.9739 -0.985934 -0.0540393 -0.158156
11.0934 17.5634 18.2441 0.715316 -0.117897 0.688784
12.9451 13.999 17.4992 0.905162 -0.418651 0.0735758
15.8166 17.2063 5.90464 -0.876234 -0.273772 0.396565
14.5752 13.0827 10.4502 -0.33398 -0.37987 -0.862645
14.8461 15.2402 6.47701 0.23988 -0.0908062 -0.966546
14.1327 14.2857 7.11495 0.208342 0.360517 0.909187
15.9954 14.7361 5.70208 0.083709 -0.295935 0.951533
16.0174 14.388 15.8167 -0.737937 0.406567 -0.538657
13.7573 16.4969 18.0937 0.534641 0.844267 -0.037048
18.8873 13.8816 7.0178 -0.46165 0.600183 -0.653192
17.5699 14.3613 17.3445 -0.902357 0.0973975 -0.419841
18.5823 13.6505 5.7624 0.898633 0.186211 0.39722
16.8423 13.4966 5.75254 -0.0333377 0.976886 -0.211144
22.1211 15.7413 16.2341 -0.738913 0.183959 0.648203
19.9805 19.9413 15.3359 -0.975867 0.0155517 0.217812
18.6747 16.3495 16.5064 0.914649 -0.393978 0.0905418
20.2953 13.7758 17.8208 -0.884074 0.466132 -0.0336848
21.4709 16.3296 6.09112 -0.235844 -0.933401 -0.270445
21.7026 14.0207 5.86801 0.860435 -0.441673 0.254118
22.3132 13.3965 16.8003 -0.981655 0.0834743 0.171423
21.736 17.1161 17.7576 -0.649886 -0.727382 -0.220374
10.186 15.643 18.5801 -0.99486 -0.0279005 -0.097344
12.6434 17.6569 17.1956 0.789921 -0.594114 0.151831
9.28934 16.9046 18.1434 0.593544 0.803926 0.0375353
10.0026 16.5294 8.23134 -0.0086624 0.4257 0.904823
12.0796 15.2793 17.1971 -0.603679 0.410591 0.683364
13.7603 18.1181 17.5182 -0.938166 0.329443 0.106354
12.4503 17.7105 18.237 -0.644715 0.709119 -0.285469
13.4409 19.3034 5.45299 0.917135 -0.394494 0.0569037
16.4412 14.2498 10.7528 -0.0747652 0.535989 0.840908
14.6002 21.5516 16.3548 0.858982 -0.464615 -0.215134
15.8237 17.8723 18.4281 -0.691405 0.669167 0.27235
11.4686 18.7474 6.60675 -0.878467 0.462587 -0.119624
15.1373 16.5354 18.1385 0.0248946 -0.987329 0.156725
14.9996 21.4382 5.22803 0.710705 -0.579639 0.398645
17.2389 12.6124 18.5226 0.641332 -0.676054 0.362827
18.8938 18.4807 17.004 -0.919727 0.0141813 0.392301
11.7847 19.2387 17.3534 -0.710384 0.0990195 -0.696814
18.6274 12.502 7.76472 -0.80262 -0.0229197 -0.59605
18.9715 16.5033 17.5136 0.952709 -0.301903 -0.0346417
17.7957 18.5099 18.3602 0.883458 0.321332 -0.34095
21.9351 13.0894 5.22384 -0.884009 0.465769 -0.0398414
18.4665 15.5495 17.2852 -0.766548 0.6217 -0.160916
18.4379 19.3479 16.4582 0.936986 0.104477 -0.33338
17.215 16.3455 5.44713 0.912285 -0.294202 0.284923
10.0777 15.7045 6.12958 0.974372 0.143255 -0.173427
11.5395 20.3559 17.3107 -0.60521 0.286525 -0.742715
10.2954 19.1595 18.289 -0.797499 0.603257 -0.00876006
10.2722 20.7979 15.5077 0.832858 -0.395362 -0.387345
11.7449 18.0666 8.24709 0.033635 0.16798 0.985217
11.239 19.7367 18.4264 0.807304 -0.53243 0.254517
12.9211 19.4481 16.8831 0.858711 -0.454271 0.237178
22.2206 18.2078 8.56398 0.537408 -0.640274 -0.548855
13.8833 19.0927 17.9981 0.856734 -0.514979 0.0283431
13.3304 20.313 18.5428 0.940092 -0.340913 -0.00255758
12.5729 20.7329 16.671 0.86247 -0.502765 -0.0580731
13.7743 20.9425 6.65843 0.907756 -0.34532 0.238186
16.1206 18.8872 6.53359 0.439875 0.72028 0.536384
14.128 20.9152 5.61266 0.777358 -0.623248 0.0853043
13.0132 18.5717 6.03534 -0.811671 0.58368 -0.022541
13.7366 20.0012 6.12432 0.870755 -0.453004 0.191243
17.413 13.3068 8.78604 -0.0211044 0.261351 0.965013
14.5786 21.6649 17.418 -0.799457 0.600142 0.0264263
15.6347 19.2127 5.53283 -0.929707 0.368206 0.00834012
16.6812 20.5837 16.8827 -0.859969 0.505378 -0.0710348
18.414 17.9071 5.55554 0.925684 0.327091 -0.190054
16.3894 19.7548 16.2896 -0.800941 0.576982 0.159954
15.9786 19.8614 17.3617 0.881953 -0.471081 -0.0155552
18.5466 18.9356 6.48001 0.149352 0.0153376 -0.988665
18.9362 17.1415 6.0031 -0.96001 -0.266114 0.0869681
11.1489 20.6951 5.46768 -0.908003 0.391055 -0.150355
17.9244 15.961 18.1778 0.79549 -0.511731 0.324543
22.701 20.4349 17.6891 -0.256739 -0.592165 -0.763823
11.9705 21.5521 17.6821 -0.823737 0.250756 -0.508506
10.4983 18.7749 17.2541 0.769666 -0.578897 0.269244
22.5597 19.0455 17.7321 -0.806027 0.588146 -0.0663719
10.311 21.5287 16.4565 -0.941078 0.0943736 0.324756
15.1327 17.8479 6.91686 -0.819938 -0.468918 -0.328357
9.20546 22.4421 15.9051 -0.762398 0.603939 0.232395
13.6232 20.1664 17.4836 -0.909314 0.384103 0.160041
11.704 22.3566 5.9229 0.869682 -0.366287 0.330889
11.3377 20.7159 7.94529 -0.690923 0.200086 0.694688
13.9922 21.9207 8.58288 0.442407 -0.547187 0.710536
14.059 21.0679 18.0486 0.721149 -0.692379 -0.0235698
13.8584 20.8932 10.3431 0.552956 -0.641729 -0.531435
14.5061 21.8038 6.14487 0.580294 -0.789666 0.199218
14.5795 22.6275 16.8169 0.874597 -0.470249 -0.118091
15.4574 18.3437 17.3093 0.75834 -0.643135 0.10629
16.3064 21.5477 7.91833 -0.0530389 0.24131 -0.968997
16.6373 21.6256 17.2683 0.949476 -0.305061 -0.0737101
17.3259 20.4099 15.9294 -0.95707 0.2767 -0.0863376
14.144 19.019 16.2895 0.459085 -0.807952 0.369397
16.912 22.4634 17.8333 0.86921 -0.473955 -0.140854
17.3518 19.0456 6.77645 -0.515276 -0.64369 0.565821
19.4237 22.3387 5.51092 0.179552 -0.982772 0.0438273
15.367 19.275 16.5343 -0.825115 0.564827 0.0124885
18.4438 19.5629 17.4758 0.90467 0.30535 -0.297209
21.4052 20.3794 17.0841 0.463868 -0.500676 -0.730856
20.3919 22.6765 16.9003 -0.22212 0.0919314 -0.970676
10.4267 19.9396 5.66065 -0.862289 0.408504 -0.299303
21.1126 21.6754 16.9723 -0.597403 0.150166 -0.787756
10.7506 19.6104 15.3945 -0.603962 0.122394 0.78756
21.8707 18.8162 16.5567 -0.475722 0.540732 -0.693756
20.4553 19.7357 16.387 -0.755402 -0.426327 0.497608
9.26685 20.765 6.0745 -0.556907 -0.817473 0.146943
11.9133 22.571 18.3605 -0.834012 0.517604 -0.191076
9.70317 21.8784 18.2689 0.751713 0.101487 0.651635
10.0202 22.9459 16.3727 0.744163 -0.637108 0.200784
9.92382 10.3252 5.42691 0.899759 -0.420723 -0.115872
13.9619 22.1656 9.82174 0.738069 0.674032 -0.0305803
10.2723 10.6256 17.9214 -0.938593 0.339403 0.0620363
16.3417 20.8426 6.50398 -0.684187 0.671298 -0.285039
10.8277 12.0677 5.29479 -0.795017 0.189183 0.576332
15.2464 21.6229 7.9811 0.0655757 0.117934 -0.990854
12.9596 11.4504 5.79827 0.755895 0.617657 0.21708
16.7811 22.4706 16.6952 0.941333 -0.259829 0.215361
14.0684 10.7793 5.98011 0.18999 0.919756 0.343443
17.0057 22.1525 5.3645 0.795488 -0.602921 0.060697
16.8675 20.9307 5.43539 0.786171 -0.594123 0.170158
16.7535 23.4787 17.2355 -0.874787 0.481733 -0.0517773
17.3809 10.9928 18.7107 0.676948 0.0993682 0.729292
18.7667 21.4365 17.256 -0.459539 0.197537 -0.865912
15.1592 22.4598 17.9787 0.85859 -0.449759 0.24605
18.8242 20.4788 16.6637 -0.862877 0.142248 0.484984
17.216 23.341 18.4694 -0.89627 0.300259 -0.326413
19.2649 22.3623 17.7285 -0.801777 0.0999987 -0.589198
18.4475 22.0389 18.4052 -0.387636 0.805374 -0.448455
9.33348 18.9247 16.2255 -0.0262114 0.998665 -0.0445199
20.4546 10.8256 6.18521 -0.353756 -0.893266 -0.277369
10.5935 21.067 17.7717 0.918439 -0.133465 0.372368
21.7593 10.4484 16.6002 0.809458 -0.459232 0.365901
21.7438 22.6697 5.94768 -0.361935 -0.930953 0.048258
22.1941 11.2349 7.8272 0.109879 -0.832269 0.543373
12.4843 22.66 9.68806 -0.570353 0.443396 -0.691446
21.2607 12.0832 16.6056 -0.247062 -0.531461 -0.810253
11.0681 22.2107 9.73377 -0.0518774 -0.701664 0.710616
12.683 10.8511 7.99271 0.599854 0.707589 -0.373488
14.8464 10.5302 8.96863 -0.0459518 -0.470728 0.881081
12.79 11.7326 18.3557 0.714444 0.660172 0.231825
10.8998 11.5072 7.24395 0.194219 -0.850682 -0.488486
11.7839 11.971 9.77238 0.176375 -0.439262 -0.880875
16.5723 11.4642 11.3204 -0.567248 -0.577171 -0.587455
15.1441 11.9756 6.00278 0.797219 -0.452738 0.399337
11.4819 10.8389 8.06121 0.435345 0.594253 -0.676267
16.0798 11.9127 7.22789 0.89007 -0.452934 -0.0512435
18.3587 11.9483 9.43971 0.220728 -0.531802 0.817598
15.2284 23.4916 16.1953 -0.971693 -0.195569 -0.132532
15.8863 10.865 18.49 -0.44102 0.143331 -0.885978
17.39 10.2407 8.94045 -0.25164 -0.127456 0.959392
20.516 22.1916 11.2947 -0.443913 0.778238 -0.44417
19.5712 12.7759 5.83055 -0.191242 -0.514134 -0.836118
17.3316 11.1248 16.8607 -0.941163 -0.0415657 0.335388
20.7796 22.5389 7.92501 -0.166857 0.971404 0.168915
19.9291 22.1824 7.424 0.186642 -0.842874 -0.504707
19.5373 11.1218 16.0393 -0.813303 -0.243424 -0.528472
19.8243 22.806 6.54065 0.143068 -0.94619 -0.29027
20.4013 10.7809 7.27254 0.0357541 -0.999252 -0.0147301
22.6297 22.0529 7.51791 -0.206238 -0.897492 0.389839
20.8461 10.0729 17.4484 0.428029 -0.41667 0.801983
10.9997 13.492 17.2093 -0.988781 -0.0764115 0.12835
10.0889 14.1774 9.71046 0.292117 0.341345 0.893393
13.0634 23.1215 8.1978 0.124363 -0.549371 0.826272
10.3108 14.8209 6.86026 -0.354765 -0.064749 0.932711
10.5315 13.7285 7.06672 0.590304 -0.104003 -0.800453
22.6222 23.0772 9.85009 0.564278 0.470968 0.67807
10.3027 14.7501 8.71737 -0.408236 0.668335 0.621829
12.7558 13.168 5.61249 -0.0900434 0.216915 0.972029
13.6641 15.076 6.32 -0.682412 0.469423 0.560318
22.6603 13.4331 7.74187 -0.374059 0.147672 0.915572
14.3501 12.3675 8.00006 -0.257348 -0.225839 -0.939558
13.2106 12.5411 7.15911 0.0643275 -0.000157692 0.997929
9.6651 14.3011 17.2808 0.996616 0.0650613 -0.0502363
13.2608 15.7982 11.2802 -0.00325315 0.999286 -0.0376289
15.7207 11.0251 7.79614 0.104903 0.903663 0.415197
13.8473 13.7872 10.401 0.0605079 -0.0192962 -0.997981
15.5524 11.0117 16.4524 -0.950169 -0.276367 0.144221
21.5019 12.2866 10.4111 0.25738 -0.510314 0.82057
19.0428 22.1124 6.77659 0.0304375 -0.771014 -0.63609
18.1083 13.4651 7.49339 0.445899 -0.139357 0.884168
19.3726 11.7474 17.1452 0.550944 0.0414055 0.833514
19.3855 12.2893 9.53477 0.0515836 -0.795989 0.603109
19.6153 10.5909 7.9109 -0.661614 -0.44546 -0.603185
19.2551 14.8634 6.27001 -0.699072 0.478785 -0.531097
18.4266 13.6016 17.0137 0.809388 -0.197156 0.553191
20.0135 22.1483 8.52936 -0.0359654 -0.900898 -0.432539
21.9684 10.5741 10.4114 0.013454 0.47316 0.880874
22.5105 16.369 5.62753 -0.446034 -0.895004 -0.00462689
21.4066 16.5125 8.10928 0.207917 0.0515484 0.976787
20.7432 15.5671 7.46482 0.0601537 -0.329399 0.942273
10.138 11.9473 8.32314 0.285896 -0.954398 -0.0859532
21.7379 15.4438 7.54113 -0.00911898 0.152585 0.988248
10.5781 13.1084 5.562 -0.972921 0.0173429 0.230486
12.6896 15.1591 5.6731 -0.111648 0.770173 0.627988
13.3238 13.7023 7.87387 0.010165 -0.206327 -0.97843
11.5608 14.8224 18.6552 0.205158 0.426884 0.880727
12.1278 13.9026 5.28642 -0.0213723 0.405402 0.913889
14.0118 17.1272 5.63798 0.965734 0.02956 -0.257844
12.8086 13.8828 10.413 0.0772069 -0.0963534 0.992348
15.202 14.335 11.0396 0.42961 0.361024 0.827706
15.9111 13.5873 11.573 0.262007 0.0239931 0.964768
17.6758 14.43 10.7911 -0.422099 -0.157932 -0.892687
20.4355 12.3742 9.48143 -0.141038 0.833172 -0.534727
13.8126 15.6429 5.39687 0.692698 -0.615638 -0.375712
13.7831 15.762 7.36584 -0.25336 -0.768359 0.587735
15.7318 12.795 9.48762 -0.416284 -0.313689 -0.853409
21.0428 13.4694 8.1393 0.586842 -0.166477 0.792403
17.8521 14.4623 8.01023 -0.283043 0.55369 -0.783144
17.2285 14.3871 6.53532 0.636777 0.00699544 -0.771016
19.9042 14.2721 7.84049 -0.0400571 -0.853035 0.520314
21.2786 13.6586 6.88746 -0.684817 0.573539 -0.449532
19.2785 14.4731 5.27515 0.852813 -0.249873 0.458556
20.1903 16.6455 6.29599 -0.775901 -0.437025 -0.454957
17.0324 15.3885 18.4353 0.843302 -0.389747 0.370053
11.928 15.791 9.95122 0.0533882 0.136579 -0.989189
21.9305 17.378 7.53334 0.476553 -0.183591 -0.859762
10.1438 16.6089 6.54001 0.997074 0.0631041 0.043142
22.5628 19.2346 7.54699 0.00261923 0.994387 0.105767
9.45589 14.747 5.62768 0.875842 -0.0202425 -0.482174
10.7919 15.5509 7.51414 0.388107 -0.107235 -0.915354
22.1792 14.8128 18.3513 0.950881 -0.132145 -0.279932
10.0558 17.8601 8.36221 0.208114 -0.64851 -0.732204
12.831 16.3539 7.54705 -0.287946 -0.103156 0.952074
13.6676 18.225 18.5865 0.936426 -0.350091 0.0233013
12.3705 15.9765 18.5711 -0.0704704 -0.902604 -0.424665
12.0163 17.1994 8.82822 0.0983673 -0.291962 -0.951358
14.0129 15.5458 9.38284 0.152045 -0.156943 -0.975834
16.1718 19.935 18.432 0.861051 -0.497407 -0.105726
15.3653 14.3807 9.30421 0.297772 0.122572 0.946736
14.452 18.57 6.34397 0.531267 -0.627291 -0.569439
15.6335 13.3689 8.38378 0.283502 0.325532 0.902029
18.0654 11.976 6.25562 -0.972005 -0.00671705 0.234864
15.1002 14.1089 6.59177 0.0608038 0.232551 -0.970682
16.7572 14.0688 8.52808 0.358511 -0.202693 -0.911255
19.3235 15.9073 7.58419 -0.850908 -0.445641 0.278137
18.6893 17.6121 17.7512 -0.80764 0.00991235 0.589593
18.9042 14.4202 7.95991 -0.0824068 0.586408 -0.805813
20.4757 18.0623 6.54117 0.34518 -0.215828 0.913383
20.0449 14.9429 18.2166 0.760597 -0.620132 0.192166
20.4198 16.9159 16.594 0.155372 -0.923931 0.349586
19.345 13.5109 18.521 -0.92949 0.159756 -0.332454
20.558 16.53 5.30391 -0.0860408 0.995994 0.0243331
22.5463 18.6255 6.35828 -0.175486 -0.947216 -0.268302
22.6499 17.1361 17.1221 0.374319 0.923529 -0.0835471
10.5696 17.2743 16.5306 0.601065 0.359522 -0.713768
10.6773 18.3671 7.38303 -0.215615 0.942134 0.256698
22.5522 19.4389 8.98952 -0.130613 0.794501 -0.59305
10.1296 20.1875 6.68099 0.264039 0.815017 -0.515781
11.0186 17.0494 8.20758 0.094394 0.592034 0.800366
12.1044 21.7555 7.05564 0.547845 -0.825443 0.13605
11.767 16.0982 7.24149 0.0924817 -0.0729194 -0.993041
12.531 21.0341 8.24722 -0.612065 0.717898 -0.331659
10.8246 17.5827 6.21836 -0.995524 -0.0935685 -0.0133026
10.9358 18.9536 8.73744 0.0745927 0.835241 0.544801
15.0952 19.805 8.43202 -0.265432 0.223256 -0.937925
13.9325 20.0228 8.09809 -0.373573 0.197158 -0.906406
11.5259 19.9172 6.77185 0.819063 -0.024596 -0.573176
15.6227 20.6596 8.0351 -0.101688 0.0709234 -0.992285
15.4843 18.9533 7.81809 -0.207739 0.182843 -0.960944
15.6349 19.1383 18.0268 -0.899382 0.437085 -0.00827528
19.6506 17.9094 18.1676 0.0445904 -0.863918 0.501654
16.1282 19.7052 8.34767 -0.0782473 0.273951 -0.958555
18.199 17.8249 6.63479 -0.923648 -0.289284 0.251375
17.0932 21.6819 6.3767 0.429257 -0.902183 -0.0424895
20.4514 14.8223 17.2423 0.761787 -0.639013 0.106503
17.7129 18.6574 8.38523 0.0521603 -0.209713 -0.976371
20.3772 17.533 17.5085 -0.00243451 0.91032 -0.413898
21.5573 20.131 5.37079 0.25914 0.312885 -0.913756
18.8001 16.5741 18.5623 0.900675 -0.409659 -0.14479
16.9218 18.1149 6.26616 -0.760089 -0.508275 0.404872
22.5767 18.9161 5.29473 -0.11221 0.989136 0.0949671
10.2374 20.1578 17.087 0.622638 -0.602894 0.498839
21.8122 21.7573 16.0589 -0.333862 -0.381997 -0.861751
20.5791 19.0942 6.54367 0.419213 0.129997 -0.898533
10.3378 20.8127 7.56585 -0.6245 -0.650917 0.431633
11.875 21.5201 5.30707 0.851416 -0.34045 0.398979
11.4406 21.3089 6.31055 -0.818166 0.57226 -0.0558821
12.1981 10.8602 6.57253 0.624441 0.660585 0.416774
12.5268 17.2699 6.8164 0.934709 0.256973 -0.245528
14.8779 22.4495 8.68058 0.274894 -0.272071 0.922177
13.0061 19.2415 6.93071 -0.22997 0.964072 -0.132964
12.146 20.0057 8.32988 0.781097 -0.275911 -0.560143
13.9647 22.379 7.02766 -0.574592 0.807309 -0.134521
13.2364 21.3305 9.00837 -0.639207 0.746322 -0.185519
13.2587 21.657 7.46183 0.344267 -0.668722 0.659007
16.0749 10.4262 9.73109 0.381182 -0.379598 0.842974
15.8987 19.9267 6.21982 -0.861513 0.0152339 0.507507
16.4782 20.765 17.9343 0.82951 -0.553919 -0.0713179
16.759 23.4771 5.9129 -0.960894 -0.276906 0.00242305
17.4767 23.0248 6.70854 -0.284094 0.486213 0.82637
17.1616 19.5788 8.52103 -0.0421912 -0.068711 0.996744
18 19.5253 5.22754 -0.82873 -0.252829 0.499283
20.2857 20.7772 16.7724 0.825038 0.116082 -0.553026
18.5763 23.1881 6.20202 -0.0317056 0.960319 0.277097
16.4412 16.3448 6.31919 0.592773 0.804017 -0.0466484
19.7642 11.7096 15.0648 -0.665975 0.591308 -0.454787
22.1759 20.8545 16.4197 0.0370965 0.258116 0.965401
19.3734 20.8793 7.23171 0.239624 -0.0778549 -0.967739
20.9965 18.4152 8.46344 0.0302511 -0.186937 0.981906
21.502 22.8152 16.8707 0.447321 0.404377 0.797736
9.88434 22.3443 17.2999 0.815453 -0.388397 0.429166
22.5411 10.917 6.90413 0.0182967 0.865776 -0.500097
13.7979 10.5877 7.26025 0.161592 -0.900996 0.40261
9.79514 23.1467 18.0404 -0.772995 0.529131 -0.349998
9.81688 11.355 7.37547 -0.443105 0.868861 0.220768
10.6173 10.5778 10.1858 -0.0227577 -0.084405 0.996172
14.2595 20.6307 12.8626 -0.813324 -0.00456513 -0.581792
10.3498 11.2225 6.27339 0.554732 -0.751729 -0.356619
12.1373 21.6367 9.7788 0.402978 -0.474166 0.7828
17.9585 11.3608 11.0704 0.371173 -0.901556 -0.222324
16.7097 10.8765 8.38889 -0.0411527 0.164107 0.985584
13.6256 20.0299 10.9588 -0.815602 0.402428 -0.415747
14.9974 21.2228 10.2627 -0.732209 0.612927 0.296969
15.3983 12.5742 10.9876 0.0700416 0.303382 0.950291
15.5201 23.183 9.07747 0.218433 -0.259572 0.940696
15.0488 12.0034 17.5442 0.101858 0.295582 0.949872
17.3184 10.8768 6.52178 -0.698249 0.536713 -0.473696
18.0122 11.6631 12.3476 0.491197 -0.628482 -0.603105
19.3192 21.6809 9.2371 0.397395 -0.787152 -0.471666
16.3502 11.7573 18.0693 -0.47922 -0.00634738 -0.877672
17.8639 21.0054 18.0679 0.845518 -0.521473 -0.114743
19.0135 22.3133 8.27762 0.121623 0.64547 0.75404
19.5872 19.0518 5.5297 -0.132696 0.286482 -0.948852
19.7165 11.6399 6.57877 -0.582708 -0.777624 0.236118
19.7645 23.4267 17.339 0.23893 -0.323354 0.915617
21.8144 22.1952 8.16075 0.19573 0.950813 -0.240094
10.1447 21.9962 9.04204 0.266617 0.835505 -0.480466
20.9147 22.8924 6.59057 -0.184962 -0.979285 0.0823958
21.7242 21.8087 9.70272 -0.409669 -0.689714 -0.597047
9.58856 21.986 12.7056 -0.865681 -0.120453 -0.485889
12.1578 11.6074 10.8976 0.702701 0.569763 -0.426123
10.0321 21.9974 10.3117 0.226986 -0.665774 0.71079
11.8684 22.3937 10.6126 -0.581448 0.682686 -0.442559
11.3543 11.8577 8.37659 -0.487269 -0.402137 0.775148
14.5302 11.8386 10.4144 0.127968 -0.115187 0.985067
13.3961 13.0374 9.36291 -0.37598 0.0147751 0.92651
14.2621 13.416 13.0422 -0.575422 0.442609 -0.687741
12.5773 12.1993 8.75447 -0.0376489 -0.265108 -0.963483
15.9234 10.2034 13.1799 -0.692943 0.0901462 -0.715335
14.6874 12.4987 12.202 0.32603 -0.0384666 0.944577
16.2598 11.8518 9.53495 -0.191606 0.0430356 0.980528
14.7253 11.0304 12.7841 0.598446 0.701455 0.38707
15.632 11.8774 11.9031 -0.177996 -0.326383 -0.928327
14.7942 10.9346 7.055 0.000102153 -0.975569 0.219691
18.5554 10.7711 8.59567 0.159922 0.041253 0.986267
21.1725 23.1212 11.4736 -0.0198969 -0.758956 0.650838
19.4738 21.2737 10.1902 -0.222655 -0.959661 -0.171683
21.0363 22.369 10.3683 0.159469 0.966521 -0.201015
20.4129 21.4653 9.51774 0.137001 -0.92931 -0.342948
19.4012 12.2355 11.7116 -0.395719 -0.689923 0.606146
22.4737 11.9952 8.44889 0.48846 -0.769863 0.410754
19.6296 10.5034 9.2647 0.399503 0.496023 0.770946
21.443 10.8385 7.17861 -0.00658145 -0.949696 0.313104
21.9448 22.9182 12.4031 -0.0846631 -0.830258 0.550913
11.1514 10.2509 12.3508 0.376047 -0.863254 0.336721
21.2508 10.6172 8.31118 0.393435 -0.851724 0.346086
21.5861 11.6261 8.97295 0.408832 -0.908039 0.0912255
12.7947 12.2994 12.6416 0.92594 0.374043 -0.0522129
11.9952 10.5721 9.22451 0.764498 0.557365 -0.323863
9.98731 10.1835 8.79005 -0.420703 0.592939 -0.686609
10.6585 22.6498 10.816 0.384006 -0.643955 0.661711
9.96226 14.5993 12.1089 -0.154493 -0.984476 0.0832962
13.461 12.9236 11.3249 0.247918 -0.319483 -0.914586
11.8652 13.0046 9.66717 0.297975 0.242451 0.923271
13.5385 11.9125 9.22041 0.0699938 -0.0100286 -0.997497
11.679 13.8442 8.80162 -0.240919 -0.152586 -0.958476
14.3794 14.3819 11.631 -0.300092 0.766434 -0.567911
13.0287 14.728 12.3314 0.280497 0.947457 -0.153774
14.8664 22.8723 6.53696 -0.789994 0.612741 0.0214188
14.35 14.6326 9.56841 -0.279801 -0.287582 -0.915974
17.0281 13.2573 12.8844 0.201415 -0.396012 -0.895883
14.1289 13.0525 6.64408 -0.446728 -0.0988679 -0.88919
19.9499 11.7429 10.8559 -0.530782 -0.748749 0.397046
18.0648 15.3183 10.5185 0.448763 0.0539267 0.892022
20.0934 12.1602 12.5452 0.176122 -0.629534 -0.756748
19.1619 11.6091 8.68679 0.858686 -0.174791 0.481774
21.1573 10.9832 11.5729 -0.228901 0.535065 -0.813209
18.8813 14.202 14.8225 -0.669521 0.160103 -0.725333
21.7356 21.8659 11.1326 0.0557674 0.975719 -0.211807
22.4356 12.2076 12.0683 -0.459811 -0.85442 0.241952
20.9547 10.7474 9.46544 -0.525789 -0.515123 -0.676901
20.2225 14.3375 10.3861 0.160203 -0.95662 0.243337
12.7894 11.6087 11.7229 0.842957 0.367417 -0.392974
21.757 12.8932 6.23895 0.937684 -0.257999 0.232777
11.1345 15.4744 9.12102 0.28788 -0.0746093 -0.954756
12.5185 16.6009 10.2716 -0.126112 -0.0409312 0.991171
11.0161 15.8242 11.2102 0.583342 0.806349 -0.0975335
9.39556 15.4765 7.82927 0.184591 0.372009 0.90969
22.3002 14.4463 7.58704 0.605301 -0.0308122 0.7954
9.81595 14.7151 13.8498 -0.39771 -0.328419 0.856719
11.2925 14.6929 10.1858 0.240722 0.313927 0.918424
13.6275 16.4972 9.18411 0.150366 -0.065861 -0.986434
12.2766 15.2206 7.61134 -0.0704712 -0.205066 -0.976208
9.8619 13.1249 9.69605 0.553269 0.183391 0.812565
12.295 14.0824 7.67342 -0.235662 -0.254267 -0.937983
13.3308 14.7225 9.58187 0.226591 -0.0758586 0.971031
12.2652 14.8282 9.73028 -0.348088 0.0135183 -0.937364
14.6782 16.2221 8.59826 -0.0602096 -0.187908 -0.980339
17.9782 13.4216 11.5896 0.140857 -0.715854 -0.683895
16.5892 13.3847 7.1165 0.723089 -0.494733 -0.482059
21.1348 11.8454 12.2187 -0.140543 0.39984 -0.905746
17.4701 16.1857 10.4248 -0.0457513 0.000450979 -0.998953
18.7792 13.6343 13.5998 -0.119513 -0.951964 0.281925
20.7033 13.9406 9.22997 0.174866 -0.607434 0.774885
20.3233 12.4013 8.16465 -0.310379 0.667121 -0.677211
17.5515 15.8059 7.90911 0.191026 -0.10473 0.975982
18.578 15.8573 14.4732 0.334235 -0.86222 -0.38061
20.1908 15.2611 5.95587 0.779703 -0.329199 0.532626
9.42765 15.7042 10.2415 -0.850843 0.459627 -0.254576
21.2782 14.452 7.93585 -0.576832 0.210049 -0.789395
21.6222 15.0524 14.0554 -0.375554 0.538302 0.754447
11.2741 16.601 9.51469 0.393428 0.285095 0.874034
22.4577 15.2709 9.13531 0.169862 -0.984558 -0.0423464
21.527 19.5792 8.52987 -0.260141 0.72702 0.635428
10.7951 16.419 12.3278 -0.597375 -0.57967 0.554189
9.75497 17.9134 6.97452 0.190424 0.931676 -0.309385
22.3951 16.4137 7.7326 -0.246108 -0.295928 -0.922961
9.71551 18.8363 10.4883 0.637915 -0.633025 0.43857
9.74417 14.6699 15.5706 0.978087 -0.0643829 -0.197994
9.37732 17.6647 9.41424 -0.742276 -0.376031 -0.554642
13.3057 17.187 8.06066 0.380732 -0.0704706 -0.921996
9.68537 17.1043 10.3276 -0.26637 -0.543206 -0.796225
10.8976 17.4705 12.6627 -0.472183 -0.462157 0.750636
13.9581 19.3899 10.1109 0.350869 -0.430439 0.831633
12.9614 15.6981 9.46104 0.185254 0.0321462 -0.982165
11.5671 19.2828 7.80057 0.696085 -0.618721 -0.364212
16.4347 16.2286 10.5306 -0.228015 0.183548 -0.9562
14.98 16.1617 5.75898 -0.928656 0.123752 0.349691
16.5179 12.7896 8.67105 0.242294 0.0481709 0.969006
16.9201 15.1672 10.4548 -0.196967 -0.205936 -0.958538
16.8214 15.1101 7.89595 -0.290975 0.161606 -0.942983
15.455 17.0039 8.61822 0.098352 -0.141622 0.985023
19.7384 13.6102 9.58254 -0.0237555 0.69161 -0.721881
15.651 15.89 8.19121 0.0323486 0.187102 0.981808
21.5833 14.7077 9.55714 -0.0625067 0.996961 -0.0464913
21.4443 18.3111 18.3373 0.356811 0.931569 0.0697554
17.3612 15.3768 6.10842 -0.895545 0.136238 -0.423601
9.50977 14.6642 11.0444 -0.0187112 0.875323 0.483177
9.32601 16.4363 11.0211 0.852095 -0.256766 0.456075
10.0799 18.5006 5.61884 -0.285167 0.88895 0.358395
21.6948 18.9059 6.93318 -0.174486 -0.984127 -0.0323963
10.1219 20.0431 12.2674 0.143813 -0.650279 0.745959
22.0234 20.1665 12.049 0.85137 -0.421351 -0.312461
11.8294 22.7524 8.05635 0.87044 -0.492106 -0.0128628
10.0188 19.4813 8.5421 -0.293691 -0.801569 -0.520801
11.2283 19.713 10.4571 0.734048 -0.268664 0.623692
12.7698 18.1187 8.58886 -0.016781 -0.103836 -0.994453
12.4754 19.6296 10.1025 -0.756028 0.409872 -0.510321
10.9073 17.4598 10.2654 -0.402082 -0.0463453 -0.91443
13.8393 18.1158 8.05813 -0.128635 0.088704 0.987717
17.1767 19.3925 13.924 -0.686591 0.0494729 -0.725359
15.175 20.8228 14.7262 0.158057 -0.701843 -0.694575
14.635 20.766 8.57067 -0.350481 0.30711 -0.884786
15.7151 19.839 10.4124 -0.985095 0.161091 0.0603081
16.0881 18.8043 12.4427 -0.169932 0.302931 -0.93774
17.7806 20.4232 7.88037 -0.00872288 0.156187 0.987689
15.671 16.596 7.00091 -0.867346 -0.442761 -0.22732
16.7201 20.5188 8.52176 0.182824 0.205168 -0.9615
18.3722 15.1128 8.90864 0.713138 0.626771 -0.313995
18.7199 18.5241 8.50584 0.140837 -0.376421 -0.915681
20.6368 19.1801 18.3102 -0.186255 -0.982291 0.0203573
18.2852 19.673 8.70787 0.259113 0.226473 0.93892
18.2723 17.5477 8.73843 -0.0192266 0.0173649 0.999664
18.7463 16.0029 6.58827 -0.947086 0.317615 -0.0463584
21.0249 19.0367 17.3356 -0.391585 0.920078 -0.0108566
19.0549 19.4768 14.2332 -0.434674 0.033668 0.899958
21.4469 18.2931 5.90527 0.414355 0.909655 -0.0289479
21.1639 20.4588 7.98417 0.832667 0.165529 -0.528456
21.0993 20.817 6.71679 0.656222 -0.0477425 -0.753056
20.5236 19.3963 8.26939 -0.434537 -0.186386 0.881157
11.4472 20.7615 10.0495 -0.596797 0.404372 -0.693049
11.7669 23.4604 7.17738 0.861692 -0.351785 -0.365698
10.9666 22.0481 7.92599 0.138676 -0.329499 0.933916
14.7967 20.6507 11.3017 -0.588025 0.806795 -0.0575165
11.1886 19.4354 12.9044 0.223988 -0.00879638 -0.974552
12.4609 20.6956 9.3765 0.782207 -0.390312 0.485602
12.5241 19.7399 12.3344 0.615033 -0.265208 0.742563
13.923 22.0936 12.1594 -0.41797 0.905362 0.0749704
17.481 20.489 12.0968 -0.690838 0.48854 -0.532984
14.7852 10.5415 10.7371 -0.783846 0.594952 0.17781
16.141 22.0237 9.95662 0.439857 0.738501 0.51102
15.2533 21.6805 11.5521 -0.12062 -0.338197 0.933313
15.8728 20.3178 13.1719 0.461608 -0.347327 0.816261
15.9358 22.4581 8.31852 0.523508 -0.345526 0.778814
16.6676 18.6876 8.80945 -0.238116 0.0985125 -0.966228
18.3109 21.8419 8.82174 -0.128285 0.810996 0.570815
18.7333 20.0029 7.20835 -0.0980272 -0.156563 -0.982791
18.0609 22.0571 7.12592 0.0352333 -0.317921 -0.947462
20.2707 20.3965 11.9771 0.582645 0.43501 -0.686506
17.5714 18.9728 11.1428 0.225916 -0.0741763 0.971319
18.3933 20.8357 6.42122 -0.0917725 0.329468 0.939696
20.4854 20.7138 5.73701 -0.152959 -0.970469 -0.186532
19.129 17.0508 7.07594 -0.988751 -0.112642 -0.0984046
20.4333 18.5559 10.2095 -0.348299 -0.560526 0.751331
22.1474 20.5539 9.85802 0.936476 -0.315967 -0.15224
19.8942 18.1391 7.90393 0.220201 0.13677 0.965819
9.79451 21.2648 8.35689 -0.25313 -0.788917 0.559941
9.22313 21.442 11.4192 -0.0425157 0.705524 -0.70741
11.6481 21.0376 15.2422 -0.0854741 0.495433 -0.864431
13.7009 10.7921 8.40053 0.59966 0.58901 -0.541733
9.83606 23.1019 7.87368 -0.807209 0.0377127 0.589059
11.96 10.751 10.261 0.613171 0.65482 -0.441851
11.61 22.8068 11.6004 -0.37539 0.91419 -0.152773
14.0204 10.7943 9.65409 0.247681 0.614585 -0.748959
13.3773 19.1385 11.5815 0.719738 -0.608737 0.33379
15.1998 11.4665 9.26241 0.176709 -0.329824 0.927356
16.9258 23.4038 12.3042 -0.0676213 -0.455611 -0.887607
17.2506 12.1972 8.29735 0.132571 -0.0881538 0.987246
17.5946 22.4572 11.9328 -0.525285 -0.729793 -0.437583
17.1346 11.0368 10.4762 -0.0767063 0.879519 -0.469642
17.3614 21.4406 8.30671 0.213786 -0.133346 -0.967737
17.6801 11.2425 8.78579 0.105334 -0.0953785 0.989852
16.5632 22.6783 7.38199 0.682958 -0.376414 0.626003
17.7368 10.3425 11.7066 0.406045 -0.78502 -0.467836
18.4949 21.7041 10.5399 0.476318 -0.71189 0.516076
19.3511 23.4912 10.1446 -0.336707 0.783678 0.521993
18.3234 23.2325 8.27577 -0.0797405 -0.143653 -0.98641
18.616 21.7651 12.0831 -0.40371 0.39067 -0.827282
20.1207 17.9463 12.2402 -0.218602 -0.562849 0.797129
21.0421 22.4158 9.01557 0.218115 0.886043 0.40909
20.0247 20.4881 18.0646 0.0643785 0.901589 0.427777
19.9177 20.9427 12.9307 0.614563 0.604368 -0.507003
9.38078 21.0322 10.4316 -0.207562 0.775527 -0.596219
22.4879 21.5956 8.91092 -0.368453 -0.928652 0.0429796
10.5514 22.8554 11.996 -0.386975 0.589028 -0.709433
12.963 11.9462 13.7417 -0.878328 -0.301121 0.371302
14.2503 11.3374 14.8792 -0.908575 -0.367165 0.199201
9.92234 11.9252 9.84735 -0.205552 0.669489 0.713816
12.829 10.8357 10.9255 -0.713296 -0.382735 0.58713
11.3283 13.9696 12.3523 -0.712342 -0.689371 -0.131668
13.4257 11.4409 12.739 0.881893 0.237254 -0.4074
10.7979 12.488 9.66488 0.0107265 0.00245014 0.999939
13.4494 10.7793 11.9222 0.920995 0.263035 -0.287369
10.7783 13.4598 9.09422 0.231868 0.209468 0.949927
14.7834 14.535 14.5143 0.452913 -0.814532 0.362501
15.1775 22.5761 12.3957 -0.596223 -0.203878 -0.776499
16.3572 10.9977 12.3411 0.294251 -0.57222 -0.765494
13.9775 14.358 13.6681 0.352253 -0.74356 0.568362
18.2601 21.8842 13.3883 -0.596998 0.668779 -0.443089
17.4702 13.2476 15.7872 0.78551 -0.477834 0.393255
17.7118 23.1611 10.4366 0.429576 0.819067 -0.380256
15.7672 13.0538 16.2254 0.0477286 0.492356 -0.869084
20.9221 22.9661 12.8524 -0.248209 0.658974 -0.710032
18.8872 12.3626 10.602 -0.0332899 -0.792111 0.609468
19.2017 22.4481 11.1473 0.471205 -0.462077 0.751299
20.0038 12.2489 14.0351 0.91334 0.18437 0.363067
9.33955 22.8185 13.3536 0.872719 0.308834 -0.37813
22.3965 12.9285 10.2824 0.0289364 -0.654049 0.755898
9.5746 10.8042 9.93528 -0.421498 -0.503285 -0.75435
21.6355 11.898 14.2644 -0.701248 -0.523619 0.483813
10.9278 10.3979 15.2477 -0.683482 0.707712 -0.178877
20.3494 10.2862 10.4592 -0.0860696 0.47631 0.875055
11.8613 12.3146 11.6284 0.67346 0.537375 -0.507622
20.4303 15.8902 12.8897 -0.189678 0.721649 0.665767
11.2954 13.3048 11.2659 -0.466307 -0.689522 0.554181
11.3087 15.4212 12.2116 0.551211 0.765016 -0.333043
10.9963 11.5506 10.6208 0.281602 -0.367768 -0.886255
11.3072 14.1507 14.4078 0.61164 0.29244 -0.735102
11.3966 13.3742 13.3782 -0.710783 -0.621896 0.328684
11.5128 12.9789 7.00883 -0.347593 -0.10167 0.932117
12.4833 13.1183 8.14752 0.0690149 0.177274 0.981739
12.0566 16.9131 12.4688 0.719215 0.282396 -0.634809
14.9076 13.4169 16.7613 -0.024356 -0.385429 0.922416
11.8403 17.7191 13.1223 -0.62106 -0.344943 0.703775
13.6737 13.1369 16.7585 -0.401576 -0.489193 0.774227
14.9515 14.5605 13.4923 -0.270512 0.882166 -0.385494
19.1443 14.6894 12.2848 -0.729068 -0.539672 0.420968
16.453 12.6265 11.4877 -0.161246 0.120225 0.979564
19.2237 14.9537 11.0591 0.403021 0.781506 -0.476259
17.5401 12.8017 14.0285 0.563009 -0.610513 -0.557041
20.0746 11.3024 13.4639 0.892638 -0.171213 0.416994
17.9111 12.7572 9.90338 0.586401 0.450829 -0.672969
19.1461 13.7079 10.7838 0.236933 0.638227 -0.732481
19.155 15.4171 9.78788 -0.472213 -0.710419 0.521842
22.3273 12.0495 9.75869 0.214596 -0.644164 0.734167
19.7525 14.4391 13.9852 -0.0166434 -0.851897 -0.523445
22.6242 23.2832 11.3283 0.225925 0.928735 -0.293955
20.4502 13.4296 14.1329 -0.31455 0.528315 0.788632
11.2786 11.2547 13.1611 -0.616614 0.685584 0.386991
21.7691 16.1438 12.2935 0.552253 -0.294557 -0.779906
21.0316 16.4094 10.2118 -0.14934 0.217241 -0.964626
22.3547 16.0601 14.7441 -0.56089 -0.534054 0.632605
9.30487 13.8417 13.3466 -0.0671392 -0.801027 0.594851
11.7597 15.5405 14.1677 -0.327945 -0.624234 0.709073
12.3033 15.7197 12.7057 0.56112 0.621599 -0.546588
11.7613 16.7695 15.8534 -0.185157 -0.803484 0.5658
12.3537 14.7262 15.5711 0.898894 0.438104 0.00736611
10.8768 15.3051 13.7665 -0.362521 -0.562713 0.742921
11.3485 14.5383 7.24399 -0.0022229 0.0909901 0.995849
12.4204 17.9946 13.9894 -0.510258 -0.633195 0.58198
14.391 17.1455 8.18876 -0.123521 0.240915 0.962654
12.7352 17.1759 13.2446 0.609709 0.342701 -0.71471
12.2678 14.7233 11.6122 0.16697 0.985654 0.0246314
15.3857 13.6288 12.9136 -0.289975 0.801471 -0.523029
14.4248 15.3818 15.3417 0.017297 0.943235 -0.331674
15.8242 14.8358 7.97147 -0.242661 0.00582635 -0.970094
16.4396 15.3137 15.7107 -0.534994 0.185624 -0.824211
15.8635 15.3843 10.3924 0.124705 0.0378959 -0.99147
21.6124 14.9305 11.4915 -0.546157 0.752594 0.367851
16.6455 15.9961 8.51108 -0.085379 0.177025 -0.980496
18.4746 14.0419 9.77823 0.548832 0.519353 -0.655023
18.3498 16.6783 12.4321 -0.132586 -0.465753 -0.874925
21.1749 14.1366 14.1946 0.668424 -0.56112 -0.488215
21.3206 14.2731 10.5604 -0.326127 0.943459 -0.059388
20.4257 13.2977 12.4377 -0.0200445 -0.620553 -0.783909
21.96 13.8263 12.4308 -0.703156 -0.0264906 0.710542
21.0313 13.8183 11.6507 -0.0828832 -0.758171 -0.646767
9.94046 16.9487 11.9837 -0.706331 -0.595186 0.38321
10.4415 16.4133 10.1561 -0.224742 -0.342839 -0.912114
20.1547 16.9837 10.5338 0.114624 0.224617 0.967682
10.9254 16.847 15.2787 0.2032 0.69374 -0.690966
22.0014 19.9678 10.8762 0.837529 -0.517688 0.174772
10.9014 16.0717 14.6064 0.465993 0.533507 -0.705848
13.3581 19.0602 8.74502 -0.218319 -0.172145 0.960574
12.6784 17.1423 16.266 0.249979 0.789927 -0.559934
22.2548 17.7908 10.3427 0.127504 0.827632 0.546597
12.9735 17.0416 14.641 0.389741 0.40189 -0.828605
9.9687 16.4753 15.1188 -0.173078 -0.487201 0.855967
11.8845 18.8155 14.9795 -0.652402 -0.727862 0.211159
15.1624 18.936 10.3499 -0.0260551 -0.144089 -0.989222
12.7991 16.0258 14.1588 -0.233348 -0.351288 0.906722
13.8073 16.4389 14.1316 0.163929 0.587169 -0.792691
17.1959 14.613 12.9113 -0.321525 0.519667 -0.791561
18.0435 15.204 12.5998 -0.248728 0.294942 -0.922574
17.3193 16.3485 14.6118 0.282976 0.309243 0.907906
15.7007 17.3244 14.4423 -0.757024 0.45259 -0.47125
19.3134 16.8438 11.7389 -0.108261 0.342519 0.933253
18.5033 16.1659 10.0805 -0.219133 -0.0190422 -0.975509
17.5259 16.7964 8.24497 -0.229547 0.0117081 -0.973227
16.7474 16.9933 9.14121 0.449098 0.0785533 0.890023
16.6628 16.7749 13.0851 -0.15865 -0.19359 -0.96817
10.4948 13.9298 11.3908 0.733395 0.631522 0.251617
20.2234 16.3702 8.40169 -0.769677 0.50208 -0.394352
18.1784 17.2313 11.17 -0.216849 -0.26566 -0.939362
9.86485 17.7585 12.7657 -0.342364 -0.46313 0.817495
18.2706 18.2879 10.688 -0.159525 0.0433137 -0.986243
21.2986 19.676 9.9481 0.744348 -0.666986 0.0327923
21.0454 17.0208 11.966 -0.368413 0.0167333 0.929512
12.0942 19.0485 8.9517 -0.561158 0.046556 0.826398
13.8347 19.9358 14.8495 -0.664347 0.329396 -0.670926
10.5642 18.8475 9.72791 -0.713878 0.673326 -0.192379
10.4478 19.393 11.1914 0.437341 -0.563273 0.701039
10.5465 18.2246 13.4131 0.0779613 0.603282 -0.793708
12.0843 18.6371 11.7284 -0.575122 -0.0593098 0.815915
22.5784 17.6698 11.4959 -0.552448 -0.833407 0.0152864
12.4155 17.6492 10.8045 -0.35459 0.084965 0.931154
13.3813 18.1947 10.9165 0.278383 0.302821 -0.911484
17.0943 20.2894 10.924 -0.6675 0.475955 -0.572635
14.9066 19.8337 12.3932 0.717252 -0.431174 0.547393
15.9521 17.5191 13.1797 0.374783 0.318199 0.870797
13.7698 17.3753 10.3777 -0.268278 0.220775 -0.937702
17.5034 20.2116 9.89729 0.544845 -0.829065 0.12568
16.4104 18.7836 10.705 -0.398763 0.0361734 -0.91634
14.9599 18.0467 8.57848 -0.197297 0.204354 -0.958808
15.5465 16.3851 11.0731 -0.199603 -0.110247 -0.973655
19.2915 19.2778 8.10969 0.0210289 -0.328577 -0.944243
18.7098 16.5657 8.39012 -0.526724 -0.142136 -0.838069
17.7507 21.1907 11.1545 -0.577497 0.257959 -0.774567
16.7076 17.806 12.2697 0.230407 -0.153421 0.960924
17.9159 17.8409 13.1842 0.335722 0.608855 -0.718739
19.3659 18.5558 10.0157 -0.153633 -0.133008 0.979135
21.2729 17.9934 12.3542 -0.33118 0.0644809 0.941362
18.9258 15.8558 12.5333 -0.456686 -0.0119215 0.889548
10.7734 20.4962 11.0133 0.425605 -0.291509 0.85667
11.8624 20.248 13.1108 -0.858385 0.218799 -0.464006
9.3199 21.5289 13.7738 0.968174 -0.248058 0.0332774
14.5981 22.4614 15.7264 -0.981001 -0.177403 -0.0785124
13.0657 21.5837 11.8838 -0.609565 0.676688 0.412945
12.0388 20.9212 11.4041 0.892187 -0.42449 0.154304
13.8477 21.1361 15.2867 -0.463686 0.507739 0.726083
15.944 21.9899 15.1403 -0.0732353 0.989657 -0.123354
11.2764 20.3685 14.1522 -0.961955 0.263888 -0.0707509
14.5255 18.1224 10.5141 -0.169257 -0.0615376 -0.983649
12.8824 22.0737 13.9555 0.992 -0.105352 -0.0695474
13.8322 18.4732 15.4488 0.547043 -0.754101 0.363421
16.4598 23.3319 8.59302 -0.119661 0.198592 -0.97275
16.0129 20.4583 11.6132 0.14149 -0.664825 0.733476
15.9 21.2666 13.6004 0.191625 -0.485867 0.852768
15.0644 18.5986 12.7634 0.369318 -0.343533 0.863475
18.4698 20.9418 9.46696 -0.739493 0.562648 0.369565
17.1222 19.5229 12.2966 -0.522248 0.0952461 -0.847458
19.0565 22.7149 13.7686 0.488487 -0.544682 0.681691
17.1306 18.459 13.5518 -0.0670161 -0.15136 0.986204
18.5608 20.221 11.2982 0.240846 -0.166807 0.956122
19.4333 20.0354 5.85887 -0.175979 0.449597 -0.875725
18.5147 20.3931 14.1083 -0.607966 -0.203569 -0.767422
19.1272 18.2928 12.5148 0.196751 0.505712 -0.839967
19.8007 20.1968 11.0503 0.483324 0.623988 -0.614033
19.4203 17.6107 9.0874 -0.252049 -0.0348294 -0.967087
21.1581 21.4262 13.0564 -0.545697 0.142885 0.825711
21.1599 17.5301 10.1669 0.274662 -0.204667 -0.939506
20.0657 20.0842 7.38117 -0.487251 0.103865 0.867063
9.82753 20.7268 13.056 -0.855927 0.439565 -0.272344
10.3967 22.7102 15.3659 0.408554 -0.907976 -0.0930801
11.627 22.2733 15.8661 0.0210777 -0.0829669 -0.996329
12.806 10.1741 10.1449 0.365903 0.620659 -0.693468
11.954 21.1007 12.4289 0.82841 -0.533874 0.169456
13.4469 10.2168 13.1182 -0.911303 -0.231737 -0.340331
12.7035 21.6884 12.9897 0.966065 -0.253019 -0.0519641
14.1674 23.4227 11.5519 0.949551 -0.103713 0.295966
14.5123 22.7981 10.7618 -0.987944 0.0180299 -0.153758
15.8973 11.4409 13.9934 -0.638036 -0.638362 -0.430586
16.2314 22.2363 11.3661 0.233842 -0.687554 -0.687449
12.9067 22.7758 11.5886 0.672535 -0.606499 -0.424094
15.6075 10.4505 11.5718 0.534232 -0.739931 -0.408778
16.8584 15.7612 17.227 -0.686682 0.566481 -0.455594
17.4732 20.3801 14.466 -0.699901 0.256381 -0.666639
18.9074 10.6032 13.1616 0.209151 0.101373 0.972615
17.2911 22.5859 9.13265 0.166094 0.408601 -0.897473
17.753 21.256 12.7324 -0.762962 0.550123 -0.33949
19.3605 22.6199 15.2369 0.402671 -0.649267 0.64522
19.6088 21.1016 11.6726 -0.477297 -0.408773 0.777876
18.7217 19.2684 10.8937 0.245078 0.121455 -0.961866
20.8267 23.4234 13.8307 -0.778144 0.45564 -0.4323
20.2695 10.7985 12.5698 0.819009 -0.192545 0.54051
9.70245 11.931 11.4005 -0.569507 -0.793188 0.215671
20.2751 19.3381 11.7525 0.612735 0.235149 -0.754494
21.8776 12.6564 13.0708 0.76726 0.508678 -0.390587
9.99337 22.3103 14.2006 0.898636 -0.393435 -0.194069
10.0848 21.8503 11.7389 0.291316 -0.762418 0.577801
10.4813 23.3446 14.4504 0.589636 -0.807669 0.00100559
10.9072 10.9029 16.9701 0.972349 -0.213183 -0.0953481
13.6933 12.1904 14.7242 -0.892797 -0.343613 0.291281
12.0387 12.6088 13.5152 0.683259 0.548318 -0.482187
10.8807 11.234 16.0215 0.948987 -0.2569 -0.182826
11.6871 12.0638 15.7979 -0.989779 0.14259 0.00252156
11.6736 11.3098 14.9784 0.913515 -0.375006 -0.15767
12.2137 13.4841 14.3265 0.8441 0.536178 -0.00265908
14.9375 23.2781 13.4253 -0.560855 -0.124174 -0.818549
13.5596 13.2915 14.728 0.724318 0.526358 0.445321
14.5239 23.2934 15.1118 0.92288 0.359383 0.138335
13.4593 12.2044 16.3551 0.336477 0.418223 -0.843725
13.5565 14.8132 14.7529 0.0397499 -0.644601 0.763486
15.1316 16.3149 16.5207 0.409937 -0.378267 0.829979
17.4905 14.5978 16.0035 -0.678888 -0.097118 -0.72779
14.6312 12.8128 15.8178 -0.167385 -0.335227 0.927149
17.4355 21.4162 13.8639 -0.711705 0.241632 -0.659614
15.5571 12.4669 15.1614 -0.0628913 -0.513588 0.855729
18.0122 21.1696 15.48 0.896127 -0.428694 0.114793
19.189 13.0215 12.688 -0.402402 -0.882922 0.241911
19.9999 22.9917 11.9187 -0.345509 0.716715 -0.605759
9.361 10.6245 13.7668 0.535765 0.790686 -0.296262
16.9383 22.8024 15.712 -0.697212 0.700771 -0.151044
22.2263 11.4526 13.3401 0.522319 0.724527 -0.449714
9.71792 10.2924 12.0477 0.419983 0.810109 -0.409069
21.5363 12.9052 16.0237 0.963111 -0.116934 -0.24237
22.1823 13.8306 15.8285 0.975408 -0.173607 -0.135793
10.9238 23.3424 13.5043 -0.383672 0.921782 -0.055805
10.1028 11.5607 12.5574 -0.0930124 0.958438 -0.269714
9.37458 11.551 15.5114 0.467238 0.861959 -0.196762
22.3585 23.3514 15.1028 -0.605037 -0.787271 0.118888
10.3489 12.093 14.4591 -0.0506462 -0.937729 -0.343657
9.96944 12.8927 13.2288 0.345582 0.834417 -0.429327
9.34079 13.128 14.9085 0.633805 0.77239 -0.0412955
12.8535 11.0537 16.6041 0.00729497 0.156218 -0.987696
13.2738 13.6408 13.5102 -0.55218 0.782336 -0.288181
11.5401 12.8073 12.4948 -0.811043 -0.446741 0.377665
13.5027 14.7351 17.9753 -0.276145 0.437668 -0.855682
17.127 13.2439 17.0943 0.464171 0.237984 0.853176
15.0331 15.3315 9.07081 -0.0395748 -0.238649 -0.970299
13.6972 14.9502 16.3876 -0.348723 -0.897291 0.270669
15.0052 15.0893 17.2355 0.292492 -0.417856 0.860142
15.9601 12.6378 18.517 0.258906 -0.430166 0.864826
18.114 12.9249 12.5785 0.202893 -0.543748 -0.814354
16.5891 12.4014 13.428 0.245767 -0.571001 -0.783299
11.8454 17.043 17.3756 -0.656083 0.648481 -0.38604
20.1232 16.0475 15.6377 0.489493 -0.685494 -0.538975
19.0159 15.5156 15.3704 -0.682708 0.688842 0.243735
20.1537 14.3312 11.458 0.464305 0.846391 -0.260852
19.7302 15.1161 13.1582 -0.489481 0.672512 0.5551
19.8762 14.0472 16.747 0.918551 -0.318937 -0.233544
21.2383 13.2994 14.985 0.718406 -0.27502 -0.638949
20.412 12.3389 15.6059 -0.875901 -0.00983486 0.482391
21.2328 14.9567 16.499 -0.797213 0.592487 -0.115802
22.3919 11.2769 14.5388 -0.551111 -0.830778 0.0780008
21.8955 15.1329 12.6127 0.613478 -0.476661 -0.629634
21.1082 16.7897 15.7399 -0.0917579 0.992082 -0.0857528
21.8937 17.0244 14.2491 0.539822 0.609998 -0.580081
10.5423 13.936 13.6931 0.533833 0.698665 -0.47633
11.6183 15.7865 15.3202 -0.366659 -0.758396 0.538885
9.74895 12.3323 16.5464 0.274312 0.621722 -0.733631
10.4169 13.9751 16.2704 0.961946 -0.236704 -0.136493
13.8152 16.3989 12.6607 -0.160193 0.691069 -0.704813
12.9794 15.9803 15.912 -0.842093 -0.430667 0.324662
12.6514 14.9882 13.8879 -0.377246 -0.53759 0.75411
15.6974 16.9883 17.2116 0.596617 -0.464107 0.654716
14.4149 16.1567 17.4336 -0.13309 -0.92067 0.366952
11.6461 18.6574 13.6298 0.579915 0.248596 -0.775821
14.2048 15.3565 12.1858 0.171146 -0.829463 0.531696
16.097 14.1391 13.4611 0.100417 0.464789 -0.879709
15.9629 16.3191 13.8028 0.422446 -0.229158 0.876941
17.4804 15.4867 15.3996 -0.672641 -0.0411038 -0.738827
18.49 12.9434 14.9757 -0.385573 0.629017 -0.675034
16.93 16.4064 16.0666 0.549136 -0.68736 0.47538
15.8396 15.2582 16.6567 -0.463268 0.191055 -0.865379
17.5898 16.2228 13.0218 -0.431518 -0.367378 -0.823909
21.7263 13.0252 11.7868 0.604315 0.334597 -0.723082
20.667 15.1591 13.7253 0.270955 -0.66104 -0.699721
19.6134 13.1174 15.0267 0.133905 0.125971 0.982955
19.055 17.3828 10.6172 -0.304489 -0.397031 -0.865825
21.777 14.4275 14.9907 -0.648146 0.569537 0.505504
17.0896 19.6511 15.2502 0.874606 -0.347309 0.338291
21.5319 10.6644 15.465 0.172821 0.958914 -0.224983
22.2275 14.951 10.4175 -0.404511 0.740952 0.536061
22.6761 15.438 13.3559 -0.229967 -0.231871 0.945172
9.64467 18.7575 12.9383 0.0990165 0.322188 -0.941483
10.457 18.4674 15.8364 -0.217969 -0.343219 0.913614
20.2363 16.2286 11.5713 -0.15668 0.430391 0.888941
9.98519 15.8162 14.1481 -0.532662 -0.488973 0.69078
21.2273 17.7595 16.5811 0.360086 -0.89876 0.250138
13.9434 17.2795 15.0153 0.382668 0.0914453 -0.919349
22.6492 17.1987 14.8967 0.518924 0.598483 -0.610356
11.6962 18.638 16.1075 -0.126721 0.965175 -0.228864
13.502 16.3166 16.8412 -0.614534 -0.533537 0.581108
12.7088 19.5379 15.7534 0.205412 0.977567 0.0465669
13.3701 18.169 14.5159 -0.832118 -0.0531804 0.552043
14.6137 15.9308 10.9511 0.337122 -0.656926 0.674386
16.5352 17.4635 16.5822 0.466562 -0.706409 0.532266
15.0413 15.9305 12.2972 0.384094 -0.84229 0.378179
17.3632 14.2227 14.6572 -0.664725 0.403583 -0.628698
17.7536 15.1508 14.2429 -0.431133 0.226331 -0.873441
15.5983 18.1004 11.2774 0.0236232 -0.0218001 0.999483
16.3211 15.5584 12.8797 -0.223402 0.215213 -0.950671
17.2217 17.0036 11.7162 -0.282775 -0.0388506 -0.958399
18.824 13.965 16.0951 -0.146739 0.987565 -0.0564178
18.2337 18.3884 16.1535 0.928259 0.135096 -0.346531
20.0025 14.7988 15.9869 0.727468 -0.475275 -0.494878
16.0537 17.8606 8.56252 0.0259403 -0.234538 -0.971761
20.4183 16.8556 14.7777 -0.431159 0.402238 0.807655
16.1104 17.2441 10.7472 -0.0112238 0.0770356 -0.996965
22.3528 16.3761 13.44 0.858347 0.279729 -0.430107
17.0486 17.9536 17.5844 0.292337 -0.784501 0.546898
18.1829 17.5193 15.631 0.983854 0.0529696 -0.170955
21.8835 18.9705 12.3208 0.697113 0.00205536 -0.716958
9.87671 19.6708 13.9177 -0.544371 0.824663 -0.153597
12.7902 22.7671 15.7665 -0.314237 -0.000195317 -0.949345
11.664 18.5066 10.6499 0.683579 0.205617 -0.700315
22.066 17.5155 15.9862 0.367384 -0.866275 0.338521
22.2632 19.0355 15.3389 0.445319 -0.894962 0.0270983
9.65539 19.3661 15.0537 -0.251866 0.85368 0.455844
10.0102 17.4235 15.5545 0.379795 0.56208 -0.734726
13.0441 19.2349 14.0277 -0.968926 0.191432 -0.156643
14.9665 18.5858 15.6308 -0.459229 0.487898 -0.742337
13.5853 18.339 12.7901 0.679814 -0.492367 0.543533
14.9042 16.0269 13.9107 -0.26425 0.428101 -0.864235
15.69 19.3454 15.3211 0.725021 -0.533853 0.435138
14.1613 19.8678 13.7499 -0.788777 0.34822 -0.506531
14.9492 17.2091 10.6038 -0.134553 -0.0635044 -0.988869
14.6583 17.4211 12.6596 0.459805 -0.337233 0.821495
16.012 19.1035 14.1604 -0.759212 0.143397 -0.63485
19.3844 16.427 14.9063 0.414286 -0.370521 -0.831313
14.034 19.3408 12.7976 0.483069 -0.514423 0.708529
17.1932 17.7821 8.59231 -0.258901 -0.104293 -0.960257
19.2033 16.7525 13.6672 0.348646 -0.422883 -0.83643
20.5552 17.3661 8.69701 0.146279 -0.238632 -0.96003
19.8951 19.5505 10.186 -0.0410958 -0.545603 0.837036
17.2064 17.9097 10.811 0.430038 0.0729663 0.899858
22.1506 18.3097 14.4841 0.381264 0.753927 -0.535007
20.1809 15.3705 9.0205 0.605174 0.145289 0.782724
21.3224 18.6208 10.8821 0.235457 -0.248526 -0.939572
21.9529 18.3458 13.2733 0.625506 -0.153606 -0.764949
19.9955 18.8485 14.5362 -0.662525 0.177896 0.727609
21.6036 20.249 14.4356 -0.823736 0.561345 0.0796938
12.605 20.6058 14.8819 0.688944 0.644779 -0.331085
13.945 21.1004 13.8108 0.942547 0.220359 0.251093
14.503 10.5396 14.3608 0.957442 0.216297 0.191105
15.2634 17.4689 15.504 0.580164 -0.47352 0.662713
14.2554 22.0339 14.7321 -0.981176 0.0979538 0.166432
16.6379 20.8727 12.6693 -0.515191 0.631231 -0.579763
16.6277 21.6341 14.4491 -0.307998 0.797922 -0.518129
15.7304 18.3221 14.8437 -0.755744 0.363434 -0.544763
20.2534 20.9874 15.6482 -0.905261 0.22744 0.358851
15.5017 16.3878 15.2424 0.542315 -0.343092 0.76693
17.5681 11.7502 14.7303 -0.0500533 -0.964758 -0.258333
17.5162 11.2208 13.325 0.354881 -0.697694 -0.62232
18.5833 21.9698 14.5476 -0.560773 0.63352 -0.533091
14.4222 19.0025 8.44785 -0.106396 -0.180813 0.977746
20.058 10.2011 15.5835 0.758862 -0.236872 0.606646
19.7813 17.8149 14.2299 -0.638214 0.261294 0.72416
18.4622 18.9708 13.3165 0.475796 0.399853 -0.783413
17.9559 18.5004 15.1527 0.855951 0.155828 -0.493016
20.6111 17.9322 14.83 0.68549 -0.187694 -0.703473
20.3763 20.3562 13.8257 -0.715586 -0.199311 0.669486
20.6559 19.6134 12.8088 -0.499525 -0.107184 0.859643
21.8294 17.2671 12.9986 -0.780607 -0.100685 0.616859
22.1017 20.4528 13.2879 0.572205 -0.608416 -0.54992
20.7052 18.9853 15.3401 -0.77543 -0.0686591 0.62769
9.69809 21.5966 14.8569 -0.919055 0.31845 0.232225
11.4392 21.2013 13.4374 0.878828 -0.129749 0.459158
11.4515 10.3084 14.3106 0.33095 -0.931847 0.148772
13.5458 22.9692 14.0764 0.987108 -0.115055 0.111263
12.5463 10.5961 13.8121 -0.660476 -0.610381 -0.437272
