8.36069 0.781873 1.50005 0.901855 -0.421802 0.0934911
9.18767 1.7549 2.39757 -0.230229 -0.973001 -0.0162347
11.3461 3.68496 7.64159 0.127068 -0.391415 0.911399
10.2939 1.18061 8.87894 0.316108 0.390928 0.864437
11.087 2.86326 3.39339 0.0144878 -0.9994 -0.0314571
0.0670408 1.57437 2.84072 0.542658 0.83167 -0.117675
9.648 3.07335 3.82861 0.471832 -0.677574 0.564153
8.80736 13.6848 4.5686 -0.860744 -0.0424833 -0.507261
12.8456 3.23332 6.90822 0.555656 -0.518239 -0.650134
10.9376 13.3857 5.46708 0.226615 0.546699 -0.806081
13.465 3.88637 7.60251 -0.449148 0.336269 0.827762
1.20937 11.9669 5.33907 0.314584 -0.819474 0.479062
2.93403 1.48537 3.01701 0.870549 0.336203 -0.35932
2.26168 2.82789 3.54422 0.333225 0.923225 -0.191355
1.81733 0.976837 5.30821 -0.126116 0.895847 -0.426091
6.73823 2.25495 3.61732 0.635729 0.729264 0.253028
3.41848 2.54663 4.40369 0.26041 -0.726977 -0.635367
4.24957 12.5006 1.86073 0.334959 0.432265 -0.837227
3.27193 1.00714 7.73062 -0.244007 0.312333 -0.918101
3.53433 13.87 3.44125 -0.767373 -0.532117 -0.357758
3.85496 3.16556 3.46319 0.748173 0.585109 0.312866
4.37862 0.124548 2.67116 0.672428 -0.298905 0.677123
6.30134 1.62517 6.36288 -0.537189 0.509463 0.672216
7.8128 0.382105 2.62733 -0.349973 -0.923502 0.157047
7.19577 13.1109 1.66617 -0.754994 0.137565 -0.641139
6.65749 0.247624 2.3114 -0.180969 -0.905713 0.38332
6.09067 0.282221 3.69358 -0.00222947 0.45052 -0.892763
7.18648 0.375836 6.32223 0.691745 0.584569 -0.423991
10.1771 3.45783 2.88804 0.0563083 0.997305 -0.0470403
10.5761 2.78498 1.58184 -0.921062 -0.388476 0.0270501
10.1827 2.35327 8.54841 -0.662582 -0.670441 -0.333907
12.2205 2.46253 3.36128 0.220797 0.929369 0.29584
11.4646 7.08872 6.19067 0.574493 0.765099 0.290828
11.9066 2.80213 2.40856 0.972151 0.225714 -0.0630566
9.97426 3.29603 5.19743 0.368004 0.925785 0.0865754
11.9964 3.6788 5.00252 0.70636 -0.309448 -0.63663
11.1163 7.84892 13.4997 0.918679 0.255797 0.300994
13.9197 5.80254 1.12979 0.868226 -0.321964 -0.377522
10.3891 3.81476 4.12404 -0.566692 0.703525 -0.428852
0.927023 1.92831 6.78971 0.882996 0.355466 0.306532
12.998 5.46484 0.552357 -0.402912 0.891189 -0.208435
2.33112 2.61003 4.67109 0.286708 -0.88427 0.368598
12.7588 4.26507 2.89453 -0.718569 -0.693707 0.0492899
2.47376 2.87143 8.10232 -0.874927 -0.36654 0.316465
5.3003 3.81324 1.90399 0.548782 -0.809847 0.207331
5.57709 4.59779 2.65988 -0.731256 0.646643 -0.217068
3.56306 4.44065 4.76344 -0.18071 0.62022 -0.763329
5.24398 1.87277 2.85421 -0.913385 0.196646 0.356453
4.74896 2.73855 2.03048 -0.19181 -0.155601 -0.969019
4.39857 3.9285 2.64395 -0.882182 0.274846 -0.38238
4.55423 4.21934 4.67973 -0.0685377 0.910624 -0.407513
7.94408 0.871024 3.71343 -0.250114 0.93268 0.259905
5.34496 2.80456 4.81644 0.124447 -0.479397 0.86873
7.1946 1.40417 4.78075 0.574766 0.246445 0.780326
10.3242 3.87444 8.09774 -0.571171 -0.0336598 -0.820141
10.4924 3.18752 7.0669 -0.367169 0.529948 -0.764423
10.9893 6.93881 7.19861 0.300873 0.926447 -0.226211
10.2601 4.76047 7.10915 -0.285702 0.365079 0.886054
9.6633 7.36112 5.62266 -0.512676 -0.0238007 0.858252
9.42602 5.64788 3.85017 -0.772665 -0.217178 -0.596509
11.1114 8.9468 0.645484 0.823571 -0.543437 -0.162501
12.6967 7.72015 1.90923 -0.619507 0.71023 0.334343
11.4275 7.03793 3.45533 0.68725 0.312565 0.655737
10.9255 5.64294 3.86704 -0.239753 -0.913791 -0.327878
12.8662 7.28961 13.5587 -0.43618 -0.839403 -0.324269
13.9176 7.11243 13.5468 -0.136233 -0.400462 -0.906129
12.8648 5.96692 4.44187 0.0716577 0.0221401 -0.997184
13.4873 3.40157 3.2512 0.317726 -0.669404 -0.671527
11.9057 7.23667 2.54683 -0.74258 0.613207 -0.269355
0.371854 5.9382 3.2681 -0.852146 -0.467509 0.235123
13.4862 2.18581 4.60397 -0.319589 0.341732 -0.883788
0.157739 5.80795 2.23431 0.952573 -0.229274 -0.200093
2.55693 4.26197 4.77093 -0.158111 0.0827051 -0.983952
4.6018 5.98343 3.06587 0.81383 0.275174 -0.511819
3.54844 8.82164 2.30952 0.877427 0.360304 0.316708
5.77125 4.17124 4.21126 -0.383681 0.88443 0.265654
7.32414 2.61617 4.76278 0.890977 -0.449478 0.0642613
3.55867 5.94187 4.50971 -0.564656 0.680944 -0.466345
6.0381 5.88075 8.75224 0.409914 -0.63277 0.656942
6.51665 4.94729 4.1655 0.126791 -0.309133 -0.942529
7.06561 3.96126 4.02825 0.445751 0.11018 -0.88835
7.50119 3.29395 5.49633 0.989065 -0.0569002 -0.136062
9.47644 6.5031 3.24437 -0.944872 0.327083 0.0153108
7.39086 6.97419 4.0743 -0.973628 -0.161658 0.160982
7.60344 4.93202 3.8103 -0.0511813 -0.305675 0.950759
7.29428 5.75621 4.4353 -0.672377 0.236699 -0.701343
7.45763 6.23829 3.25849 0.782229 -0.239602 0.575072
11.3367 7.19724 5.07937 -0.719172 -0.689028 -0.0896159
8.87713 8.82805 2.75537 0.842294 0.210492 0.496219
12.2106 6.95624 1.23421 -0.19277 -0.596528 0.779098
12.5439 10.1389 2.27325 0.544568 0.824401 -0.154299
12.4663 5.44107 2.36996 0.117424 -0.221177 0.968139
12.1263 8.05857 3.38104 -0.863069 0.27922 -0.42089
13.7461 6.24618 0.180209 0.490463 -0.753029 -0.438627
13.7026 10.2665 3.22644 -0.352999 0.846582 -0.398359
0.188471 4.59576 3.75202 -0.0863153 0.819608 0.566386
0.225444 7.86867 3.21302 -0.403456 -0.263079 0.876363
13.4409 6.9127 3.41672 0.187267 0.0177028 -0.98215
13.2502 9.24448 4.75564 -0.898046 -0.224364 0.378385
4.22465 7.98123 8.78239 0.416466 -0.679191 0.604364
13.8995 8.4161 1.79602 0.301154 0.623037 0.721894
5.90931 10.7494 0.429948 -0.762795 0.233821 -0.602886
1.09905 6.51023 1.59044 0.986352 -0.107941 -0.124329
5.54357 6.23883 4.96855 0.399774 -0.427958 -0.810576
8.88626 8.52854 5.94374 0.736013 -0.38724 0.555274
7.75566 4.69 6.15181 -0.756674 -0.473108 -0.451236
3.2178 7.90093 3.70059 -0.506711 0.859681 -0.0647583
3.96514 8.3458 4.32388 -0.526851 0.723854 0.445491
9.13554 3.87818 4.59867 -0.329205 -0.94421 0.00954296
8.41667 4.20298 3.96204 0.652605 0.498451 -0.57066
9.84115 6.86558 7.07149 -0.494543 -0.669912 0.553756
9.27949 7.75376 4.19232 -0.287127 0.0388024 0.957106
8.40586 4.53983 5.13223 0.0795241 0.656027 -0.750536
9.66941 10.2333 7.24614 0.261874 0.633751 0.727861
7.97749 9.28379 6.36157 0.823398 0.512614 -0.243398
11.4285 9.93051 7.60371 0.343706 -0.637423 0.689608
10.4342 9.47453 4.86651 0.2995 -0.028403 0.953673
13.6892 9.95781 2.14602 0.498599 0.865977 0.0385108
11.3772 9.04763 7.07027 -0.320998 -0.661867 0.677416
12.9512 8.02751 7.92484 -0.265708 0.831715 0.487493
10.4128 10.6639 9.7043 -0.970449 0.050732 0.235912
0.730545 10.4969 3.07932 -0.225599 0.913044 -0.339788
1.07675 9.62411 4.71602 0.41071 0.45757 -0.788636
13.9389 7.82494 7.09909 -0.16462 0.733884 0.659025
0.219963 10.4428 7.45005 0.994945 -0.0636351 -0.0776904
13.2959 8.77067 5.73554 -0.729694 -0.679861 0.0730432
1.59303 9.7981 5.7884 0.395386 0.824708 -0.404384
1.32286 9.28308 7.16796 0.521623 -0.662931 0.537059
1.36629 7.87595 3.27365 0.0922145 0.775415 -0.624682
0.757961 6.53376 0.507121 -0.748729 0.453126 0.48382
4.76536 7.75346 6.15359 -0.0740741 0.556226 0.827723
6.40269 5.75936 7.25705 0.324065 0.522175 -0.78887
4.14125 7.66872 3.00616 0.140766 0.965379 0.219607
2.91075 6.07895 3.15892 0.234542 0.964741 -0.119435
4.20799 10.2015 6.1694 -0.601329 0.20501 -0.772253
6.44687 9.02789 5.55756 0.073077 -0.969566 0.233669
3.36356 10.2073 6.75168 0.434343 0.741938 0.510759
5.82656 8.55389 7.71992 -0.109478 0.142351 -0.983743
8.12294 10.337 3.92714 -0.678435 -0.734658 -0.00160846
7.42969 7.62685 5.88182 -0.0089144 -0.978278 0.207104
8.41921 11.1447 6.13499 -0.26644 -0.878625 -0.396268
9.37197 9.21136 5.00235 -0.309338 -0.548164 -0.777063
11.466 10.1539 5.28833 -0.232366 0.900701 -0.367075
9.55211 11.7334 5.93423 0.622173 0.455734 0.636559
6.74559 11.1483 5.01404 0.398394 0.0241633 0.916896
10.7316 8.64911 6.3535 -0.929104 0.255767 0.267112
12.3133 0.103226 7.32198 0.539605 -0.30522 0.784645
10.9815 8.24848 5.29478 -0.391207 -0.795216 0.463237
9.93608 11.5826 4.8981 -0.85589 0.101597 -0.50708
12.3718 12.218 6.83195 0.848941 0.122451 -0.514106
13.0511 13.5684 9.74867 -0.265468 0.464514 -0.84484
2.21715 12.801 8.44851 -0.460002 -0.633489 0.622165
12.9069 11.8469 4.70445 0.903126 -0.421577 0.0814601
13.9814 11.4355 5.65784 -0.122143 -0.992356 -0.0176432
0.569069 11.3888 7.74495 0.658213 0.172879 -0.732713
2.16312 9.33961 4.99832 -0.720199 -0.684293 0.114264
0.996417 11.6177 3.87011 -0.314922 -0.130363 0.940122
2.73743 8.30846 5.70626 0.0215534 -0.198353 0.979894
3.50543 1.73696 5.73969 -0.0676632 -0.198467 -0.977769
3.6128 7.62748 5.63267 -0.672351 -0.56265 0.481009
0.518236 10.5253 4.7955 -0.297853 0.271227 -0.91527
4.74742 10.4502 5.24538 0.500962 -0.834028 0.231157
4.825 13.1365 5.29216 -0.598818 0.546678 -0.585286
5.69363 9.92725 6.28935 -0.584757 0.781627 -0.21707
5.41499 0.582559 6.39975 -0.880675 0.110174 0.46073
8.34763 9.54537 4.67598 0.350003 0.821305 0.450506
7.0579 12.0654 6.72925 0.020754 -0.964709 0.2625
7.76435 10.0199 7.09273 0.0539938 -0.881938 0.468263
8.49537 12.6717 4.03564 -0.436919 0.328504 -0.837369
6.05447 12.9197 4.6409 0.922363 0.386224 0.00876937
9.78986 13.7492 8.0446 -0.926977 -0.194668 -0.320652
11.0855 1.93432 4.36871 0.796029 0.604908 0.0205688
10.2981 0.438241 4.66554 0.560421 -0.00824782 -0.828167
10.4804 11.9701 3.98966 -0.922457 0.198596 -0.331108
10.9363 1.76682 5.76339 0.263082 -0.713585 0.649296
11.5872 1.57315 10.1004 -0.417053 0.0711427 0.906093
12.5883 12.8116 5.68656 0.924073 0.251084 -0.288177
12.3146 10.9885 4.78266 0.312276 -0.248672 0.916867
12.9982 0.479703 5.45211 0.243523 0.676548 -0.694968
0.377929 13.4967 6.79649 0.584998 0.543586 0.601907
3.84763 2.78011 5.80978 -0.979542 -0.112897 -0.166588
13.2354 10.9032 4.1398 -0.343796 0.665116 -0.662892
2.37627 13.0542 6.0593 -0.397453 -0.291089 -0.870229
3.55941 0.343169 6.89415 0.220402 0.467164 -0.85626
2.93993 0.291451 5.76563 0.252712 -0.965002 -0.0700571
4.12388 0.850919 4.67649 -0.230693 -0.724875 0.649105
3.48779 2.01883 8.08689 0.759659 -0.0863763 0.64456
4.45413 12.6057 6.38139 -0.589304 0.0516901 -0.806256
3.71053 12.6122 4.31289 0.625611 0.726053 -0.285407
1.83382 12.6511 3.60448 -0.999759 -0.0219053 -0.0012403
5.1642 0.411791 4.50191 0.0487959 0.97245 0.227947
5.4057 13.8503 7.32306 0.742357 0.619068 -0.256243
4.81222 1.04326 3.38576 0.869779 0.0515701 0.490739
6.55168 13.2681 5.7229 0.340554 0.850082 -0.401726
8.55169 1.30011 10.6309 0.12473 0.167095 -0.978019
7.82905 13.1962 9.72539 0.127549 0.284275 -0.950221
6.99907 11.2535 2.25049 0.453112 -0.587954 -0.670074
8.12485 0.194072 5.24882 0.787333 0.195508 0.584708
7.82625 2.36386 10.5952 -0.312822 0.315634 0.895833
10.9098 0.444882 5.70664 0.294421 0.572591 -0.765151
12.0911 0.330519 3.04596 -0.752301 -0.602668 0.266146
8.80594 1.78826 5.58775 -0.329466 0.862304 0.384558
9.9705 1.49637 7.35084 0.744175 0.259976 0.615318
12.7044 2.24103 5.98834 -0.548359 0.830726 0.0959017
0.221239 0.40239 5.53656 0.608633 0.5321 -0.588587
11.8761 13.7061 5.98523 -0.00753948 -0.560145 0.82836
13.6581 2.62796 8.74642 0.434105 0.196946 -0.879071
1.6189 13.3753 7.07192 0.154097 0.404367 0.901522
1.37079 1.16331 6.18629 0.886451 -0.189512 0.422245
2.60092 0.9609 4.45975 0.145746 0.873576 -0.464353
2.47717 1.45065 8.25537 0.524544 -0.0204087 0.851139
2.68402 3.42474 9.38926 0.506669 0.191573 -0.840587
3.73371 3.1554 6.81863 0.310874 -0.757478 0.574094
5.7267 2.60033 3.43448 -0.485413 -0.57128 0.661826
3.07961 2.47084 9.07019 -0.92976 -0.362343 0.0652264
5.29103 12.1804 8.43024 0.88134 0.400375 -0.250876
3.14245 4.05282 10.168 -0.464838 -0.144299 0.873558
5.9165 1.0293 5.28072 0.6604 -0.527059 -0.534865
5.44864 3.21424 8.38386 0.380651 -0.273727 -0.883277
5.0945 0.272272 5.5084 -0.603204 0.784355 0.144683
8.6236 2.01338 3.4635 -0.031913 0.94756 0.317981
7.06775 0.772192 3.2597 -0.0718946 0.814933 -0.575079
9.15013 3.80506 8.61738 0.451697 -0.830898 0.324929
7.75873 0.44 10.2397 -0.316493 0.782067 -0.536846
6.48914 12.232 1.83108 0.352152 0.5119 0.783548
7.68767 13.9953 1.48896 0.918911 -0.31791 0.23353
9.43953 2.95336 6.8611 0.22951 0.0184825 0.973131
9.98318 4.36899 9.49252 -0.879987 0.338052 -0.333683
11.9401 6.21664 5.69165 -0.599367 -0.389781 -0.699164
12.8062 13.7072 3.49062 0.790692 0.593172 0.151502
12.0934 4.60712 7.00137 0.337355 0.0360222 0.940688
13.3409 5.09087 7.33167 -0.310845 -0.790248 -0.528095
13.2428 5.02114 5.10353 0.0680315 -0.142264 -0.987488
0.0152782 0.787637 7.57451 -0.0393835 0.988363 -0.146925
14.0458 4.50204 5.55507 0.53409 0.493798 -0.68623
0.816356 2.96139 6.57769 -0.886339 -0.386634 0.254789
0.270983 3.10074 3.84338 0.784921 -0.207362 -0.583866
1.1804 2.23371 5.80138 0.990539 -0.112619 -0.0784182
0.871564 3.9027 4.23836 -0.740317 -0.0748246 0.668081
1.55896 2.47052 10.5815 0.811766 -0.195894 -0.550146
2.78712 5.35675 4.82386 -0.420199 0.340723 -0.841035
4.87241 2.68077 6.92722 -0.112063 -0.912084 -0.394391
3.79551 3.39668 10.993 0.455655 0.713724 -0.531956
3.43144 3.0486 10.1012 0.71254 0.39055 -0.582887
4.22594 4.58479 3.42195 -0.986898 -0.110535 -0.117532
6.26786 3.37383 6.49121 -0.630181 -0.769352 -0.104737
5.79932 4.16538 8.07514 0.0356288 0.0715361 0.996801
5.15276 3.77908 5.9168 0.680151 -0.150214 -0.717517
6.07594 5.50151 3.00977 0.868152 0.0269618 -0.495566
9.11775 0.696677 4.11582 0.803745 -0.211919 -0.555954
10.3273 2.85478 11.7002 -0.828762 0.457486 -0.322275
7.63039 0.600804 8.69798 0.426504 0.863249 0.269993
8.19229 2.5554 7.19778 0.681566 -0.469221 -0.561515
10.6545 7.41546 9.016 -0.461297 0.784779 -0.413917
7.74228 7.78795 7.05653 0.422269 -0.837192 -0.34756
11.3158 4.75841 7.97394 -0.320544 0.586902 -0.743504
11.1236 7.94936 4.02864 -0.758652 -0.384438 -0.525979
9.66605 6.14677 5.42629 -0.566292 -0.384525 -0.729008
10.066 5.39281 6.0562 -0.0463065 -0.388457 -0.920303
13.5832 6.58053 5.47436 -0.2582 0.336296 0.90567
11.6481 5.73317 3.09111 -0.579505 -0.719592 -0.382571
11.17 4.48325 4.46117 0.477608 -0.779721 -0.404877
0.0778495 4.64345 7.7204 -0.162845 0.226982 0.960188
13.5478 3.03081 5.37609 0.921862 0.227658 0.313595
13.2645 3.91702 2.06053 -0.83819 -0.305974 -0.451462
0.544556 3.48177 2.24854 0.65699 0.539396 0.526703
1.07462 4.81984 6.54352 -0.123779 0.400029 -0.908105
2.1416 5.35564 6.54816 -0.763603 0.639482 0.089288
0.904751 2.26257 4.51528 0.551615 0.671518 -0.494758
1.0373 5.97787 4.40099 -0.608534 0.108532 0.78607
3.71318 6.44811 7.30703 -0.283148 -0.552481 0.783959
6.86031 5.27366 6.03536 -0.691168 -0.628782 0.356258
5.11724 5.06259 8.22165 0.110381 0.508952 0.853688
4.36943 6.58422 4.45396 -0.582291 0.782333 0.221118
4.89199 4.90353 6.31219 0.787838 0.00954428 0.615808
6.14096 6.04137 5.80618 0.573573 0.294477 -0.764394
7.92015 7.39685 4.96988 0.459012 0.87367 -0.161271
8.86167 4.05913 7.2043 -0.335719 -0.78607 -0.519024
7.31944 5.26652 7.0033 0.593161 0.731873 -0.335443
8.09287 5.32522 9.42377 -0.846437 0.323765 -0.422754
9.31676 6.65704 4.31578 -0.953799 -0.209696 0.215164
8.45223 6.89593 5.72383 -0.101935 0.900098 0.423594
10.3583 8.30106 10.1179 -0.288738 -0.374354 0.881186
10.2836 7.04879 7.98382 0.0520786 0.960462 -0.273495
11.8431 9.37448 9.32194 0.421933 0.90219 0.0895882
12.4953 7.00299 5.06601 0.481444 0.467787 0.741207
11.9853 10.6238 8.07837 0.59782 -0.751537 0.278932
11.825 5.04437 3.84571 0.165584 0.721964 0.671826
12.6438 9.14109 1.32715 0.405616 0.908808 0.0976954
12.2673 4.7958 5.02104 0.121418 -0.513602 -0.849394
1.93614 7.31491 5.84552 -0.0270992 0.680728 -0.732035
2.55495 6.82928 5.18299 0.427229 0.788076 -0.443183
13.998 8.04018 5.88842 -0.430926 -0.609114 -0.665795
1.09744 4.99157 3.19571 -0.865154 0.00328727 -0.501495
0.451279 9.32159 7.92867 -0.424185 -0.149532 -0.893145
3.92367 7.36252 7.95193 0.0780318 -0.800059 0.594824
2.03597 5.89459 2.46852 0.208794 0.975549 -0.0686287
2.30611 7.5193 3.09863 -0.147439 -0.933767 0.326101
5.35823 5.08594 5.38107 -0.702475 0.689346 -0.177004
4.53961 5.74245 7.49978 0.225203 0.862798 0.452618
6.94257 7.73224 4.77196 0.342101 0.619602 -0.706442
4.19645 6.28764 5.91053 -0.606591 0.291316 -0.739718
5.44619 7.69866 3.08611 -0.473632 0.629624 0.61583
6.86265 2.6118 7.19691 -0.266715 0.918104 0.293169
2.84146 10.5607 4.14002 0.635153 0.714439 0.293527
6.82785 7.36253 6.81808 -0.475536 0.82995 -0.291631
7.59916 3.02241 6.47143 0.120154 0.948836 0.292017
7.64763 7.16986 7.88725 0.833126 -0.552387 -0.0277399
11.4257 6.6592 8.10411 0.266462 -0.939328 -0.21601
10.2541 9.21462 10.7099 -0.0372732 0.478552 -0.877268
8.15337 11.5732 7.3393 -0.116078 0.959665 -0.256065
11.2006 8.78604 10.5803 0.105403 0.796944 -0.594786
10.1382 10.5083 5.42798 -0.765369 0.127075 -0.630922
10.5182 9.4913 7.36096 0.169322 -0.26984 0.947901
8.21567 11.5516 8.74718 0.586672 -0.297267 0.753291
12.2798 11.7811 8.01209 0.470594 -0.646839 -0.600117
13.0754 8.45217 6.84675 -0.224298 -0.960723 -0.163409
1.29876 6.6537 5.37315 -0.492783 -0.0892646 0.865562
13.6094 9.26983 10.4521 0.233069 0.53729 0.810554
0.868586 8.78455 12.9882 -0.781692 -0.288826 0.552754
1.94387 13.0852 9.49642 0.351844 -0.742964 0.569394
0.667102 8.27949 7.83708 0.298934 0.0493199 -0.952998
0.128553 11.3268 10.1638 0.406288 0.909877 0.083988
1.99341 8.91229 9.29935 0.946355 0.151349 0.285493
2.07348 9.99878 6.70651 0.201173 -0.979536 0.00623125
3.80496 9.74965 7.5756 -0.304334 0.750976 0.586016
2.95024 13.5936 9.17419 0.125298 0.990003 0.0647643
5.91215 11.1235 9.37184 -0.473217 -0.678579 0.561779
3.65751 8.6993 6.06163 -0.157409 0.806718 -0.569586
6.93664 7.05102 10.0668 0.679147 -0.69088 -0.247878
3.19616 11.251 9.17556 -0.156058 -0.902181 0.402139
8.08918 7.43054 10.0281 0.418265 -0.113596 0.901194
7.33047 9.42291 8.43739 -0.320221 0.524725 -0.788747
7.01801 10.1884 9.00996 -0.657284 0.231053 -0.717351
9.11786 7.84606 9.58416 0.860584 -0.399851 0.315459
8.84422 8.99943 8.50248 -0.64004 0.652391 -0.405875
7.52086 11.6679 9.48998 -0.549499 -0.458851 -0.698217
8.69806 9.15588 7.17819 -0.135842 -0.938827 -0.316466
9.88968 12.743 10.0216 0.233014 -0.967544 0.0977919
12.2074 7.21904 7.39127 0.129458 -0.989917 0.057492
11.567 13.6868 7.81565 -0.464679 -0.216421 -0.858624
11.4448 11.3074 6.35073 0.486166 -0.792237 -0.368787
11.0325 12.8349 9.71628 -0.338453 0.749067 0.569515
1.09748 11.9654 8.44511 0.514803 0.524426 -0.6782
11.5387 0.441541 9.28358 0.940218 0.2144 0.264618
0.924498 12.7098 9.19847 -0.317208 0.571188 -0.757049
13.3071 13.8593 12.643 0.5975 -0.726861 0.338626
13.2468 12.0399 9.93181 -0.579134 0.355871 0.733457
0.819717 12.4427 6.9462 -0.111347 -0.622566 -0.774605
1.39941 11.0838 9.99222 -0.810303 -0.360844 -0.461737
1.52363 12.8024 10.5581 0.510613 -0.754091 0.413064
0.746315 12.8828 11.252 -0.827698 -0.183871 -0.530196
1.1688 11.593 11.2649 0.395144 0.681724 0.615722
2.75716 9.63611 7.48633 -0.328216 0.883118 0.335226
2.2324 11.3118 8.83477 0.0789291 0.600101 -0.796021
4.41122 9.39478 8.39261 -0.458072 0.689958 0.560471
3.98533 11.5093 6.27822 0.419526 0.0891777 0.903352
5.84909 10.0735 7.3463 -0.611425 0.778263 -0.143062
3.37089 9.73662 10.9421 -0.0627544 0.052018 0.996672
6.68713 9.29715 9.49038 -0.363225 -0.0909503 -0.927252
5.02811 11.7899 6.01147 0.304345 -0.172811 0.936755
6.71436 10.2804 6.3674 -0.521996 0.679875 0.515063
8.4258 9.25285 10.8334 0.655055 0.121352 0.745772
9.50292 9.72893 9.10571 0.621208 -0.717317 -0.315526
7.52886 12.7407 8.30427 -0.857017 -0.165465 0.487999
9.18897 13.5602 8.91423 -0.549118 -0.787969 -0.278522
10.5088 0.674566 10.2626 -0.923763 0.0273874 -0.381984
12.833 13.0224 7.4547 -0.31236 -0.186757 0.931425
10.1132 12.9826 8.80894 -0.260312 -0.749473 -0.60871
11.0499 13.0129 8.36339 0.270384 0.524588 0.807279
11.4068 12.2607 12.8645 0.996587 0.0808276 0.016777
11.5127 0.116944 11.4134 0.166668 0.772067 0.613298
13.0567 0.53606 6.78686 -0.529642 0.787096 -0.316164
13.7416 9.90354 8.29926 -0.577387 -0.67403 -0.460769
12.3842 0.103105 10.4155 -0.930468 -0.16627 -0.32647
0.172181 13.3918 11.9445 0.533889 0.83168 0.152549
2.18905 12.0051 6.09309 0.404803 -0.401009 -0.821782
13.7138 13.074 8.9021 -0.214481 0.369876 -0.903986
1.87729 0.953588 11.7797 -0.926365 -0.245058 -0.285999
3.83032 12.9048 11.3559 0.206866 -0.972935 0.102975
2.46143 0.275866 7.48048 0.0868288 0.223302 0.970874
4.50613 13.4748 9.90841 0.354308 0.772124 -0.527532
2.53112 1.69178 11.1138 0.932064 -0.223023 -0.285512
3.15258 12.6475 10.581 -0.28213 -0.789937 0.544428
3.06777 12.3197 6.8055 -0.134587 0.0300445 0.990446
5.07951 13.5566 6.33569 0.859214 -0.436742 0.266472
3.67072 13.1623 7.26835 0.0857703 0.22899 -0.969643
8.1817 10.1121 11.4001 -0.846059 -0.532799 0.0175932
5.2368 0.565615 7.94877 -0.0667523 -0.641732 0.764019
6.85618 0.351962 7.64719 0.68442 0.522827 -0.508155
6.6841 0.0779494 10.4119 -0.177398 -0.375366 0.909742
9.49857 13.0859 6.95158 -0.989825 0.106614 -0.0942323
8.9363 0.701692 8.64985 0.473303 0.798587 0.371812
8.70463 13.7484 9.99289 0.127559 -0.879318 0.458834
8.24302 3.26264 8.83676 -0.0604243 0.268485 -0.961387
10.0722 1.23346 5.82925 -0.108924 0.450173 -0.886273
11.9257 1.67662 5.58042 0.204429 -0.910734 0.358849
12.3023 1.12671 7.49187 0.90045 -0.128971 0.4154
11.161 2.45061 9.54264 0.0178554 0.69161 0.722051
12.9122 13.3339 11.5139 -0.0152786 0.997821 0.064182
10.4581 2.11323 6.63151 -0.742563 0.139218 -0.655148
12.5443 2.15964 7.12154 -0.816543 0.549256 0.177695
12.2156 2.69999 12.1581 0.659785 -0.129986 -0.740126
0.723851 0.617947 10.2561 -0.625277 0.197889 0.754897
1.03408 1.11175 7.40333 -0.340599 -0.599124 -0.724599
1.01949 13.8327 5.97186 -0.549881 -0.456565 -0.699413
1.72917 0.971702 8.78807 -0.108001 -0.465867 -0.878239
2.40783 0.657993 10.9268 0.69189 -0.323309 0.645569
2.55692 2.84008 6.5793 0.0554718 0.986437 0.154483
4.38197 1.17307 8.00956 -0.216601 0.312852 -0.924774
3.87517 0.842593 12.0608 -0.0284947 -0.0721453 -0.996987
4.14502 0.00811731 8.34189 0.265209 0.0709217 -0.961579
4.46689 2.23789 4.75063 -0.0651696 -0.358506 0.93125
3.77853 11.8752 7.93971 -0.787038 -0.607943 0.104764
4.62176 2.51434 9.81629 0.39862 -0.0510135 -0.915696
5.72014 13.9967 10.0009 -0.125322 0.00162577 0.992115
4.03037 1.68515 9.82056 -0.881142 0.290077 0.373422
8.90701 2.39441 8.91701 0.0155115 -0.22861 0.973394
5.28602 1.8276 10.2836 -0.432778 -0.359212 0.826844
9.67413 12.4277 11.057 0.498944 -0.865656 -0.0411622
8.45928 1.07897 7.65732 -0.532171 -0.839173 0.112171
9.96804 2.31852 9.78751 -0.459658 -0.845667 0.271223
9.69576 5.29863 0.131111 -0.0603043 0.998085 -0.0137595
10.1622 3.30427 10.5115 -0.574789 0.770499 -0.275587
12.1635 3.42983 10.4254 -0.448319 0.0686054 -0.891237
11.329 2.63855 6.23462 -0.506518 0.803291 -0.31331
9.74545 3.84996 12.3299 0.912966 0.306263 0.269621
11.1289 0.645092 7.84491 0.643502 0.557724 0.52426
12.8747 3.95496 5.51459 0.548484 0.0988129 -0.830302
13.7312 1.74404 10.3551 0.391798 0.68708 -0.611895
12.9575 4.94992 9.54375 -0.800415 0.547498 0.244095
13.8183 3.58286 11.1994 0.348336 -0.796846 -0.493658
1.63304 3.25056 5.32695 -0.927682 -0.126305 -0.351359
1.14904 2.80302 7.60767 -0.664524 -0.690126 0.28659
0.326183 3.70278 8.01829 0.508531 0.0248409 -0.860685
4.32592 1.74664 12.0071 0.532446 -0.361394 0.765439
2.8449 6.11091 6.66174 -0.292991 0.165271 0.941723
4.50603 2.89687 8.11134 0.529732 -0.774233 -0.346333
1.88324 4.8681 5.66201 -0.0648911 0.723948 -0.686796
6.39343 3.08745 10.4516 -0.719046 -0.120188 -0.68449
4.58283 4.38648 9.06305 -0.336385 0.406458 0.849492
6.45693 2.4612 11.5739 -0.302999 -0.451316 -0.839348
5.65328 3.91943 10.5035 0.836665 0.53731 -0.106253
6.17724 1.78865 7.89466 -0.338696 0.613804 0.713113
8.31879 4.2136 9.28394 0.544496 -0.250191 0.80058
6.99738 1.49155 8.49001 0.566259 0.0102515 -0.824164
7.23327 3.65238 9.05011 0.109373 -0.169325 0.979473
7.68127 2.38442 8.88243 -0.446371 0.249626 0.859325
7.59877 4.55805 10.0171 0.802253 0.145801 0.578906
9.32523 2.70352 10.5512 0.244893 -0.576973 0.779185
9.10359 6.70756 10.2042 0.63729 0.414815 0.649454
12.4083 3.88218 12.196 0.330538 0.40653 -0.85175
9.7946 6.56394 9.19861 0.578373 0.116386 0.807427
11.5511 5.46762 8.86504 -0.747969 0.663673 0.00898594
13.2092 5.59938 8.66506 0.707849 0.205264 0.675882
11.977 4.4517 9.88009 0.783873 -0.177022 0.595153
0.437908 7.01329 4.61286 -0.0151455 0.161485 0.986759
13.1029 5.9575 6.76849 0.898486 0.438562 -0.0196713
12.922 6.35677 9.80101 0.562432 0.321744 -0.761676
13.9685 4.09111 10.2711 0.117883 -0.765539 -0.632497
2.14095 4.73541 9.19017 0.566829 0.0831601 0.819627
1.09922 4.18849 5.4715 -0.418206 -0.316981 0.85125
2.20554 5.15438 7.81404 -0.067199 -0.756182 -0.650901
3.19155 6.33943 11.0468 -0.897693 0.120995 0.423683
2.93761 7.04992 7.78468 0.124418 0.392461 -0.911315
2.94709 4.13737 7.71489 0.648824 0.183241 -0.738546
4.2607 6.85869 11.5989 -0.647822 -0.684931 0.333462
4.10869 4.68543 8.04238 0.126634 -0.881432 -0.455018
5.77961 6.83823 6.62453 0.215842 0.606567 -0.765172
7.13635 5.24655 8.17067 -0.473612 -0.757262 0.449718
4.70691 6.31077 9.22458 0.479832 0.671384 -0.564805
5.91832 3.25365 11.354 -0.695552 -0.62127 -0.360875
4.98891 7.55473 7.64992 0.134188 0.500726 0.855142
9.98871 4.95746 10.5594 0.957387 -0.253695 -0.138018
7.126 7.21235 11.733 0.200773 0.302546 -0.931749
9.84578 7.03723 12.3002 0.561231 0.659491 -0.500091
8.55594 5.72735 8.54162 0.806053 -0.590091 0.0455088
8.18809 4.99441 7.50383 -0.420615 -0.905069 0.0627148
8.77132 9.23213 9.73406 -0.618347 0.467476 -0.631754
11.3907 6.56629 10.7107 -0.460516 0.28283 0.841387
10.8009 10.1221 8.67518 0.0526291 -0.705814 0.70644
10.5401 5.95556 10.5737 -0.595225 0.484632 0.640967
11.9065 11.0554 10.1949 0.974954 -0.0629513 -0.213309
12.7283 6.55454 8.44021 0.809422 0.158359 -0.565472
11.9999 7.80595 8.73051 -0.142521 0.745783 -0.650765
0.147862 5.47857 6.34922 -0.205394 0.060156 -0.976829
1.00278 7.49586 6.44425 -0.077505 0.523427 -0.848538
13.0448 3.35497 9.96664 0.288879 -0.701187 0.651833
1.42555 5.83793 7.67778 -0.468111 -0.844532 0.260074
1.07643 3.18766 9.97644 0.45267 -0.522396 -0.722629
1.84971 10.6124 11.0378 0.143369 0.685129 0.714173
4.56083 5.44613 11.7304 -0.42682 0.0499784 -0.902954
2.17388 9.30787 8.3066 -0.84355 0.472729 -0.254853
3.44786 5.29215 7.01566 -0.338753 -0.176935 0.924089
1.46788 10.8826 8.14317 0.457348 0.520763 -0.72086
5.17173 4.80893 10.2196 0.510606 0.0967213 -0.854357
6.09805 8.85345 10.4775 -0.125554 0.508278 0.851991
6.35249 6.92985 7.76566 0.552545 -0.647734 0.524532
5.48625 7.09374 10.7062 0.735784 0.348021 0.58095
7.40444 6.25693 11.3563 0.528616 0.299774 -0.794167
5.48472 8.35592 5.36277 0.174618 -0.302145 0.937132
5.43482 6.92703 3.86353 0.540956 -0.469358 -0.697903
6.24064 7.81638 12.2568 0.836313 0.54595 0.0501939
9.30263 4.45564 6.29964 -0.103363 -0.742797 -0.66149
9.02027 5.77662 6.1529 0.10646 -0.784959 -0.610333
7.44848 10.6873 8.10098 -0.800476 0.357974 -0.480721
9.98661 10.3482 12.6371 0.144941 0.783266 0.604555
11.3765 9.03113 13.397 -0.771384 0.413202 0.483975
9.31444 11.3669 7.12061 0.549381 0.799196 0.243857
11.0193 9.92679 11.0497 0.637958 -0.714994 0.285995
11.8924 12.0864 10.2511 -0.334557 0.0180469 0.942203
13.1653 10.1889 13.6445 0.973035 -0.0774692 0.21726
14.0508 9.29551 9.22296 -0.31149 -0.710875 -0.63058
11.4094 7.78081 10.0953 0.763703 0.476152 -0.435932
0.148521 10.9207 11.6933 0.0108734 -0.526129 -0.850335
13.7882 8.14426 11.9555 0.431872 -0.454588 0.778997
13.1593 9.85852 9.26929 0.437706 0.897996 0.0448947
2.04486 9.09097 10.9411 0.457944 0.420913 -0.78302
2.52451 10.1222 12.3932 -0.182368 -0.866108 0.465402
0.967815 7.15608 13.5917 0.0695725 -0.928725 -0.364182
2.17551 9.96998 9.15738 0.895517 -0.0640189 -0.440399
2.09197 8.15614 12.2866 -0.574851 -0.760229 0.302653
4.21132 10.5893 13.4982 0.680652 -0.659909 0.31817
2.7877 8.35026 10.8204 -0.708037 -0.450046 0.54419
4.11642 10.5437 10.7912 -0.304504 -0.0954945 -0.947712
5.79119 6.87918 9.5551 -0.181402 0.922892 -0.339653
8.5043 10.9272 0.0563294 0.346703 0.731297 0.587369
8.97403 8.24072 11.0265 -0.673985 0.044128 -0.737426
5.67697 9.43973 9.60616 -0.334435 -0.534199 -0.776392
6.75527 7.21022 8.97443 -0.0855918 0.963463 -0.253799
7.19675 8.44729 10.4499 -0.0949976 0.226696 0.969322
6.875 9.69768 12.3837 0.535303 -0.293747 0.791937
5.20124 11.1154 8.10571 -0.988297 -0.0946997 -0.119587
10.182 12.6176 12.0613 0.656352 -0.657471 -0.370046
9.10229 11.8239 10.1722 0.438813 -0.689 0.576821
11.4234 12.1506 13.8817 0.541084 0.799586 0.260557
9.64335 0.981338 10.9158 -0.653443 -0.74125 -0.153494
9.01753 11.5257 8.10737 -0.0260901 -0.986428 0.162108
12.3923 0.261359 13.2119 0.778187 0.232365 0.583465
13.1338 11.2663 11.9901 -0.237476 0.934242 0.266077
12.4845 11.1086 8.84086 0.836489 -0.228125 -0.498243
12.41 10.7401 11.3618 -0.0387969 0.993975 -0.102514
13.6082 10.7856 12.9186 0.548224 -0.822903 -0.149266
1.20841 9.85263 13.2629 -0.455805 -0.499393 0.736782
13.1871 12.0284 8.49982 -0.308825 0.561528 0.767668
0.0151882 12.3394 7.96188 0.177235 -0.105578 0.978489
2.30366 11.0835 13.0262 -0.73846 0.382155 -0.555549
0.706802 13.6179 12.9842 -0.673745 0.627663 0.390008
3.13221 10.8433 11.0084 -0.511294 -0.49768 -0.700638
2.7911 11.1027 6.37063 0.102248 -0.333996 -0.937012
2.03567 13.5708 13.0648 0.56657 -0.51657 -0.641992
4.53151 9.76713 9.85369 0.385697 0.593965 -0.706005
3.77452 11.5455 10.445 -0.907588 -0.180007 -0.379318
4.54273 11.0511 9.67524 -0.536076 -0.0394903 -0.843246
7.12502 12.1445 13.6712 -0.404195 -0.868545 0.286804
5.98993 12.5231 13.7369 -0.38926 -0.58399 0.712343
9.30484 10.0278 10.7322 -0.74812 0.0930736 -0.657003
5.28164 10.1062 8.3082 -0.70316 0.0787619 -0.706656
6.85889 11.2165 10.2074 -0.323967 -0.849518 -0.41637
10.3999 8.2617 0.345252 0.46828 -0.811602 0.349309
10.5891 11.6599 8.60517 0.105045 -0.115828 0.987699
9.616 11.5482 9.02483 -0.209548 0.953643 0.215998
8.70031 13.7382 13.2063 -0.708378 -0.490446 -0.507606
10.5262 12.8208 0.21685 -0.0650943 0.057786 -0.996205
10.6944 12.7752 11.0236 0.194783 -0.753303 -0.628167
10.4424 0.439627 11.3291 -0.485575 -0.755354 -0.440065
10.3447 2.20383 13.6455 -0.475379 -0.418822 0.773694
11.6345 0.881519 13.6025 0.685514 0.6706 0.28349
12.5784 1.28697 10.3842 0.211828 0.433629 -0.87584
12.0801 13.1132 10.005 -0.0449914 0.0234874 -0.998711
13.9565 0.613411 0.76228 0.373591 0.632144 -0.67884
0.749723 12.1253 12.498 -0.503885 0.0173464 -0.863597
0.0853241 0.0220977 8.84117 -0.792622 0.303792 -0.52864
0.629991 13.8731 11.0256 0.987505 0.143938 0.0641542
2.67408 0.0170679 2.16007 -0.561968 -0.479413 -0.674059
0.353633 13.7345 0.420498 0.356562 0.745265 -0.563422
2.57161 12.2122 11.914 0.383563 -0.71444 0.585197
2.51495 13.7963 10.4955 -0.342001 0.414559 -0.843313
3.15031 1.14981 0.397727 -0.298197 0.538446 0.788133
6.35397 12.2821 11.1241 -0.703867 -0.708786 0.046837
4.59575 13.1163 8.77913 -0.816126 -0.0994894 0.569245
6.8274 0.729495 13.5481 -0.146794 -0.658266 0.738334
4.69213 12.4701 13.7465 0.46807 0.0615585 -0.881545
5.31143 10.1678 11.1143 0.123895 0.761503 0.63621
5.16096 0.457038 12.4412 -0.631018 0.0759668 0.77204
6.98202 10.7464 12.3303 0.981391 -0.17653 -0.0755532
6.32217 12.1795 9.90442 0.82891 0.340849 -0.443542
8.58691 13.661 0.237764 -0.361817 -0.833694 -0.417183
9.55209 13.3309 0.145465 -0.0368105 -0.381472 -0.923647
9.27473 11.582 11.7985 -0.639396 -0.0338654 -0.768131
9.03951 3.89737 1.11696 0.959701 -0.0919917 -0.265541
10.8115 1.34705 13.0915 0.696123 0.466465 -0.545731
11.4703 3.24563 11.5263 0.0936412 -0.600895 -0.793824
11.2129 13.0525 12.208 -0.696307 0.498007 0.516862
12.5663 1.59632 11.7799 0.980856 -0.180995 0.071848
11.1795 1.76715 13.9674 0.416514 0.841262 -0.344666
12.5997 1.98445 8.16566 -0.990118 0.126524 0.0604844
0.0670878 0.743044 12.48 0.442038 0.321779 0.837294
0.852642 2.57784 12.1713 0.809744 0.109747 -0.576428
13.7944 2.53259 11.7714 0.388804 -0.784223 -0.483556
0.907352 1.7244 9.97245 0.114218 0.185819 -0.975923
13.9377 0.0608298 9.97128 -0.422075 0.889137 -0.176887
1.75782 4.55087 1.36413 0.533521 -0.84482 0.040429
2.19339 1.39113 0.0953926 0.116319 -0.86863 -0.481614
1.41554 1.69374 12.3354 -0.932771 -0.248542 -0.261086
3.71162 1.85804 12.8753 -0.648135 0.108046 -0.753822
4.15624 0.704342 0.476446 -0.616049 -0.363819 0.698655
2.54178 0.130999 12.2478 0.539987 0.51506 0.665678
6.10409 0.953669 10.5213 0.529091 0.0078981 0.848528
4.27775 12.1083 9.60692 -0.975412 0.173828 0.135482
6.97493 1.74565 10.3278 -0.535092 0.492131 -0.686647
5.67708 12.9592 9.33542 0.591147 0.322746 -0.739175
5.78769 1.05085 8.66776 -0.702772 0.695868 -0.147913
9.44809 0.623361 11.874 0.122275 -0.981198 -0.149333
8.6975 1.96058 12.6955 0.137297 0.990158 0.0271276
4.78219 13.5879 11.2515 -0.0609873 0.93537 0.348371
8.47149 3.21269 10.9975 0.438926 -0.447644 0.779075
8.5762 4.56165 12.6861 -0.255055 -0.966924 -0.00202605
10.6348 5.10391 0.677105 -0.0604301 0.965929 0.251652
9.92137 3.04767 12.9351 0.300083 0.595505 0.745201
10.6379 5.14353 12.5066 -0.921527 -0.350691 -0.166744
12.7954 3.10089 8.19503 0.520219 -0.487678 -0.701101
12.8646 4.78964 12.5498 0.240437 -0.830593 0.5023
0.93444 3.402 12.8941 0.659551 0.365042 -0.657067
11.6573 4.40907 11.3557 -0.272225 -0.49159 -0.827184
13.1342 1.16403 8.85095 -0.786112 -0.5139 -0.343416
3.01563 7.88093 8.36676 -0.437615 0.526578 -0.728841
1.71023 3.9988 10.3279 -0.00106962 -0.0774854 -0.996993
1.03671 3.21803 8.58559 -0.559367 -0.700066 0.443865
0.539084 3.61741 11.8836 -0.646513 0.232883 0.726489
2.38929 4.97054 0.627249 -0.0557735 -0.705965 -0.706047
4.52289 2.5359 12.6866 -0.776137 0.407031 -0.481598
0.652497 0.760842 8.37 0.334759 -0.919261 -0.207111
2.67878 2.95524 12.0751 -0.279654 0.309654 -0.908795
4.10009 5.72008 13.1513 -0.428246 -0.583012 0.690436
3.89047 1.54738 1.20456 -0.324134 -0.387449 0.86303
3.46626 4.22494 11.5858 -0.220988 -0.566777 0.79368
5.51655 2.17422 11.8992 -0.1733 0.89906 0.402067
4.53095 3.51856 11.8302 0.133857 -0.929369 -0.344028
7.63647 2.28254 12.9181 -0.24342 -0.614567 0.750369
6.53372 2.95512 8.69061 -0.504336 0.557787 0.65918
4.60552 0.667506 10.2904 -0.688551 -0.0284003 -0.724631
8.38926 4.34283 11.6247 -0.706419 -0.705088 0.0618309
7.68116 1.79877 11.7964 0.961959 0.272502 -0.0194513
10.0916 5.89724 13.0795 0.598138 0.791383 -0.126267
7.92784 5.96479 1.98718 -0.548633 -0.0614492 -0.833802
7.94912 5.7068 0.348387 -0.945872 0.0285813 -0.323278
9.85524 4.20781 11.293 0.904728 0.0312762 0.424841
13.4918 7.59065 8.7296 0.64574 -0.148507 -0.748976
12.8528 2.59637 13.148 -0.805461 -0.588317 0.0715305
11.0912 5.48487 11.4388 -0.93627 -0.35081 -0.0182078
0.630681 4.29377 0.971696 -0.592531 0.615521 -0.519655
12.3072 6.87543 11.0871 -0.168819 -0.312991 0.934632
12.5618 5.20703 11.0146 0.841284 0.110076 0.529268
0.0620938 6.87065 11.4555 -0.0399409 0.898729 -0.436682
3.55404 3.1404 13.5471 0.820229 -0.552914 0.146667
0.731509 6.31071 9.50743 0.476966 -0.410961 0.776926
0.832517 4.35121 9.46655 -0.0244014 0.027212 0.999332
1.89592 5.02484 10.4879 -0.641949 0.18756 -0.743453
2.4313 5.60854 12.219 -0.547926 0.0374039 -0.83569
3.09807 6.66629 9.9717 -0.502636 0.471064 0.724883
3.45892 5.01914 12.2391 0.355633 -0.439804 0.82468
3.63693 7.94923 12.6527 -0.841022 0.448552 0.302463
4.78436 3.41599 13.1176 -0.867454 0.43367 -0.243832
6.19141 5.01625 13.4236 0.433973 -0.850994 -0.295765
5.47395 4.20107 12.7076 0.828257 -0.512352 -0.226904
5.66501 4.72056 11.2918 0.25633 0.783824 -0.565611
7.88331 6.22869 13.4776 0.782707 -0.620379 -0.0499925
7.51179 5.53374 10.3602 -0.961025 -0.270977 -0.0547905
8.0863 6.54761 12.0895 0.0150548 0.87706 -0.480144
6.33818 6.44347 11.2459 -0.230365 0.263448 0.936764
8.56597 5.99671 11.3576 0.573805 0.817969 0.0409076
9.94693 5.50955 9.5046 0.428307 -0.407853 -0.806355
8.81606 7.31068 8.65428 0.72568 0.561058 -0.398249
9.98844 6.25588 1.65446 -0.46877 0.42537 -0.774155
8.60225 4.8315 1.832 0.232011 0.0784091 -0.969548
12.276 9.36506 10.3806 0.430819 -0.85494 -0.288918
11.2479 5.49903 6.20144 -0.284113 -0.736799 -0.61352
9.06528 7.64803 0.496997 -0.653428 -0.300779 0.694668
13.333 6.65907 10.8229 -0.191233 -0.555315 0.809355
12.3518 8.11978 11.6749 -0.594926 -0.516035 -0.616256
13.1047 7.43661 11.5037 0.00256691 -0.47155 0.881836
1.89315 7.92893 7.06234 0.195586 -0.460224 0.865991
1.34358 6.41292 8.55661 0.0850626 -0.877125 0.472669
4.42779 8.76463 9.39338 0.847745 -0.461507 0.261419
0.459207 6.01246 8.16462 -0.0453244 0.608 -0.792642
2.20103 7.93801 9.0642 -0.529794 0.187322 -0.827181
3.00749 7.01343 12.3255 0.864136 -0.178239 0.470638
3.82279 8.07792 9.81397 0.749613 -0.298107 0.590942
3.56828 7.39833 10.9734 0.437263 -0.41775 -0.796421
1.80814 8.50384 13.6731 0.002193 0.948445 0.316933
7.19818 5.50213 13.1888 -0.654813 0.745203 -0.126065
4.88163 8.76301 11.0164 0.530409 -0.646442 -0.548432
6.15111 6.73864 13.8517 -0.523379 0.474068 -0.70805
5.71405 9.10883 12.6196 -0.634683 0.174581 0.752794
8.79376 8.07557 13.4418 0.766495 -0.123483 -0.630267
5.63159 8.18895 13.1679 0.971789 0.235661 0.00950369
5.2222 6.12732 10.9843 0.0103052 0.387907 0.921641
7.79878 7.45355 13.1728 0.690395 -0.606056 -0.395032
9.36717 6.96235 2.12496 0.859068 0.264551 0.438194
7.73053 6.72109 0.828738 -0.957906 0.141944 0.249537
8.85837 7.02172 13.7287 0.950464 -0.0594624 -0.305095
9.46986 10.9783 0.99429 -0.24922 0.656653 0.711826
8.84957 8.66728 0.590962 0.389186 0.257075 -0.88456
9.60557 9.06927 7.74249 -0.0640371 0.878471 0.473484
11.6658 10.96 0.332345 0.0231464 0.0253389 0.999411
10.6083 11.1009 12.2045 0.657042 0.292234 0.694907
11.5083 10.5093 11.8728 -0.351422 0.700442 -0.621196
13.3629 11.1314 10.9061 -0.233244 -0.95353 -0.190732
0.554579 8.58338 10.0687 -0.827561 -0.559478 0.0461257
0.127305 11.9326 1.33753 -0.223478 -0.344416 0.911831
2.83463 10.0742 2.90967 0.103502 -0.993786 0.0409516
0.768859 10.8401 12.9639 -0.325486 -0.0608422 0.943587
1.26082 7.86239 9.50968 -0.520105 -0.403332 -0.752871
2.03896 9.87726 0.934968 -0.530931 -0.83717 -0.131374
2.12437 8.12639 0.749362 0.521952 -0.0817862 -0.849045
1.21317 9.8823 11.8386 0.96455 -0.184629 -0.18856
2.71709 7.36733 1.68414 -0.511494 -0.387311 -0.767049
4.0871 11.4235 1.18839 0.742931 0.623059 -0.244646
4.2732 6.63082 1.43087 0.111829 0.644981 -0.755972
6.12627 11.6411 13.101 -0.93293 -0.0134103 0.359808
8.08391 11.6244 13.4641 -0.744771 -0.601345 -0.289312
4.89312 10.8252 0.9266 -0.763363 -0.374739 -0.526162
5.16049 8.54555 0.130454 -0.801686 -0.418695 0.426608
5.3752 8.33596 11.7807 -0.823107 0.108294 0.557466
8.32693 8.10743 12.5041 0.662675 -0.528199 -0.530911
8.77254 9.03615 12.9235 0.593939 -0.142157 -0.791851
8.07436 9.11164 11.9968 0.0847951 0.755294 0.649877
10.9186 9.8105 12.7555 -0.0349328 -0.643612 -0.764554
10.178 9.0798 13.0073 0.252908 -0.86503 -0.433314
9.69396 12.143 0.355219 -0.0643001 0.170328 0.983287
11.1716 10.0947 0.352792 0.706323 -0.378502 -0.5982
10.6603 13.8239 0.329808 0.528673 -0.134437 0.838112
12.5899 12.0808 0.081179 0.166195 0.780565 0.602575
12.234 11.0276 12.4045 -0.592468 0.745929 -0.304254
12.8823 9.62031 0.37717 0.709007 0.610887 0.352315
13.5038 11.2411 0.0705648 0.829617 0.459366 -0.317361
13.6389 12.3534 13.4678 -0.0848137 0.307184 0.947863
10.1614 13.2701 1.941 -0.846745 -0.255403 -0.466681
1.33872 0.848903 0.446791 -0.29118 0.880271 -0.374616
2.80018 13.6487 13.772 0.658469 0.243135 -0.712253
2.30248 12.4844 0.69578 -0.436257 -0.593157 -0.676642
3.7426 13.3018 0.462304 0.731779 0.596821 0.329096
3.18097 11.8857 1.59511 0.0539267 -0.177345 0.98267
2.68646 12.1709 13.2175 -0.83378 0.120289 -0.538834
3.73472 9.60106 13.7987 0.445034 -0.571175 0.689713
0.707546 11.1177 0.711494 -0.315232 -0.729751 0.606706
6.20663 9.65528 0.408979 0.538183 -0.212433 0.815617
5.48807 13.8789 0.748087 0.126903 0.990427 0.0543177
5.13092 10.1598 12.3864 -0.190081 0.743269 0.641421
7.93958 12.9229 0.876117 -0.528174 0.798878 -0.287795
6.74585 10.2856 13.6362 0.845582 -0.438813 0.30403
4.45257 13.7017 13.6595 -0.739101 -0.616697 -0.270952
6.85399 10.6173 11.0854 -0.639311 0.546902 0.540535
7.60444 11.1098 0.493519 0.224046 0.947923 -0.226375
10.5482 11.3797 0.599594 0.31373 0.616831 0.721868
7.90457 10.9552 10.4538 -0.0733667 0.167886 0.983073
8.37543 12.2978 12.6645 -0.997925 0.0219117 -0.0605501
10.0261 0.616981 0.913819 0.529739 -0.424664 0.734191
12.5153 12.8034 1.6192 0.535419 -0.710859 0.456077
9.90723 1.72927 12.7303 0.59034 0.0443072 -0.805938
11.8132 13.9914 14.0528 -0.23955 -0.663984 -0.708337
11.2279 0.856034 2.59558 0.670325 -0.0771583 -0.738046
0.680738 13.2704 2.79477 -0.80421 0.580622 0.126985
13.5116 1.94821 0.971659 0.306605 -0.79171 0.528383
12.5343 13.2928 12.957 -0.367659 0.152726 -0.917334
12.9641 0.89582 1.70479 -0.366533 0.700141 -0.612745
13.0272 13.9416 0.588485 -0.615733 0.263406 0.742624
0.762261 12.7193 1.81262 -0.304926 0.893599 -0.329396
1.5072 0.720997 12.876 -0.0838769 -0.789998 -0.607345
1.39771 0.126309 2.32742 0.226914 0.337759 0.913471
1.241 12.9334 13.7487 -0.990954 0.130552 0.0310782
1.41834 3.31348 13.8896 -0.305562 -0.788075 0.534387
3.54906 12.8326 12.4098 -0.0798237 0.97631 -0.201114
2.34605 1.639 2.20464 0.543034 -0.638661 -0.545184
6.35472 0.122352 12.6886 -0.364179 -0.231381 0.902129
4.55339 11.5824 12.4148 0.288352 -0.225281 -0.930646
6.90782 12.645 0.453321 0.216612 -0.804338 0.553281
6.17813 12.5139 12.181 -0.589654 -0.802453 0.0915304
8.89812 11.2229 13.0035 -0.551244 0.0639432 -0.83189
6.3475 13.198 10.1132 -0.581771 -0.234547 0.7788
7.50407 11.9513 11.5504 -0.830386 -0.310631 0.462567
8.06836 1.47114 0.471303 -0.680202 0.580467 0.447642
8.28066 13.027 11.7767 -0.859693 0.507147 -0.0610767
7.47938 0.276872 12.6316 0.296677 0.949139 -0.105439
9.92666 0.55513 12.7498 -0.826353 0.326712 0.458694
10.0226 1.47799 1.84042 0.727581 0.241159 0.642237
12.386 13.6251 2.32475 -0.886745 0.321173 -0.332462
13.0066 1.40439 12.7985 0.958165 0.285147 0.0247033
8.09218 0.23974 11.74 0.756491 -0.230675 0.611972
11.9416 1.79158 2.0214 -0.931227 0.161891 -0.326508
13.8849 12.7077 2.19222 -0.514689 0.424071 -0.745157
11.3033 3.64933 13.7275 -0.423096 -0.194758 -0.884906
13.4164 1.61494 14.0093 -0.595181 -0.625525 0.504458
11.0071 2.53379 0.687126 0.672893 -0.676512 0.299243
0.0962981 3.00574 0.677025 0.26068 -0.798647 -0.54241
0.927006 2.48872 1.53988 0.788129 0.496631 -0.363609
1.23312 12.4846 0.905538 -0.00625111 -0.917712 0.397197
1.11124 1.26421 1.42188 -0.699552 0.379985 -0.605176
0.575359 4.23318 13.4284 0.0415056 -0.464007 0.884859
2.34428 2.97783 14.0271 -0.0938519 -0.788895 -0.60732
2.37599 0.642583 0.989532 0.4241 -0.894497 -0.14147
3.43298 2.48248 1.61071 0.479294 0.0974072 0.872232
5.86772 1.17904 13.2236 0.257949 -0.14746 -0.954839
3.02402 1.73034 13.5853 -0.517696 -0.517166 -0.681565
4.62351 13.111 12.2011 0.385877 -0.795608 -0.467018
5.55678 13.3871 12.492 -0.235973 -0.0837246 0.968146
7.82095 0.397516 13.6447 -0.260489 -0.928311 0.265298
3.0784 0.715157 10.1524 0.518749 -0.786063 0.336161
6.88421 1.061 0.682447 -0.794873 0.603279 0.0650447
8.44768 3.35149 0.39384 0.953135 -0.296209 -0.0615939
10.9617 1.10806 1.13324 0.616115 -0.769475 0.168261
7.51674 4.38485 12.4388 -0.119013 -0.908905 0.39966
6.92433 4.65121 0.194656 0.287387 -0.78155 -0.553704
7.75914 3.62767 2.19343 0.992025 -0.0719328 0.103502
12.6281 2.60836 1.42113 0.726769 -0.414864 0.547444
13.7013 5.77212 12.7968 -0.908769 0.376948 -0.179022
12.2377 2.44707 9.81647 -0.174794 0.220198 -0.959666
12.7094 3.99537 0.615109 -0.511009 0.750646 -0.418808
11.824 4.16774 1.9438 0.636078 0.598257 -0.487333
13.5021 4.1042 13.873 -0.0704889 0.992446 -0.100413
10.5794 3.90182 1.57465 0.806514 0.350851 -0.475855
1.95635 3.59285 2.47003 -0.539394 -0.833353 -0.120734
3.24775 4.20136 0.62954 0.295966 -0.0483979 -0.953972
2.65162 4.5403 12.702 -0.26399 -0.205337 -0.942415
0.559045 0.714723 2.32616 0.539339 0.797781 0.269555
1.34629 6.09321 12.3816 -0.701261 -0.645525 -0.302541
2.72248 3.00144 2.16143 -0.486541 -0.583789 -0.649976
4.19846 4.21854 1.0491 -0.0935619 -0.693083 0.714761
1.32296 2.47227 13.1243 0.741243 0.627977 -0.237072
4.86421 6.15085 13.6952 0.047814 -0.86804 0.494186
5.34223 3.64242 0.917493 -0.155715 0.976728 -0.1475
3.67229 5.12832 1.44472 -0.372068 0.0150942 -0.928083
7.08602 2.90504 13.7833 0.711937 -0.309729 0.630249
4.71491 5.6396 1.20103 -0.721916 0.0157838 -0.6918
5.88124 2.71337 0.212054 0.697218 0.683148 0.217246
9.00808 3.88542 13.6282 -0.181086 0.952803 0.243669
8.22977 2.88822 13.5446 0.315572 -0.940921 0.122809
6.39605 3.20158 1.37146 -0.0811645 0.967648 -0.238894
8.868 2.01328 0.822262 -0.416814 -0.257394 0.871788
12.2911 5.20935 13.3596 -0.622037 -0.734937 -0.270069
10.6215 4.72897 13.5509 0.812676 0.463537 0.353117
6.01681 7.92781 1.97378 -0.0120157 -0.593621 -0.804655
11.1853 5.08417 1.54467 0.76929 0.0461087 -0.637234
9.26901 5.66214 2.29259 0.546051 -0.27205 0.792349
12.3742 2.98359 14.0466 0.172697 0.914382 -0.366172
10.4662 7.26604 1.65963 0.719151 -0.537554 0.440292
0.238276 4.78213 1.81541 -0.928256 0.240833 -0.283442
14.0131 5.99309 10.5395 0.74644 0.651406 0.136009
3.04471 5.80386 2.10333 -0.386483 -0.913183 -0.129336
1.6033 5.03551 12.6315 0.35224 0.594154 0.723124
4.04866 3.26194 0.513892 -0.913806 0.0232662 0.405484
2.55488 5.87119 10.3739 -0.859369 0.483865 0.165406
1.27587 4.71135 0.129921 -0.341676 0.82543 -0.449358
1.79319 10.0438 2.85143 -0.170722 0.950129 -0.260977
6.4881 4.76012 1.91973 -0.829865 0.180856 -0.527839
3.49595 6.38881 13.691 0.762456 0.0185559 0.646774
5.31689 4.13779 13.7908 0.945577 -0.322738 0.041537
2.78545 6.99508 0.181872 0.736598 0.392022 0.551127
2.96397 6.02015 0.477244 0.340451 0.525502 0.779706
5.93581 5.493 12.4645 -0.404759 0.880111 0.248143
6.49809 2.02658 13.4458 0.196366 0.0905103 0.976344
5.51319 5.99613 0.596602 0.358115 -0.932301 0.0506723
5.98866 6.28493 1.57558 0.727852 -0.664134 0.170755
8.11342 7.25782 2.50711 0.721385 0.607341 0.332777
7.809 4.73984 0.858513 -0.242892 0.351076 0.904295
8.37857 10.5291 1.02946 0.0333085 -0.85735 -0.513655
8.31113 2.93569 1.38114 -0.933345 -0.0845578 -0.34888
6.42857 7.60838 0.248908 0.999739 0.009798 0.0206232
9.62857 4.80063 1.80919 0.170942 0.713042 -0.679963
9.60242 8.1484 2.15071 -0.880099 -0.370271 -0.297196
11.5736 6.07226 0.828023 0.34933 -0.0090334 -0.936956
10.6773 6.47558 14.0378 -0.603676 0.625243 0.494618
10.1126 6.00083 12.0252 -0.96114 -0.27551 -0.0174685
11.4324 8.13205 12.2314 -0.385376 -0.917956 0.0940357
13.7915 9.27637 12.1253 -0.902338 0.429371 0.0377647
13.3193 9.19618 13.4911 -0.70452 0.0473991 -0.708099
0.636986 5.2327 10.5366 -0.486703 -0.0562239 -0.871756
0.669804 9.11466 11.0006 -0.18878 -0.875284 0.445242
2.26527 9.82223 2.00561 -0.323754 -0.945278 0.0404042
1.88613 7.08375 9.88416 -0.203137 0.187313 0.961067
2.74898 5.63547 9.25781 0.840101 -0.501463 -0.206795
1.1948 10.0682 1.93155 0.315439 0.663111 -0.678809
3.8012 8.22565 1.45971 -0.151986 0.856218 -0.493751
3.53718 10.3259 2.16586 -0.251089 -0.819222 -0.515587
3.59724 7.36589 13.5363 0.947013 -0.0170043 0.320745
3.64892 8.33367 0.000833874 -0.528468 -0.229977 0.81721
4.07311 10.0386 12.5351 -0.453016 0.870956 -0.190293
3.77788 8.65043 11.886 0.434415 -0.582225 -0.687239
6.92468 4.70822 11.2034 0.418218 -0.802936 -0.42472
5.4639 9.93346 1.05221 0.561679 0.501825 0.65779
7.9715 2.38827 2.25411 0.698671 0.438417 0.565375
7.32012 8.93919 0.399769 0.459681 -0.167797 0.872088
7.33516 7.63156 1.53435 -0.605537 -0.394025 0.691425
6.74694 8.54231 1.44125 -0.34251 -0.00513191 -0.9395
8.19893 9.48869 1.6346 0.901443 -0.39974 0.166156
9.03978 10.0159 13.3464 -0.0691294 0.389803 -0.9183
11.5681 6.91288 13.581 -0.0353226 0.177262 0.98353
5.60147 8.60102 1.30992 -0.472273 -0.803434 -0.362563
9.904 9.76867 2.54615 0.579328 -0.440961 -0.685516
9.33908 10.2719 1.79344 -0.137052 0.718063 0.682351
10.6315 8.36015 1.38867 -0.87823 0.474772 -0.0574799
13.6409 12.8408 3.46388 0.393257 0.751838 0.529235
1.02093 7.08557 11.6744 -0.207782 0.861529 0.463243
12.8905 11.3854 1.20966 -0.446245 -0.883044 0.145255
0.716326 7.55596 10.4167 0.538334 0.372106 0.756131
11.8007 12.6816 2.32576 -0.635648 0.362659 -0.681491
8.81038 9.5809 3.77042 -0.726155 -0.395489 -0.562394
1.28788 10.3645 0.292046 -0.597933 -0.70428 0.382708
2.1493 11.6711 1.81948 -0.0195886 0.199299 0.979743
2.59514 12.6889 2.3511 0.765698 -0.221732 0.603772
4.54286 9.71972 1.55352 0.0306015 -0.968089 -0.248732
2.93024 10.0364 0.270005 -0.61923 -0.115785 -0.776626
2.8017 8.99641 0.260124 0.131734 0.00548269 -0.99127
3.69852 11.2811 0.208845 -0.966809 -0.236992 0.0954689
