16.6157 15.0632 5.46262 -0.403811 -0.717179 -0.567971
20.4086 18.4379 11.599 -0.280273 -0.309276 -0.908733
14.3335 16.9659 16.6175 0.159552 0.942537 0.293542
12.1499 16.6995 14.095 0.803832 0.581462 0.125523
16.6712 22.2587 18.031 0.63899 -0.0779057 -0.76526
9.89732 13.836 9.6865 -0.90515 -0.420888 -0.0596385
8.96474 15.0008 16.3339 -0.680068 -0.607434 0.410526
16.0405 10.241 10.24 -0.897483 -0.360448 0.254167
11.6851 13.9821 5.74855 0.0702824 0.884015 -0.462144
17.8419 11.7901 5.48869 -0.555255 0.827501 -0.0832683
18.1684 14.1131 6.94727 -0.446223 -0.867798 0.218659
18.3222 11.1006 12.4887 -0.614771 0.527839 -0.58604
13.8584 19.7455 10.9009 -0.730056 -0.576639 0.36675
19.4589 9.73785 7.27031 -0.382713 -0.668777 0.637392
23.2569 22.0574 16.9015 -0.999642 -0.0239186 -0.0120037
19.9661 12.5206 14.0078 -0.448114 -0.55011 0.704679
9.81647 12.3003 5.58466 0.0214016 -0.592353 -0.805394
18.4172 21.1434 13.809 0.70274 0.101788 -0.704128
22.573 18.2513 4.54665 0.102639 -0.45028 -0.886968
18.9213 13.6225 6.12247 -0.579414 -0.155779 -0.800007
19.8384 14.6686 5.78969 0.961096 0.150649 -0.231517
9.7445 22.2258 14.4569 -0.0525746 0.750949 -0.658264
16.2732 9.7375 18.1353 0.152874 -0.546225 0.82357
9.73782 21.8892 18.1825 -0.541809 0.696902 -0.469862
9.84727 16.8918 7.55473 0.32589 0.0573102 -0.943669
9.33521 8.3511 18.6148 0.933311 -0.354119 -0.0594221
9.70464 8.29945 7.47805 0.806477 0.359554 -0.469378
14.1043 8.35063 13.3975 -0.795046 -0.379531 -0.473136
12.7975 13.3351 17.0336 0.687371 -0.428821 -0.586203
15.2452 9.51485 18.2489 -0.165151 -0.688131 -0.706542
15.0374 12.9854 5.40702 -0.508098 -0.858366 0.0710254
18.2198 22.1243 16.0795 -0.645939 -0.524498 0.554675
15.8973 22.396 14.9131 0.401062 -0.471009 0.785684
12.8721 13.7548 12.3187 0.215022 0.564135 -0.797194
19.7237 22.424 16.0967 0.327472 0.795323 -0.510121
16.1414 16.4703 4.99221 -0.700014 0.0370169 -0.71317
18.5357 14.4826 17.8821 -0.805072 -0.0612052 0.59001
17.1556 10.7035 17.3639 -0.709645 0.569338 0.415041
14.9829 8.6182 7.14949 0.00581017 0.944493 0.32848
15.4539 14.5787 18.4451 -0.564783 -0.608027 -0.557964
8.91733 8.48289 5.43043 0.123202 0.889192 0.440634
22.0837 9.69843 12.5086 -0.457873 0.489603 0.742052
18.2264 12.4937 18.8638 -0.0201341 0.232923 0.972287
11.8955 22.1028 18.1688 0.464639 -0.28494 -0.838403
9.4789 15.228 7.70043 -0.142652 0.81915 -0.555558
9.04623 12.1178 9.2089 0.993021 -0.104113 -0.0554143
14.144 21.7564 5.16752 -0.508987 -0.486848 0.709867
16.6563 21.0182 13.4042 0.971466 -0.22819 0.0646716
17.6731 8.81741 6.32111 0.141702 0.552553 -0.821344
20.5525 17.3997 8.89373 -0.348036 0.553983 0.75629
18.1439 13.5078 10.9055 -0.581412 0.773514 -0.252262
22.2972 21.1151 11.9149 -0.681299 -0.257482 0.685226
11.7521 13.985 7.30756 -0.514638 -0.799784 -0.309018
8.89673 10.7854 4.96865 0.635322 -0.667309 0.38867
13.9493 13.8382 11.0225 -0.103095 -0.0381689 -0.993939
19.3516 15.3371 7.16634 -0.217771 0.956038 -0.196383
15.7603 12.4012 10.0134 0.160677 -0.986952 0.0104294
15.5513 15.84 17.8388 0.653904 0.531201 -0.538734
10.3784 9.4286 13.5962 0.192951 0.441923 -0.876056
18.7806 9.44411 4.8727 -0.187844 0.798711 -0.571642
9.60117 16.7926 18.6981 0.954296 -0.0975517 0.282496
13.4927 19.9674 6.41038 0.698114 0.533438 -0.477578
10.0538 14.9004 6.88786 0.266575 0.963814 -0.000983833
16.9149 13.1852 6.47131 0.832848 -0.357671 -0.422417
13.4393 17.7869 4.66289 0.57 0.821236 -0.0259147
10.5725 10.1757 16.7918 0.0922168 0.956871 -0.275487
10.7765 21.5431 17.7208 -0.535984 0.752124 -0.383445
10.8107 11.0619 12.6618 0.778749 0.586094 0.223704
10.5394 21.8152 16.0685 0.492347 -0.567317 0.660111
10.5378 20.0841 14.8994 0.895346 0.432673 -0.105594
10.3401 21.3587 7.08324 0.710764 0.318898 0.626992
22.7583 20.4219 5.43173 0.384958 0.922571 -0.0259078
10.6271 18.841 8.85114 0.512837 -0.854482 -0.0828174
19.6483 11.6852 6.39763 0.283107 0.646472 -0.708466
13.5395 19.5032 16.6984 0.68808 0.507975 -0.518177
22.5337 8.95789 14.9955 -0.584195 0.122517 0.802313
10.7533 13.7086 15.9435 -0.436672 0.797101 -0.41707
18.6151 14.6773 10.873 0.73689 -0.192809 -0.647933
21.8567 14.0805 6.095 0.993235 -0.0721141 -0.0910139
10.8675 11.453 10.6183 0.89516 -0.151312 0.419277
8.89138 19.9623 9.19286 0.58416 -0.652347 0.482908
16.5215 16.1645 8.06085 -0.96977 -0.23565 0.0633589
17.2394 14.0114 14.4109 0.622564 0.323245 -0.71269
12.7253 15.644 14.3847 -0.565019 -0.380818 -0.731936
9.74433 14.5187 17.7026 -0.479061 -0.425806 -0.767587
16.7817 12.633 17.0104 -0.53951 -0.778797 0.320006
14.6294 11.6764 15.6134 0.882439 -0.460228 -0.0974275
20.4142 17.5994 17.4241 -0.996645 0.0663169 -0.0479769
10.0553 20.3999 9.73286 0.80879 -0.383673 -0.445706
20.426 14.9771 7.0189 0.167387 -0.974923 -0.14665
20.8749 11.6543 8.97907 -0.716971 0.396479 0.573374
18.6127 19.4756 6.59816 -0.315951 0.947502 -0.0491403
17.0438 18.643 10.5197 0.764638 -0.249342 0.59427
23.0858 10.6665 17.7342 -0.48665 -0.406302 -0.773363
15.9764 18.7473 5.42195 -0.693793 0.702083 0.160411
12.7463 19.8254 16.0342 0.783289 0.411819 -0.465686
14.9403 14.4902 11.2748 0.757913 -0.297018 0.580817
10.4496 16.3273 11.703 -0.588108 0.800832 -0.113127
20.5923 16.9061 16.0736 -0.761275 -0.310959 0.569004
9.15051 11.3468 6.42978 0.532632 -0.241669 -0.81111
19.6806 18.554 4.56844 0.72988 0.67711 -0.0937941
21.2814 22.3212 14.339 -0.821523 0.289599 0.491154
20.47 15.9555 8.237 -0.696253 0.117892 0.708049
19.1623 18.3801 9.75991 -0.668482 -0.681762 0.297207
11.5928 17.2171 12.1187 -0.806216 0.322812 -0.49579
16.6917 16.0615 12.6828 0.400755 -0.510362 -0.760872
22.0848 10.4407 18.2204 -0.156628 -0.805723 -0.571208
15.9048 14.252 7.83107 -0.763334 0.221337 -0.606903
15.5767 11.8352 5.58314 -0.748295 -0.660972 -0.0562971
17.3526 18.6107 16.6809 0.764054 -0.210877 0.609715
12.2304 13.3645 8.09094 0.0219504 0.934812 0.354465
13.5657 16.6536 13.4638 -0.170411 0.255969 -0.951546
23.2927 9.52644 4.70198 -0.876109 0.370953 0.30794
9.14615 19.1717 11.4688 0.292636 -0.831199 0.472729
10.835 11.8454 17.4832 -0.0966177 0.806606 -0.583139
11.4262 17.523 13.5437 -0.494531 -0.0780794 -0.865646
22.2985 17.6648 16.7535 0.97429 0.147362 0.17042
22.9797 22.1021 9.66076 0.330166 0.526076 -0.783731
9.38942 15.9631 11.7735 -0.332597 0.832647 0.442807
9.38903 14.4581 5.7917 -0.492931 0.858037 -0.144194
15.4 17.1016 5.5946 -0.856788 -0.481392 -0.18487
22.0954 14.7725 18.2672 0.516965 0.245024 -0.820189
16.6954 15.1839 7.11349 -0.176009 0.983218 -0.0479895
13.7215 8.98112 4.7832 0.561959 0.0821494 0.823076
18.7808 15.0913 15.7434 0.589979 -0.627188 0.508488
15.8471 12.5954 4.66999 -0.897707 -0.440582 -0.00318743
18.3198 14.9939 9.81107 -0.777515 0.507713 0.371078
19.4556 22.8759 7.22506 -0.313552 -0.717507 0.621988
13.8496 19.0407 18.1112 -0.453473 -0.0512511 0.889795
17.138 13.4321 17.7873 -0.799181 -0.463705 0.382474
21.6917 19.0526 14.9744 0.500236 0.267057 0.823678
18.6716 9.68191 17.4992 0.434978 -0.228302 -0.871018
16.4995 20.7891 16.3815 0.697606 -0.140238 0.702623
10.7213 13.1383 5.49532 -0.24813 0.567145 -0.785352
10.8468 11.1413 9.48514 -0.824191 0.032982 -0.565351
12.4836 15.3851 16.0309 -0.250858 0.457845 0.852906
17.5151 16.9547 15.8587 0.743828 -0.508065 -0.434268
17.9759 8.60927 8.72099 -0.451214 0.155201 0.878817
14.9116 22.7361 16.5 -0.746743 0.206822 -0.632139
16.0581 14.3759 15.4498 0.0868341 -0.151316 0.984664
9.45463 22.2619 11.0087 -0.35849 0.734921 0.575652
12.1816 8.47103 17.1178 0.26849 -0.857953 -0.437984
13.5059 17.7745 13.5485 0.892412 0.391187 0.224884
21.3538 21.0654 9.97913 -0.427218 -0.212613 -0.878795
19.0596 10.9058 15.7878 -0.504386 -0.0743318 -0.860273
18.2796 15.7364 7.28715 -0.0653379 0.0697869 -0.99542
12.7969 12.8856 10.9628 -0.509953 -0.223302 -0.830713
9.23323 20.8999 4.89263 0.102854 0.893603 -0.436915
20.8035 18.1808 15.191 -0.271368 0.804111 0.528928
18.7004 10.9254 17.1304 -0.00680155 -0.759647 -0.6503
21.2591 21.4671 13.5262 -0.804369 0.519144 0.288928
13.6125 10.5314 14.3628 0.164045 -0.305519 0.937949
15.6751 16.3843 14.8049 0.201791 0.470345 0.859102
17.8614 17.0653 4.95731 0.129708 0.922001 -0.364816
13.7176 17.6861 18.3575 0.802711 0.577853 0.14745
9.48855 10.5356 16.74 -0.277946 -0.855228 0.437414
17.6886 12.2343 16.9871 -0.447323 -0.85406 -0.265485
16.347 19.8547 11.5265 -0.0698413 -0.995572 -0.0629194
13.9507 12.3675 14.0643 -0.00771848 -0.307014 -0.951674
22.1966 15.1851 6.67808 0.96396 0.123475 0.235657
15.0406 8.33636 11.1859 0.267543 -0.96313 -0.0283204
12.4494 9.42053 6.41529 -0.184939 -0.891287 0.414012
11.4764 12.9432 12.0354 -0.419439 -0.906014 0.0566522
9.08349 14.4625 11.9105 -0.563347 -0.151543 -0.812204
20.6646 20.6941 12.3359 -0.0240831 0.895415 0.444581
21.0547 20.1866 7.4407 0.427321 -0.772468 0.469776
11.9711 13.5923 13.4942 0.460255 0.777123 0.429237
21.0464 9.17496 8.88181 0.145817 -0.840166 0.522359
12.1018 10.8563 4.61783 -0.457071 0.663657 -0.592153
13.882 10.259 5.56611 -0.71043 0.499865 -0.495403
16.1815 8.42622 8.78361 0.426931 0.256498 0.867144
9.91844 9.15131 6.34666 -0.693196 0.65047 0.310432
22.302 18.0803 8.94206 0.0873762 0.480933 -0.872392
20.2437 20.2413 8.24352 0.548852 -0.607674 0.574015
11.5212 19.2752 14.5719 0.187556 0.512424 0.838
20.9175 15.6134 15.8093 -0.618242 -0.784746 0.0441665
17.1236 22.6989 15.5563 -0.0923529 -0.570269 0.81625
22.8646 17.2992 5.25524 0.324041 0.187787 -0.927218
18.4247 22.5217 6.81962 0.0659562 0.352998 -0.933296
18.6757 20.1742 11.3476 -0.369056 -0.847471 -0.381563
12.865 19.9833 5.17366 -0.0714296 -0.516964 -0.853022
15.4397 19.1423 17.7629 0.372414 -0.0753286 -0.925004
11.2525 17.6638 4.52959 0.987228 0.125856 -0.0976831
14.9281 22.6655 12.2867 0.668551 -0.716196 -0.200257
20.4871 22.4683 9.96002 0.0270512 0.823887 0.566108
13.5708 15.0029 15.843 -0.179709 -0.433389 0.883107
18.7989 9.63431 8.8966 -0.467044 0.526162 -0.71065
18.2153 20.254 5.41078 0.812793 0.173478 -0.556123
23.0895 9.54447 18.1739 0.159136 -0.805554 -0.570752
23.5069 19.6518 7.26295 -0.691964 0.54654 0.471679
10.0974 21.0788 12.4507 -0.885976 0.402145 0.230924
18.7519 19.2031 4.82813 0.773076 0.609461 -0.175816
14.7997 21.9319 15.4322 -0.191954 -0.943445 0.270304
23.3253 12.8702 18.259 -0.365988 0.930566 -0.00995973
9.4299 19.0862 4.52231 -0.326209 0.891747 -0.313648
19.6121 22.2394 10.7009 0.032966 -0.932919 0.358575
10.305 19.8198 10.5599 -0.841567 -0.539821 0.0189253
23.1922 11.3823 13.3816 -0.738585 -0.547862 -0.392861
15.5365 21.5808 10.2047 -0.04881 0.986645 -0.155398
9.0919 8.52239 6.55718 0.598944 -0.565357 -0.567131
12.7902 11.0435 8.376 -0.741869 0.621334 -0.25214
13.3227 22.5125 5.20308 0.338993 0.430688 0.836416
16.7976 15.1412 8.31687 -0.861237 0.0765226 -0.50241
15.8237 9.29421 6.14576 0.630282 -0.452304 -0.631004
22.418 20.4214 18.0124 0.948967 0.128664 0.287935
11.935 12.2714 17.2651 -0.312998 0.892895 -0.323682
16.6681 16.0419 9.31438 0.183894 -0.903038 0.388208
12.9319 20.4761 16.9868 0.071393 0.574243 -0.815566
15.0483 10.1911 16.66 -0.00898994 0.986472 -0.163686
9.66331 13.3269 17.687 0.237003 0.437408 0.86747
11.7902 19.7416 7.77303 -0.459864 -0.206047 0.863753
14.581 8.32047 4.8577 0.0404528 -0.272028 0.961439
22.1415 20.2002 9.95328 0.69531 0.559031 0.451694
22.0045 16.4675 18.2259 -0.181697 -0.848665 0.496743
16.8795 15.4327 18.8089 0.261617 0.420474 0.868768
16.3066 10.1388 11.3569 0.903792 -0.145575 -0.402452
23.3552 19.9413 6.2165 -0.133931 -0.973813 -0.183711
22.705 10.7508 5.66377 0.586078 -0.370301 0.720688
12.3192 20.618 18.4453 -0.251418 -0.519246 0.816806
19.5926 9.77333 5.625 0.666067 -0.332108 -0.667876
15.8452 21.6145 16.7104 -0.942506 0.0837702 -0.32352
21.4083 12.6617 10.0717 0.0440909 -0.336614 -0.94061
21.0007 17.7137 18.5903 -0.947894 0.306825 -0.0857614
23.0537 13.1875 15.4164 -0.597565 -0.0635308 -0.799299
13.979 9.32859 10.8539 0.00480237 0.768614 -0.639694
19.7729 14.9498 12.8948 0.816115 0.548053 -0.183287
14.2627 21.8619 13.0645 0.368553 -0.510839 0.776668
19.1651 21.5751 5.50936 0.465576 -0.379496 0.799513
10.0476 8.89974 8.28436 0.619219 0.700184 -0.355401
9.06919 15.6582 10.5979 0.137599 0.988317 0.0655398
12.8387 11.6494 10.7008 0.0778295 0.431696 -0.898655
16.6284 22.5781 6.41876 -0.825099 0.435433 -0.360015
17.9426 13.7543 8.11339 -0.482065 0.815679 -0.319815
18.7066 14.3112 8.0658 -0.26073 0.746717 0.61191
19.5988 10.4179 17.6655 0.731948 -0.303466 -0.61005
11.2865 15.3458 8.99317 -0.224376 0.928 -0.297441
9.72688 19.9842 6.5536 -0.0964757 -0.526372 -0.844763
16.2246 21.8492 9.20377 -0.985534 0.0093114 -0.169222
23.3401 17.6621 9.11742 0.210482 0.976146 -0.0532626
18.6658 21.3802 7.03932 -0.739286 -0.576544 0.347927
9.18003 10.8739 12.3674 0.736605 0.675919 -0.0233822
12.8081 22.9325 10.0063 -0.620543 0.224198 -0.751439
9.88724 11.0568 18.1716 -0.00167229 0.419072 -0.907951
22.0326 15.2184 5.32067 0.734188 -0.337558 0.589087
19.9457 11.1576 12.0631 -0.606469 0.508602 -0.611163
22.4427 11.5029 7.70696 0.120251 -0.137782 -0.983136
16.1487 17.2585 17.9652 0.655364 -0.0896469 -0.749975
11.1674 8.35923 12.7564 -0.0662916 -0.947098 -0.314023
22.9219 17.2287 15.0897 0.809106 0.104724 0.578256
10.1982 15.6784 8.37846 0.359757 0.758024 -0.544035
16.3578 11.5266 6.42965 0.966086 -0.200545 -0.162665
14.9484 9.91826 8.3579 0.809919 -0.553128 0.195142
14.3964 15.6288 8.95699 0.988086 -0.0561437 -0.143298
22.8415 14.5879 12.7502 0.0945006 0.514229 0.852431
15.2581 13.4666 6.41057 0.653558 -0.751497 -0.0900773
21.0545 17.0547 5.93493 -0.639296 -0.180255 -0.747535
16.7349 9.29163 16.7545 0.86704 0.0259357 0.497563
11.0793 13.3473 8.22691 -0.236993 0.863901 0.444421
13.5644 9.18194 6.14208 -0.615556 -0.448999 -0.647681
9.04569 8.7515 13.0506 0.294048 0.505043 0.81146
14.6297 13.2772 4.4171 0.955241 0.269066 -0.122956
18.6118 16.9731 18.5675 -0.0700449 0.849464 -0.522976
20.6712 11.0403 17.129 0.163258 -0.493269 -0.85442
8.96391 10.7207 11.3177 -0.669172 -0.72172 0.177
20.032 13.5592 4.69688 0.713351 0.520358 0.469424
19.0117 12.006 9.43492 0.689192 -0.714021 0.123241
15.5039 18.0298 8.57877 0.291709 -0.928983 0.227807
18.1618 13.9425 4.43975 0.647702 0.604385 0.463898
18.4295 8.30597 14.2686 0.428846 0.361808 -0.82776
12.4356 8.45006 18.7838 0.175129 -0.414533 -0.893024
13.7312 16.5886 8.55067 -0.387933 0.135673 0.911647
15.2277 10.6788 7.23738 -0.593415 0.0951353 -0.799255
12.3847 18.4993 5.10661 0.51819 -0.771856 0.368398
19.6013 19.8763 5.64394 0.177066 0.902543 -0.39251
12.4501 9.67166 18.9447 -0.799821 -0.0830041 -0.594472
14.576 14.2364 8.80511 0.303059 0.713924 -0.631244
8.90334 19.1803 8.22663 -0.99793 0.050008 0.0404304
17.548 11.7289 18.1631 -0.434918 0.825305 0.360165
12.5129 16.6576 7.60821 -0.329896 0.539912 -0.77438
11.1136 12.3307 9.92623 0.851001 -0.477532 -0.218542
10.3279 15.4356 10.6763 -0.376294 0.920954 0.101223
20.8596 20.9839 5.09638 -0.108843 -0.31333 0.943386
16.3964 9.93735 5.24433 -0.609931 -0.45915 -0.645883
12.2043 19.3491 8.96021 -0.342808 -0.816812 0.464005
16.4896 19.4479 14.6482 -0.512927 0.85795 0.0287467
10.1796 16.1499 9.45923 -0.255654 0.936372 -0.240519
18.5568 9.64651 15.4715 0.637428 -0.768394 -0.0570641
10.9032 20.4959 8.18683 -0.910299 -0.376808 -0.171379
19.5027 11.9266 18.1796 -0.338919 0.863582 -0.37331
14.0459 14.803 17.7577 -0.226956 0.534223 -0.814307
18.6413 11.3772 4.56893 0.761637 0.641329 -0.0927697
18.6598 18.8391 18.3274 0.834695 -0.441214 -0.329568
16.9175 14.9975 13.2321 0.961532 -0.181889 -0.205845
11.8876 15.915 14.9491 0.450229 0.865766 0.218502
23.1316 11.8162 17.2216 -0.801831 -0.329242 0.498665
22.6292 8.83403 5.60776 0.337306 0.710881 0.61715
21.6313 16.9717 10.8698 -0.691706 -0.722106 -0.0102437
22.2162 21.2348 9.13499 -0.866403 0.277728 -0.414986
16.0985 11.9741 18.6306 -0.822363 0.184132 -0.538344
11.9687 22.8479 5.88324 0.657047 -0.711009 -0.250511
22.3173 8.94181 7.59577 -0.718842 0.678605 0.150871
17.7266 22.1759 4.41463 -0.495656 -0.685036 -0.533902
11.3304 14.5175 11.3704 0.971065 -0.0781403 -0.225671
23.217 15.2754 12.0717 0.536907 0.106379 0.836908
22.0753 18.1813 14.2826 -0.299051 -0.24004 0.923553
13.2972 20.8276 4.3496 0.39158 -0.66895 -0.6318
12.4292 17.1796 8.92672 0.871228 0.44585 -0.205377
15.0616 16.8479 17.5056 0.393439 0.163822 -0.904637
10.2599 8.31108 10.6612 0.448121 -0.586596 -0.674606
11.2368 17.9698 10.3194 0.806085 -0.563669 -0.180291
14.2198 17.9832 7.0464 0.403594 -0.23446 -0.884387
11.3954 9.91687 4.9163 -0.423357 0.594712 -0.683437
22.3776 12.5615 18.1189 -0.365164 0.849212 -0.381438
13.7547 18.4457 11.2618 0.694105 0.448941 0.562735
19.0684 16.9394 10.2705 -0.779722 -0.0306608 0.625374
15.6099 19.8507 12.877 -0.203737 -0.554621 -0.806775
13.1384 14.8542 12.932 -0.189252 -0.853754 0.485065
17.6155 10.0049 9.79008 -0.76594 -0.615419 0.185999
14.4516 20.3262 4.92656 -0.507127 -0.858127 -0.0802575
16.7308 12.5963 9.16662 0.80883 0.577326 0.111751
20.2088 21.533 18.4303 0.234663 -0.742577 -0.627305
21.0384 10.7494 15.302 0.459051 0.683758 0.567227
17.0471 15.9428 17.5077 -0.699683 -0.61223 -0.368264
11.2458 18.6119 16.0637 -0.970553 0.172334 0.168308
21.743 14.5792 7.77501 -0.23077 -0.922883 0.308273
21.5373 20.0613 14.6533 -0.859437 -0.31905 -0.39947
17.457 15.1328 14.5643 0.84745 -0.477479 0.232039
22.6373 10.4825 7.55734 -0.870051 -0.0955813 0.483607
22.5556 13.573 7.35524 0.90382 -0.199945 0.378328
18.8172 12.6368 6.22916 -0.116487 0.154632 0.981081
22.7505 18.4315 15.5828 -0.448527 -0.878088 0.166686
11.2036 15.9563 5.48307 0.304603 -0.411015 -0.859235
14.6703 17.9005 4.98651 0.0153322 0.918676 0.394715
13.9995 10.0441 4.34902 -0.780454 0.624372 -0.0324237
16.4437 19.3463 18.028 0.00812561 -0.530749 0.84749
10.9152 20.0793 16.926 -0.488566 0.363451 0.793225
18.0925 20.0526 14.7705 -0.281384 0.695612 0.66102
23.1149 22.4646 6.15517 0.542889 -0.760993 -0.355193
20.9424 18.0718 5.07527 0.709355 0.52039 0.475405
16.8324 16.6023 18.6183 0.77665 0.628904 0.0359837
21.5045 9.65311 14.7892 0.0869228 0.392027 0.915838
12.5131 13.6555 9.85583 -0.458704 -0.300074 -0.836389
8.9098 13.54 6.54032 -0.134844 0.989847 0.0449368
17.085 22.305 5.4296 -0.168821 -0.983622 0.0631357
19.8826 16.2169 5.97909 -0.410087 -0.76231 -0.500711
16.9461 21.778 7.46806 -0.00347851 0.944244 0.329228
14.8968 14.6278 16.9896 0.751517 0.359595 0.553095
12.7806 21.9154 6.72978 0.350939 0.923041 -0.157599
11.6515 12.4174 18.1858 -0.911208 0.31679 -0.263334
15.4124 22.1401 5.5632 -0.698104 -0.475405 0.535388
19.1917 19.7721 8.80518 -0.713799 0.695538 0.0819587
18.6824 21.8717 17.0158 -0.381691 -0.908936 0.167772
18.9868 17.7055 15.0284 0.0234709 0.99587 0.0877084
21.6734 17.5189 7.82825 0.149601 -0.941351 -0.302454
17.1873 14.5264 16.449 -0.0946144 0.132734 -0.986625
15.2298 20.9059 9.15048 0.966496 -0.100978 0.235985
20.8372 19.8421 18.1505 -0.828178 0.0790596 -0.554861
17.9097 22.7648 17.5375 -0.377183 0.381692 -0.843828
9.4358 18.9886 13.6538 0.368006 -0.0521746 0.928358
9.39231 20.6324 14.7016 -0.798362 -0.43998 0.41114
23.0829 14.7925 7.77521 -0.608585 0.68062 0.407898
10.9846 22.8934 17.7562 0.605388 -0.576008 -0.54929
15.3151 17.9586 17.242 0.15177 0.0240688 -0.988123
16.2665 14.1505 6.10101 0.393781 -0.614287 -0.683805
11.4487 16.971 18.3352 0.932803 -0.0823306 0.350856
19.4495 10.4347 9.29072 -0.628505 0.39278 -0.671345
17.984 19.5875 7.40759 -0.71283 0.364359 -0.599263
18.417 19.4559 17.4741 0.490458 -0.821126 -0.291897
21.223 14.8894 16.6935 0.516469 0.719552 0.464225
16.2334 17.8062 7.82402 0.247391 0.823276 0.510896
13.4058 20.5804 7.65778 -0.915477 0.40235 0.00405989
12.2866 11.367 5.9919 -0.695841 -0.441795 -0.566236
12.271 18.6771 10.4924 0.270035 -0.696127 -0.665198
13.5619 21.2845 10.6831 -0.565631 0.491696 -0.66204
19.1046 16.0962 14.2201 -0.1163 -0.868366 0.482094
23.2597 10.1962 8.65451 0.861571 -0.501273 0.0801283
17.7262 21.8578 10.486 -0.345196 0.726991 -0.593569
18.4701 17.8242 16.2408 -0.891335 0.333115 -0.3075
22.5324 16.1936 4.84585 0.363398 -0.226671 -0.903638
22.3048 21.5595 18.6691 0.719413 0.659437 0.218148
14.5478 9.68892 15.6752 0.170214 0.682495 -0.710793
13.8559 8.71562 9.32801 -0.118082 -0.86549 0.48681
12.6681 18.5408 13.3968 -0.55757 -0.137866 0.818601
16.9454 12.1952 10.1365 -0.181121 -0.87953 -0.440025
20.0793 13.1828 16.3649 0.984315 0.145815 -0.0993078
17.4986 22.0052 8.56346 0.37378 -0.92751 0.00371359
22.7493 19.3397 18.9125 0.575248 -0.157059 0.802759
12.486 13.7154 14.958 0.433303 -0.813899 0.387061
16.3351 10.3726 6.87117 0.372957 -0.270643 0.887499
19.2733 18.7904 13.8737 0.656828 0.728859 -0.193239
14.335 16.0658 17.4353 -0.808559 0.282554 0.516135
9.16127 21.276 7.54155 -0.860194 -0.244342 -0.44762
10.7333 21.1581 15.2907 -0.263843 -0.605911 0.750506
16.6623 9.25359 6.99604 0.188433 0.110289 -0.975874
9.51317 13.02 13.575 0.340802 -0.198994 -0.918834
11.4128 18.0311 18.1147 0.854496 -0.4288 -0.2932
16.3726 10.5571 14.8811 0.957497 -0.268959 0.104214
15.7654 21.9667 7.22842 0.302982 -0.120348 -0.945367
15.6607 19.9319 8.41464 0.961194 -0.22952 0.153056
19.6855 9.34173 18.7789 -0.184435 0.978192 0.09552
18.4402 16.5915 13.3617 0.535008 0.492085 -0.686745
17.5492 10.9513 13.5464 -0.287708 0.239661 -0.927247
18.2487 15.4624 16.5718 0.82954 -0.112575 0.546983
19.2528 17.9154 11.0543 0.228008 -0.944855 0.235076
21.1045 10.3442 9.60708 -0.634735 0.236164 -0.735757
14.3711 15.7318 4.48332 0.645401 0.330139 0.688815
9.20283 9.55508 7.69745 -0.358944 -0.812761 0.45889
20.3584 16.3384 9.99768 -0.460904 -0.108158 0.880835
14.0188 10.2753 11.4059 -0.594302 0.472359 -0.650909
21.06 15.967 5.87474 0.580308 0.220592 0.783953
23.5185 18.3261 7.68427 -0.485113 0.498886 -0.718177
17.315 8.6942 4.43556 -0.413521 -0.909934 0.0319612
20.069 11.8187 7.47751 0.359613 -0.831423 0.423573
22.3147 10.2205 9.47959 -0.530302 -0.273243 -0.80257
14.5389 21.7014 7.97096 0.129341 -0.77663 -0.616537
18.9956 17.591 8.89578 0.0890265 -0.979826 0.178926
13.4226 22.6567 17.5082 0.286511 0.707771 0.645734
9.29307 8.30153 16.3302 -0.821401 -0.110631 0.559518
15.777 12.5582 15.9459 -0.925466 -0.209562 0.315591
20.9015 14.8122 10.9689 -0.716132 -0.545516 0.435393
20.0729 12.736 8.18372 0.943779 -0.186746 0.272775
10.9727 10.5244 8.28389 -0.977873 0.0304106 0.206979
15.8845 12.8405 11.0085 -0.765823 0.643028 -0.0055117
14.0763 13.6968 5.2546 0.12211 0.77676 -0.617845
21.9637 19.9906 11.1597 0.67088 -0.680359 -0.295012
9.21684 12.1283 10.6297 0.48922 0.862701 0.128106
13.2441 19.8782 14.7144 0.978984 -0.164376 0.120708
18.8005 10.0391 14.2008 -0.148102 0.924679 -0.350764
17.5812 19.3556 9.77887 -0.663177 0.617253 -0.423315
13.433 12.3142 12.292 0.0909825 -0.614116 -0.783954
11.7045 21.4307 6.06059 -0.972898 0.131691 0.190068
14.2155 10.6782 17.2138 -0.260558 0.714027 -0.649826
15.072 10.2614 9.36212 0.932744 0.325147 -0.155784
20.8787 22.1067 17.3634 -0.60813 0.472329 0.63803
18.9578 14.6707 12.0728 0.939594 0.276724 -0.201463
19.8467 12.7176 11.3435 0.19133 0.400258 0.896207
17.5821 17.6632 12.1986 0.320099 -0.0435527 0.946382
14.74 17.3069 13.2367 0.688379 -0.0736648 0.7216
9.96925 16.7103 15.6635 -0.249876 -0.409962 0.877208
14.467 18.5105 15.1816 -0.264216 0.568314 -0.779236
16.0473 12.446 7.17011 0.98905 0.0623709 -0.133755
22.0646 22.6367 8.9629 0.598995 0.642171 -0.478353
12.384 10.7002 14.3313 0.16 -0.707822 0.688032
19.679 9.82871 15.4233 0.123791 -0.282224 -0.951328
18.6363 17.6071 5.798 -0.175035 -0.980898 0.0848635
17.4545 14.3357 5.97893 0.0548392 -0.814028 -0.578231
13.0074 13.6877 7.4872 -0.580861 -0.360533 -0.729805
20.212 8.45312 5.84358 0.715352 0.686265 -0.131577
22.5745 13.4142 9.8742 -0.241399 -0.155205 0.957934
10.3636 22.6029 4.80094 -0.421003 0.728744 0.540082
13.3556 12.7678 7.76436 0.400475 -0.208831 -0.892194
21.6369 11.9673 13.3123 0.703539 -0.0288887 -0.710069
22.1651 18.7971 12.1599 -0.664651 -0.5934 0.454
10.6024 13.4238 11.8245 0.0582363 0.238749 -0.969333
14.5331 15.9943 13.4898 0.178634 0.489963 -0.853245
14.0819 17.4819 10.8173 0.354694 -0.0105881 0.934923
22.2368 8.92427 13.4307 0.228904 0.671436 0.704823
12.053 12.4071 5.77529 -0.900888 -0.309815 -0.303997
10.075 12.6958 15.9581 0.626921 -0.657952 0.417216
10.9531 18.5457 12.5288 -0.933736 0.304219 -0.188649
9.71842 16.2076 5.95927 0.479804 0.644546 -0.595271
10.3838 11.9721 6.80037 -0.131723 -0.844188 -0.519611
18.4026 21.7434 12.2692 0.22886 -0.0776124 -0.97036
21.6398 18.2449 6.72935 -0.600578 -0.630769 0.491362
17.7704 11.0239 10.8028 -0.475114 -0.342036 0.810727
15.2518 17.4523 6.93674 0.124788 0.840219 0.527694
20.4172 21.6494 15.151 0.709326 0.186085 0.679874
22.3493 10.8329 11.1374 -0.499962 -0.83748 0.220602
18.2868 12.896 12.6618 0.380676 -0.825695 -0.416309
11.0216 16.1516 12.7999 -0.767986 0.310335 0.560258
21.2692 9.13465 10.5419 -0.525316 0.367746 -0.767337
10.9367 15.2029 6.1822 -0.889021 0.106804 -0.445236
14.6091 14.5696 13.5399 0.43875 0.178317 0.880739
9.17835 17.2472 6.44581 0.252951 0.0173604 -0.967323
8.90188 16.2473 15.4095 0.118556 0.226015 -0.966882
20.4317 12.8727 6.36855 0.532267 -0.600332 0.596903
22.0572 13.0862 13.0496 0.0164716 -0.448536 0.893613
16.326 20.242 7.49622 0.755959 -0.547411 0.35898
17.061 10.2456 8.80916 0.869209 0.448236 -0.208709
18.6271 9.07671 11.8541 0.594186 -0.278333 0.754635
9.43673 22.1424 6.85957 0.981078 0.0571469 -0.184986
21.7935 13.199 5.27312 -0.69625 0.0793515 -0.7134
12.9798 20.7476 9.51082 -0.204668 0.260307 -0.943584
15.976 18.6256 12.7563 0.497148 -0.390083 -0.775035
12.114 19.3041 12.8322 -0.301714 0.382766 0.873189
20.1571 9.78098 12.7736 -0.729542 0.560244 -0.392295
20.9306 14.0322 18.5436 0.282258 -0.780347 -0.558022
23.3088 15.0469 18.6398 0.0862666 -0.445111 -0.89131
17.4772 18.2493 9.51276 0.28043 -0.488417 0.826322
10.9486 19.2266 7.23386 -0.916222 0.289746 0.276738
19.8703 14.8671 8.5271 -0.72742 0.462562 0.506849
16.3393 20.8466 6.27933 -0.996358 0.0842582 -0.0131189
21.1692 15.0596 8.71424 -0.53835 -0.759327 0.365516
13.766 9.27352 7.91668 0.0159338 -0.92224 0.38629
21.385 11.8685 17.2188 0.232147 -0.0580707 0.970946
20.5042 12.4974 17.0355 -0.729063 -0.666391 -0.156173
19.6663 16.4277 18.7484 0.0435025 0.888547 -0.456719
15.6751 16.489 12.5317 -0.173778 -0.934656 -0.310193
20.9897 20.1319 15.7547 0.135628 0.718169 0.682524
16.9004 11.4208 8.84627 0.913488 0.0371648 0.405165
12.2174 15.5084 9.58253 0.289754 -0.86638 -0.406729
10.6423 18.801 4.9154 0.644551 -0.0612763 -0.762102
22.8471 15.6027 10.0994 -0.155145 -0.977465 0.143147
11.3996 14.8365 18.0514 -0.0264826 -0.21237 0.97683
23.0211 15.3 15.5037 0.496998 -0.090443 -0.863026
18.6811 17.4417 7.91653 0.372864 0.821339 -0.431711
11.699 19.9684 9.72039 0.276034 0.753015 -0.597305
20.3502 13.9643 14.6487 -0.552984 -0.0860965 -0.828732
22.1162 20.481 4.60433 0.905334 0.227674 -0.358518
11.2783 11.6618 8.65752 -0.780204 0.385362 -0.492725
17.3229 9.6999 18.1858 0.16576 0.92635 0.338229
22.717 17.7621 7.01897 0.0546535 0.277701 -0.959112
12.9933 9.51542 9.30979 -0.335987 0.482928 -0.808636
13.2332 22.1013 7.88322 -0.494407 0.791277 -0.359781
15.7585 18.4284 6.43708 0.938549 -0.182895 0.292703
9.06052 21.8362 8.52307 -0.91214 -0.397992 -0.097991
14.7678 12.1732 8.29017 -0.996119 -0.085839 -0.0194434
20.0802 20.6077 13.7555 -0.182291 -0.0968078 -0.978467
20.054 14.3651 17.9104 -0.0716464 -0.862713 -0.500594
21.3744 17.9789 11.3664 0.281667 0.865215 -0.414808
18.0908 12.3142 10.6269 0.188534 -0.676146 0.712237
13.327 20.4524 13.6889 -0.995076 -0.0666442 -0.0733675
19.9483 20.194 15.7083 -0.146578 -0.96323 -0.225171
21.2634 16.8324 4.63744 0.685227 0.628826 0.36748
21.0683 13.1569 13.9733 0.0409279 0.670763 -0.740542
17.1607 17.3281 13.9919 -0.589076 -0.797811 0.128402
21.0668 14.7393 17.8327 -0.0747959 -0.750467 -0.656661
15.2151 20.0069 11.1735 0.241949 0.959685 0.14306
12.5181 15.9556 18.669 -0.883368 -0.271374 -0.382122
12.5707 8.28385 12.0013 0.694036 0.718859 -0.0394432
12.8843 18.4436 17.9333 0.710259 -0.359301 -0.605339
17.7137 9.47472 14.3069 0.353527 -0.48749 0.798356
16.1622 16.5241 6.30283 -0.384396 -0.821532 -0.421099
23.0829 19.7451 13.3987 0.169296 0.795527 0.581787
19.1555 11.6102 8.16744 0.823958 -0.35304 0.443235
20.608 22.8893 6.81333 -0.261673 -0.960943 -0.0900934
13.6622 11.5296 7.50431 -0.987345 0.157403 -0.019353
15.0519 18.8706 9.42609 0.48284 -0.547401 0.683533
10.9135 19.747 5.29345 0.40503 0.35731 -0.841594
9.61055 22.6843 9.72115 -0.41986 -0.902498 -0.0959929
11.4722 18.3442 17.0716 -0.966729 -0.0734395 0.245033
14.7469 15.2462 5.60487 0.183262 -0.886764 -0.424341
19.5335 13.8692 12.3181 0.859227 0.40337 0.314678
17.9652 14.96 5.29714 -0.676783 -0.324721 -0.660697
22.7505 8.35812 15.9977 0.605044 0.787806 -0.115253
20.8445 10.3589 5.62996 0.463886 0.597497 -0.65407
15.3328 19.8691 9.65863 -0.927737 0.360305 0.0973844
15.0164 12.1887 10.8563 -0.410276 0.203223 -0.88903
13.6586 13.6157 6.54555 0.785221 0.0470781 0.617423
15.0302 13.7686 12.938 0.169239 -0.0114876 0.985508
18.2786 17.273 17.264 -0.859032 0.429044 -0.27926
15.5607 15.5666 10.3882 0.264585 0.178047 -0.947784
13.7709 21.7395 9.37264 -0.463118 0.644208 -0.608702
21.7505 22.6259 10.351 -0.775889 -0.378466 0.504738
9.88398 17.3247 16.9299 0.869389 0.176213 0.461641
10.7844 18.1452 6.95054 0.477915 0.159866 0.863736
13.2407 17.3807 6.44746 -0.525121 0.841463 0.127231
11.5988 9.80379 16.8737 0.106896 0.838818 0.533814
16.3991 17.8212 10.3863 0.110131 -0.151002 0.98238
14.2847 22.1221 17.1945 -0.44418 -0.628918 -0.638096
16.5635 20.8033 8.55536 0.859141 -0.292416 0.419964
23.3353 14.4984 9.48493 0.918456 0.14676 0.367288
12.7413 19.178 5.81682 -0.959758 0.0311315 0.279099
16.5754 20.4539 12.497 0.149164 -0.957832 0.245578
19.3879 21.6794 9.5228 -0.1585 -0.987351 -0.00401026
10.4444 21.3609 5.1893 -0.677904 0.383014 0.627492
16.5079 21.3474 10.5875 -0.534018 0.458581 0.710302
15.8361 18.5604 15.057 0.315533 -0.583438 0.748357
9.29302 9.75013 10.0294 0.721186 0.192676 -0.665407
9.98814 15.3565 4.7863 -0.640125 -0.767741 0.0285272
16.1652 16.7419 11.4801 0.595443 0.24917 0.763781
21.4647 10.9298 7.2519 0.4088 -0.765153 -0.497417
17.5465 16.5423 12.1533 0.134695 0.297477 0.94518
18.7095 15.8131 10.9354 0.854801 -0.344462 0.38815
21.2709 21.5635 7.57871 -0.783157 0.620429 0.041629
17.5379 20.112 11.6011 -0.0547079 0.996294 0.066372
9.31915 18.2387 6.14773 0.337837 -0.260894 0.904323
13.6341 21.1488 17.9187 -0.317498 0.876162 0.362678
14.574 22.6215 10.3684 -0.0838747 -0.987404 0.134161
17.8282 12.7574 13.6895 -0.927666 0.366477 0.0716296
18.5278 22.812 9.99342 -0.06558 0.995496 -0.0684579
18.384 9.16594 7.18005 0.490398 -0.248475 -0.835326
23.1548 18.6289 10.1218 -0.073153 -0.996804 -0.0320956
10.3642 15.1172 12.6603 0.582578 -0.765124 -0.274205
22.6925 22.0925 12.5617 -0.0224813 0.835611 -0.548862
19.7243 9.86988 8.33997 0.202507 -0.864901 0.459279
20.2478 20.9804 10.1042 -0.308746 -0.532803 -0.787907
10.6703 20.5536 6.53858 -0.578704 0.097945 -0.809635
9.29571 12.1752 15.2824 0.50433 0.420757 -0.754066
22.8947 9.92974 15.3716 -0.642624 0.269551 0.7172
21.3147 16.2516 13.7553 -0.938395 -0.278026 -0.205222
12.9241 20.9513 14.959 -0.66342 -0.378681 0.645349
12.9822 17.3689 16.9899 -0.807202 0.30703 -0.504141
14.3086 11.1271 4.45173 0.417291 -0.258819 -0.871138
14.8829 12.6799 13.5329 0.12351 -0.398621 -0.908761
20.1519 8.56961 12.476 -0.181457 -0.565717 0.804387
9.14299 15.8842 8.74376 -0.300773 0.41503 -0.858654
21.2786 19.9793 13.3432 0.673547 0.527239 0.518027
14.6289 20.5243 14.6474 -0.700116 0.522549 0.486601
17.8962 15.4385 18.0209 -0.00733572 0.495673 0.868478
21.9225 22.4764 6.91801 0.368248 -0.896671 -0.245712
22.3164 21.3708 14.6476 0.975768 0.0788817 0.204093
21.8078 15.2872 13.4544 0.497319 0.0370402 0.866777
21.0654 10.5625 10.9568 0.326072 0.945288 -0.0104192
9.95619 20.2406 18.7845 -0.366537 -0.193537 -0.910052
9.00213 20.0668 12.1785 -0.730954 0.295994 -0.614893
13.8847 9.64679 16.8256 0.447853 -0.669561 0.59255
11.6352 11.8276 6.60333 -0.558304 -0.733941 -0.386818
13.6701 18.8701 15.7698 -0.730983 0.2277 -0.643285
18.8944 13.5754 9.98384 0.817701 -0.574739 0.0322637
19.0628 18.9881 12.7665 -0.838246 -0.264611 0.476785
19.4594 9.61554 10.7942 -0.457402 0.793093 -0.402228
21.4719 15.0321 14.8237 -0.362606 -0.192681 -0.911806
9.16928 9.64834 12.5136 0.538116 0.332164 0.77466
11.4118 9.91579 9.22489 0.759594 0.634232 -0.144107
22.217 19.8324 6.84471 0.36262 0.814361 -0.453125
9.57818 13.6528 11.3584 0.0838498 0.787194 -0.610979
23.4394 18.1388 12.4833 0.435702 -0.0358647 0.899376
10.8373 10.4013 10.7151 -0.287952 -0.112812 -0.950977
12.5213 22.1107 11.1554 0.67234 -0.103478 0.732974
18.9342 20.2777 7.69927 0.417286 -0.764221 -0.491772
22.1686 19.9658 12.4632 -0.797503 -0.525192 -0.29692
13.0795 10.0936 18.1659 -0.80678 0.579034 0.11758
13.2009 17.496 7.65761 -0.696736 0.47197 0.540188
18.6476 12.0604 15.4668 0.877078 0.261929 0.402652
20.355 10.2302 13.8136 0.869259 0.390154 0.303592
18.8452 22.3289 8.77135 0.453104 0.829604 -0.326272
16.1927 16.4726 10.0447 0.700994 -0.468673 0.537544
16.1979 21.2676 17.8058 -0.680523 0.732416 0.0213682
13.2368 13.925 4.3684 -0.593327 0.347645 0.726021
18.6766 8.54987 18.7798 0.500965 -0.490568 0.713006
15.0676 9.85187 5.25507 -0.0888207 0.939582 -0.3306
17.8121 10.2646 6.48631 0.0577828 0.0455517 -0.997289
19.922 20.0226 6.63613 0.785686 -0.568971 0.242835
21.9566 17.3842 13.2915 0.850951 -0.197325 -0.486771
20.3482 9.51097 7.55264 0.219354 0.947009 -0.234645
10.8839 13.5554 18.5674 -0.218979 0.657008 -0.72138
11.2093 8.84602 4.32474 -0.434118 0.328882 0.838676
9.53348 9.3752 18.0874 0.201116 -0.78193 -0.590032
22.5252 9.22201 9.645 0.148872 0.0577521 -0.987169
12.4156 10.5118 10.4241 0.434715 -0.0801742 -0.896992
18.0729 17.7505 6.79437 -0.403029 0.914349 -0.0391651
11.2798 10.9903 13.7424 -0.0508825 0.997721 -0.0443183
20.3212 14.8485 9.83999 0.575075 -0.794138 0.196553
20.7821 11.8844 11.453 -0.159215 0.430173 -0.888595
14.2819 13.2959 16.7011 0.23304 0.220458 -0.947149
22.2329 12.0964 5.156 0.477943 -0.264678 0.837565
10.5662 12.4873 11.3447 0.709165 0.254994 -0.657315
9.33917 21.4666 13.6462 0.963246 -0.0610541 -0.26159
22.1035 12.4055 15.4505 -0.839905 0.505777 0.196846
16.1487 9.30865 14.628 -0.507133 0.197836 0.838855
16.2641 12.0132 12.5414 0.567296 -0.115836 -0.815327
10.6977 14.2187 5.87721 -0.0417523 0.306766 -0.950869
14.7312 13.2836 8.09675 -0.86273 0.00176106 0.505662
15.4314 13.597 15.8005 -0.197852 0.243555 0.949492
10.0741 17.6066 10.8083 0.867865 -0.496322 -0.0217978
19.535 21.4647 17.5225 -0.239141 -0.960267 0.143873
13.5251 14.5346 9.29567 0.435063 0.71337 0.549384
11.6076 16.2316 15.969 0.327946 0.94326 -0.0520835
19.1208 18.0889 12.0728 0.906185 -0.4076 -0.11265
16.495 19.4167 6.75902 -0.32027 0.58344 -0.746341
16.8335 16.797 15.1125 0.0355878 0.994421 -0.0993022
14.7998 16.376 11.251 -0.375109 -0.668913 -0.641754
21.1673 9.50163 12.0755 -0.195586 0.951444 -0.237699
13.5536 19.8077 9.27555 0.397247 0.605269 -0.689815
20.8688 18.559 9.4239 0.0100965 -0.114346 0.99339
20.5613 11.2624 14.5478 0.975908 0.194383 0.0990885
11.6638 9.56935 7.54845 -0.335055 0.0624925 -0.940124
10.4351 13.9758 13.3712 0.741061 0.259363 0.619322
12.5963 18.7481 7.60783 0.749418 -0.119471 -0.651229
22.7946 12.4761 10.3729 -0.879947 -0.255984 0.400208
15.6452 13.1481 8.94787 -0.813753 -0.139623 0.56419
11.7447 18.148 6.41532 0.21931 -0.249763 0.943144
22.35 16.3088 15.4425 0.484114 0.435605 0.758869
19.646 13.6528 10.8707 0.845585 -0.241392 -0.476147
17.9546 21.4186 5.38132 0.0150989 0.253441 0.967233
13.8787 18.4748 9.91949 0.846787 0.0407931 0.530366
13.5833 12.7202 10.311 -0.37439 0.457196 -0.806724
18.2959 20.6 12.5116 -0.8545 0.519113 0.0187382
15.2773 16.2543 7.26014 0.206916 -0.762268 -0.613297
19.9391 18.451 14.5862 0.284196 0.944074 0.167203
15.0025 19.4531 16.507 0.145732 -0.576017 -0.804342
19.3952 20.2219 10.3515 -0.401371 0.910241 0.101801
19.1531 13.9341 18.6143 0.54198 0.708764 0.451565
20.3801 16.1547 11.8724 -0.670314 0.71726 0.190311
23.2996 11.5951 11.8779 -0.651938 -0.677694 0.340158
9.75239 20.1458 13.6577 0.67449 -0.572442 0.466233
22.7788 14.1578 4.61735 0.887969 -0.0522746 -0.456922
14.5107 17.6076 8.93188 -0.165567 -0.190599 -0.967605
9.4598 17.9127 14.7825 -0.193844 0.82787 0.526361
18.8604 19.8898 18.5124 -0.697045 0.514203 0.499724
23.1867 13.1239 16.9672 0.280128 0.700746 0.656112
21.9974 18.786 9.71788 0.271822 -0.280186 0.920657
15.7205 20.3265 17.3203 0.141765 -0.00555065 0.989885
21.3845 19.3151 16.5053 -0.308923 0.836293 0.452969
12.1398 11.2785 15.0979 0.879677 -0.0836504 0.468158
18.3088 20.3069 9.90296 -0.479179 0.865289 -0.147179
23.0767 17.0016 11.1525 0.676226 0.502059 0.539125
16.3836 14.6989 12.2175 -0.80899 0.270284 0.521998
13.1204 14.9263 5.90491 0.888974 -0.449232 -0.0889691
23.3774 13.0641 12.9137 0.243575 0.960546 0.134251
9.75983 18.0357 15.972 -0.896599 0.149289 0.41692
10.9052 8.3176 8.27847 -0.57156 -0.682345 -0.455768
12.9754 12.5711 13.9876 0.0541145 0.96952 0.23896
13.1301 16.3476 16.4913 -0.190076 -0.391365 0.900391
18.2961 16.2463 9.49208 0.742404 -0.305963 0.596006
17.1535 13.9702 9.64367 -0.595341 -0.300351 0.745223
12.3757 21.4053 12.7747 0.873001 0.00141685 0.487717
10.9581 16.3419 15.0225 0.22465 0.927033 -0.300235
12.3084 15.3578 10.8879 0.469882 -0.577762 -0.667385
17.4559 13.6164 15.5887 -0.764254 0.0050458 0.644896
21.9025 21.2428 15.5528 0.776126 0.486916 0.400676
22.0717 15.0739 9.41703 -0.48136 -0.715321 0.506565
15.8856 19.6608 15.6415 0.69863 0.0810367 0.710879
16.3705 22.1182 13.637 0.155247 -0.263729 0.952022
19.9744 17.8043 7.11659 -0.660756 -0.574723 -0.4828
17.2589 16.9776 7.1772 -0.1591 0.92369 0.348545
19.5937 13.7225 8.68308 0.975539 -0.0207805 -0.218841
11.0149 20.1665 13.1084 -0.0569284 0.596824 0.80035
19.8141 19.756 11.3882 -0.734063 -0.644654 0.213478
15.9448 8.55404 18.403 0.45545 -0.0137068 -0.890156
23.1577 16.5864 17.4538 0.588749 0.788342 0.178582
12.4694 20.0937 11.7282 0.282381 -0.216195 -0.934623
11.9132 22.933 7.91378 0.486654 -0.276495 0.828685
19.5587 17.1345 5.48834 -0.419371 -0.835046 -0.356126
10.2995 16.0609 18.1772 0.571142 -0.521307 0.634063
11.5279 13.5369 10.2109 0.611309 0.142657 0.778428
22.201 16.6175 11.6523 0.116611 0.937351 0.328291
21.7477 11.4414 9.94451 -0.988088 -0.153414 -0.0120717
16.445 11.4009 15.8091 -0.799844 0.245839 0.547551
16.3041 10.6387 18.8161 0.81294 -0.411457 0.412107
14.3833 19.1621 7.09488 -0.0415987 0.329511 -0.943235
13.5356 15.4493 10.9467 0.129035 -0.423649 0.896589
11.9459 21.5878 13.823 -0.761263 -0.335859 -0.554687
14.9392 14.5016 15.4524 0.0718822 0.645375 0.760477
17.5297 12.217 12.8876 0.640249 -0.617041 0.457539
22.3882 10.8226 15.1172 0.40111 0.453732 0.795763
14.1466 11.0104 8.99157 -0.683941 -0.160032 0.711769
20.8155 10.5894 18.4112 0.401593 0.766103 0.501806
15.8958 9.03478 10.7707 0.0788338 -0.0432124 0.995951
15.0891 20.6321 18.6521 -0.393121 -0.781476 -0.484512
12.723 14.8626 17.7053 -0.651095 0.750913 -0.110473
12.1991 21.3207 10.0368 -0.227164 0.341592 -0.911982
20.2472 20.6431 16.7652 -3.04856e-05 0.99769 0.0679301
18.7522 21.8462 14.5435 -0.608047 -0.250748 0.753263
10.8109 16.3151 16.8287 -0.0496469 0.577317 -0.815009
21.6964 18.9154 18.981 0.079139 -0.530373 -0.844063
17.1121 8.39639 13.1032 0.370381 -0.0127468 0.928793
20.9925 13.3729 12.3098 0.0915473 0.901162 -0.423705
17.588 17.7742 5.88445 0.0643846 0.988843 -0.134331
9.02315 22.8505 15.1506 -0.328006 -0.793368 0.512816
15.6608 11.1531 11.0845 0.892974 0.16004 -0.420696
23.1462 13.2356 11.3139 -0.412327 -0.401587 0.817749
12.549 9.65364 11.7025 0.453716 0.361653 -0.814462
10.3819 13.6392 16.9006 -0.792835 0.138342 -0.593527
13.7221 12.1694 17.975 -0.880441 0.374701 -0.290556
23.0682 16.3428 6.41916 -0.562796 -0.0453212 0.825353
16.3101 22.6661 10.9265 -0.356575 0.157202 0.920946
18.0412 19.4597 8.70561 -0.19627 0.851331 -0.486532
15.9152 11.9604 14.8161 0.829556 -0.52052 -0.202229
23.4374 16.0916 13.5019 0.962568 -0.150537 0.225394
14.6155 21.478 12.0336 0.503149 -0.494473 0.708758
15.3242 19.802 6.90704 -0.334926 0.487453 -0.806359
13.6505 17.6334 15.3915 -0.203511 0.267641 0.941781
20.6868 8.60013 14.0895 0.161947 -0.696747 -0.698796
13.7832 22.175 15.0664 0.392635 0.125417 -0.911103
17.2295 22.1741 12.1982 0.0220752 -0.235845 0.97154
11.8281 9.28935 15.3691 -0.248127 0.91003 -0.332083
9.28465 17.419 9.8834 0.18615 0.978947 0.0837282
18.9917 15.6634 13.2296 0.805362 0.415943 -0.422356
19.1903 22.6203 18.1245 0.0899413 -0.651304 0.753467
13.7714 9.13462 15.1352 0.819667 -0.296888 -0.489901
9.58794 17.284 12.9365 -0.589734 -0.323571 0.739943
20.4259 12.6051 18.824 -0.597703 0.504393 -0.623168
19.3707 22.3762 12.103 0.1965 -0.547778 0.81322
11.9865 9.44794 10.3146 -0.206343 0.235559 0.949702
16.8013 19.9738 10.5885 -0.850767 -0.518334 -0.0867552
9.18361 15.8039 18.2558 -0.175398 -0.100209 -0.979384
18.363 22.8491 12.4396 0.725296 -0.194282 0.660455
11.3695 22.0765 5.29964 -0.791637 0.31725 0.522172
17.5572 19.4494 15.76 0.589826 -0.633249 0.5011
16.5851 17.7121 4.40365 0.856918 0.402366 -0.322168
10.8235 21.3893 10.3249 0.313983 -0.143317 -0.938549
20.3046 21.9592 11.8067 -0.468747 -0.880209 0.0742176
11.0273 13.3852 14.3581 -0.477463 -0.531903 -0.699363
12.4819 12.4803 16.1556 0.6034 -0.795816 0.05085
12.5748 13.0949 18.6633 -0.744607 0.655661 -0.125176
10.5099 11.7017 15.4991 -0.216245 -0.922108 0.320866
14.5828 9.52578 13.071 0.762612 -0.12459 0.634745
20.0185 11.4353 13.4117 -0.952927 0.302792 -0.0156888
14.1766 15.9196 12.0024 0.341271 -0.920713 0.189268
10.6218 17.4839 9.7058 0.454859 -0.860761 0.228458
14.8715 18.365 12.5785 -0.67888 0.559596 0.475368
9.68139 9.59625 15.5497 -0.0217243 0.331894 -0.943066
15.6384 8.73989 12.977 0.477346 -0.424445 0.769407
21.9032 11.6453 11.8749 -0.145248 -0.960191 0.238614
21.321 9.92494 4.48964 -0.928723 0.278276 0.245023
12.9315 16.5676 11.26 0.0698685 0.436033 -0.897214
19.827 11.077 5.42927 0.741456 0.259647 -0.61873
21.0179 9.15153 17.2233 -0.266317 -0.541093 0.79768
18.9952 20.2671 15.2175 0.247605 0.558994 -0.791339
17.8084 20.3464 16.4855 0.442996 0.737817 -0.509293
21.7023 16.2411 9.30656 -0.503222 -0.429716 0.749741
11.8473 8.68413 11.3471 0.865941 0.187611 -0.463626
22.2585 19.9911 17.0256 0.0489705 -0.935436 0.350087
21.9777 20.1177 8.66645 0.669486 -0.590044 0.451262
10.494 10.1448 5.77626 0.0306664 -0.474326 0.879815
21.3377 8.28187 5.76555 -0.481215 -0.573714 -0.662785
23.3355 20.2024 17.2987 0.282555 -0.837753 0.467261
21.8499 8.49186 16.8257 0.614996 0.717758 0.326502
22.4071 13.8724 13.5438 -0.672271 0.35728 -0.648384
16.7752 13.9135 13.132 0.462235 -0.0703236 -0.883965
12.0249 10.6873 12.7201 -0.609477 -0.784904 -0.11164
12.1491 12.3681 8.85264 -0.873748 0.476537 0.0973498
9.59956 14.1594 14.6714 -0.986986 -0.159464 0.0207234
15.8106 10.915 13.74 -0.719838 0.653386 0.234349
11.8207 20.4595 5.47517 -0.0854111 -0.531013 0.843048
19.2515 16.0406 16.2118 0.451794 -0.822587 0.3453
14.7279 10.6195 13.7363 0.412243 -0.65688 0.631319
14.5154 16.4232 14.9292 -0.0537107 -0.852123 0.520579
18.3022 11.1757 7.12208 0.480802 -0.750856 0.452819
9.34215 12.4627 7.87252 -0.65646 -0.732504 0.180272
16.2169 11.3216 4.94779 0.864656 -0.243156 0.439596
21.2959 8.61912 15.2463 -0.420585 0.175732 0.890071
10.8224 9.29839 11.0529 0.327179 -0.161431 -0.931071
13.2926 19.8448 12.519 -0.216367 -0.347705 0.912297
13.9623 22.159 6.98478 0.15322 -0.985119 -0.0778726
11.8254 12.6418 14.4916 -0.202222 0.359452 0.910989
17.9078 17.6119 14.8205 -0.0602648 -0.989981 -0.127691
20.805 13.2569 9.34338 0.867088 0.483222 0.121058
17.8292 9.11406 16.0303 -0.811283 0.231359 -0.536929
20.0181 9.33807 16.7339 -0.395471 0.0140249 0.918371
16.7074 20.766 18.9633 0.405834 -0.87081 -0.277468
17.5644 12.69 14.7866 0.975679 0.0756068 0.205753
11.84 11.5162 16.2273 0.477059 -0.715947 0.509739
17.0565 13.2145 11.5128 -0.70862 0.678538 -0.193506
10.3973 11.6117 13.3118 0.361625 0.81091 -0.460058
11.121 18.3894 11.4257 0.997054 -0.0359278 0.0677717
22.3148 8.4185 18.0955 -0.74945 0.658215 0.071253
20.9781 13.1053 7.44017 0.863335 -0.465436 -0.194991
11.1132 14.8254 7.73468 -0.590898 -0.80128 -0.0937572
10.3028 14.9705 13.7236 -0.966799 -0.142632 0.21203
22.7054 11.8386 14.2229 -0.659393 -0.685777 -0.308076
14.4524 16.5709 9.52322 0.613715 0.105892 -0.782394
11.4619 22.6534 9.34811 0.0992458 0.519109 0.848926
19.5131 12.7536 12.8737 0.535906 -0.80151 -0.265303
12.3701 13.2774 4.98182 0.802162 -0.542545 0.249361
13.5771 15.253 8.07015 -0.904351 -0.109973 0.412377
14.8943 11.2281 9.95439 -0.248738 -0.727967 0.6389
11.8312 16.9593 17.1931 0.678779 -0.469029 0.56504
10.7193 19.3212 18.0803 -0.374481 0.117525 0.919756
16.3579 14.7845 10.819 -0.872523 -0.425285 -0.240489
22.0906 13.5706 16.6357 0.00890042 -0.999864 0.0138588
20.3633 17.0242 13.8131 -0.115312 0.174379 -0.977904
13.9867 13.6428 13.848 0.064575 0.0137137 0.997819
12.109 14.8256 12.397 -0.552417 -0.579089 0.599576
22.45 22.4423 14.9075 -0.851465 -0.114892 0.511672
12.6506 9.79289 16.7209 0.328253 -0.553287 0.765587
21.8037 10.8446 16.9968 0.551479 0.708264 -0.440719
10.5286 11.8421 18.6729 -0.469528 0.428005 -0.77224
9.16005 11 9.52431 0.590576 -0.388762 0.707166
20.3173 18.4023 16.7445 -0.706773 0.380594 0.596339
11.7828 19.8458 17.7275 -0.294999 -0.323651 0.899014
10.5192 10.2235 14.7413 0.59961 -0.763829 -0.238817
20.0231 10.724 11.0211 0.0704052 -0.723172 0.68707
20.7793 11.5389 6.1364 0.163011 0.903324 -0.396778
12.2235 12.2318 11.781 0.213135 0.24614 0.94551
9.50334 12.9559 4.55017 0.254165 0.929334 0.267842
15.2504 17.7314 14.8886 0.0668926 0.458859 -0.885987
22.5762 12.5616 8.06928 0.555146 -0.203203 -0.806549
19.1146 15.5426 18.1998 0.586685 0.472247 -0.657863
13.2231 18.4563 14.4774 -0.494888 -0.528842 0.689501
13.881 10.9292 12.3226 -0.514436 -0.77275 0.37177
19.7369 15.8537 15.1384 -0.0262624 -0.999655 -0.000168359
16.7259 11.189 7.6208 0.939742 -0.276947 0.200462
17.4936 22.077 14.4261 -0.305231 -0.341789 0.888827
15.9263 13.0357 13.033 0.0807462 0.269789 -0.959528
21.418 16.4313 16.8292 0.852049 0.425328 0.305137
12.0533 21.935 7.65084 0.417334 -0.204172 0.88552
13.7983 17.5704 5.59851 -0.000465297 0.852166 0.523272
10.6586 18.8101 15.0758 -0.038838 -0.831213 -0.554597
13.4545 15.0208 14.1596 0.0134598 -0.687507 0.726053
13.0664 9.05969 13.2386 0.75815 0.543345 0.360534
21.9371 14.3312 11.2035 0.221073 0.571769 0.790068
14.367 12.9798 11.7957 -0.152884 -0.0455481 0.987194
16.6363 18.2006 13.7626 0.446504 0.429661 -0.784873
19.0201 14.459 14.0049 -0.565778 -0.811305 0.147239
12.0854 16.167 6.59979 0.778826 0.273499 -0.564473
15.9113 15.3338 15.692 0.713158 -0.0793602 0.696497
15.6755 20.1161 4.88213 -0.134822 -0.9444 -0.299886
22.205 19.3699 13.9306 -0.538467 -0.253105 -0.803736
10.8881 9.89894 15.8931 0.338935 0.929844 -0.143221
13.2364 11.2378 17.9294 -0.087384 -0.249223 -0.964496
21.8905 22.4374 7.94447 0.642984 -0.758135 -0.108638
9.67795 19.1012 16.9667 -0.288426 -0.9235 0.252899
23.0597 20.7313 15.8784 0.79717 0.577531 -0.176007
10.0782 11.2553 7.62038 0.962251 0.122052 -0.243263
9.47305 20.7699 11.6034 0.585188 -0.791664 -0.175566
10.5004 14.8672 16.74 -0.762324 0.640703 0.091446
11.8866 16.9187 5.09977 -0.385634 -0.554263 -0.737617
10.0252 10.4339 11.4845 -0.409633 -0.860121 -0.303962
10.404 18.3136 13.4865 0.0432946 0.989968 -0.134494
15.6492 14.6167 9.58043 -0.927862 0.0251573 0.372073
17.9792 18.0179 8.4271 0.0582328 -0.58457 0.809251
21.8706 21.0132 5.8433 0.498438 0.660479 -0.56154
12.7841 17.6348 11.7098 0.650741 0.314767 0.690983
11.5552 10.6767 7.10319 -0.951582 -0.185529 -0.245093
19.1226 21.0642 18.5503 0.816902 -0.54964 0.174833
21.5023 16.6042 12.5783 -0.547909 0.835727 0.0368184
11.7763 22.7605 13.6241 0.719544 -0.430663 -0.54478
21.4494 21.9074 12.2826 0.150372 0.459177 0.875526
13.1407 8.59687 14.1675 0.0593929 -0.915284 -0.398406
15.3271 17.8602 10.998 0.226363 0.698029 0.679349
18.7913 16.8214 11.8548 -0.451099 0.844536 -0.288563
14.7498 21.1534 17.3514 -0.0618726 0.576019 0.815092
17.9095 19.8012 13.1602 -0.519794 -0.461652 -0.718813
22.9332 14.2077 15.6183 -0.999373 0.0351547 0.00432675
12.3423 12.0292 4.93447 -0.788341 0.299493 -0.537422
10.3633 17.783 8.32011 0.287553 -0.795616 0.533205
17.7727 9.28035 12.4339 0.661866 0.219676 0.716712
23.3881 10.1357 13.6795 -0.327032 -0.713036 -0.620185
