16.3255 23.2781 16.2456 0.866191 -0.48157 0.13343
21.0399 9.32665 14.3994 0.941429 -0.217997 0.257272
11.4213 19.9893 16.729 0.00448041 0.0505122 0.998713
21.3961 16.6402 3.22813 0.959193 0.122421 -0.254877
15.4042 12.3715 12.5517 0.914392 0.404757 -0.00766288
10.4194 13.7559 17.1864 0.906057 0.104915 0.409944
21.3221 8.32007 4.99834 0.986893 0.141718 0.0771834
11.4004 10.378 16.7183 -0.472282 -0.747408 -0.46726
21.877 8.09412 3.92999 0.522684 -0.825809 0.211757
10.1222 20.1053 11.1937 0.900879 -0.254791 -0.351423
10.5204 18.5278 16.2014 0.9672 0.0861285 -0.238967
8.07932 10.2783 5.49612 0.313854 -0.713576 0.626343
16.2716 14.6546 17.9805 0.889948 -0.352706 -0.289122
15.4601 18.6651 2.93823 -0.661022 0.634705 0.40025
11.9265 9.0429 16.9557 0.880292 0.391511 0.267965
20.2212 9.16152 6.46654 0.665303 -0.550142 -0.504694
13.0748 9.8515 6.06815 0.168793 0.38396 -0.90779
17.3813 19.1914 4.51475 0.955452 -0.0025316 0.295136
10.6714 12.2508 13.9713 0.437881 0.276107 0.855584
13.6485 20.9279 16.0677 -0.381626 0.161693 0.910064
17.9898 13.4689 13.572 0.784276 0.351447 0.511269
16.5667 11.657 16.5541 -0.165318 -0.970997 0.172728
10.241 10.2827 17.0181 -0.14062 -0.571835 -0.808227
7.47995 19.6653 10.9165 0.12892 -0.983402 0.12767
17.2588 19.6538 17.4101 -0.308526 0.197344 -0.93052
14.9221 8.28766 7.99063 -0.0674562 -0.985781 0.153898
16.6409 20.0157 6.89519 0.433479 0.535083 -0.725108
16.9029 9.12613 12.6862 -0.087417 -0.395236 0.914411
20.0303 13.0138 6.26203 -0.307826 -0.351679 0.884062
7.49765 18.9654 3.46456 -0.75828 0.650686 0.0402367
12.6098 8.48298 17.81 -0.156149 -0.516897 -0.841686
20.4955 9.11781 7.69851 -0.5494 -0.226871 0.80417
14.5753 18.4593 3.82216 0.665111 0.129024 0.735514
16.7411 11.7494 5.09264 0.0200451 -0.816984 -0.576312
19.0469 16.7911 4.32199 0.0023769 0.870564 -0.492049
15.5594 19.6374 16.1692 -0.108484 -0.741823 0.661763
17.906 8.62828 14.7411 0.819648 -0.352126 0.451867
7.32668 21.6585 14.886 -0.807717 -0.52354 -0.271106
13.9696 14.9599 15.5334 -0.140311 0.972183 0.187544
13.686 10.6225 14.9641 0.249524 -0.557725 0.791631
12.6231 18.5064 16.6412 -0.862648 0.493892 0.109129
7.30603 14.9608 11.345 0.0223994 -0.842007 0.539001
11.3726 17.8403 8.47755 0.903259 0.398182 0.159922
21.9232 17.0542 4.29252 -0.71809 -0.203095 0.665657
6.99662 18.9155 13.547 0.438701 0.297018 0.848128
14.309 9.5715 6.11989 -0.732991 -0.602528 0.315728
16.2948 13.572 8.56389 -0.778907 0.0468411 -0.625387
20.459 15.9894 9.24292 -0.922307 -0.385844 -0.0217681
14.0004 15.6033 6.55735 0.824974 -0.177554 0.536557
21.6046 14.7411 6.46065 -0.421693 -0.89748 -0.129246
17.227 14.1298 4.54759 -0.182388 0.840939 -0.509467
16.7896 13.8913 3.49334 0.670179 0.48466 -0.562107
17.5043 20.7091 4.79283 0.605637 0.575522 0.549525
19.1088 14.2487 3.89635 0.0600334 0.94229 0.329371
12.756 14.2222 16.3061 0.114187 0.868164 -0.482963
21.5495 15.5057 5.27032 0.338454 0.701612 0.627048
11.3885 9.76945 17.6172 -0.94794 -0.317919 0.0183553
15.3578 18.4371 15.2364 -0.551263 -0.834178 -0.0160009
7.38982 18.1219 14.6745 0.990197 -0.0150917 0.138857
21.8308 15.6865 18.0815 0.909215 0.254562 0.329434
10.2879 12.2503 5.55864 0.32992 -0.0619772 0.941972
20.9062 12.8656 7.18617 -0.222446 -0.974907 0.00861551
15.4063 16.349 10.2144 -0.870157 0.163842 0.464739
20.4619 17.3333 7.76827 -0.815676 0.231231 0.530288
12.8054 11.2434 12.8258 -0.213379 0.500569 -0.838987
21.1864 22.5466 6.7888 -0.56109 -0.634545 -0.531536
19.5384 15.2841 6.19844 -0.16164 -0.228151 0.960114
12.7017 22.4419 10.1383 0.624694 0.771466 -0.12082
13.3371 19.7044 4.62246 0.909107 -0.2416 0.339343
9.7438 21.0585 9.29815 -0.0139706 0.611747 -0.79093
17.8769 18.8347 12.061 0.0106374 -0.381016 -0.924507
11.6789 16.0293 10.3303 0.344615 -0.938355 -0.0270384
11.6584 21.4289 3.11128 -0.53255 -0.801064 -0.273289
20.9822 15.1423 11.7804 0.563503 0.689746 -0.454659
7.6059 13.3606 17.594 -0.674382 -0.411905 0.612816
14.1272 14.205 4.46783 0.999093 0.0422383 0.00530847
15.3997 13.7331 17.3221 -0.825451 0.241677 0.51012
19.3345 11.5255 3.22705 -0.041025 0.927801 0.370812
13.551 19.7203 16.8158 -0.843133 0.532354 0.0756727
12.8134 8.62506 8.71949 -0.936253 -0.0325616 -0.349815
17.4026 8.20029 12.4658 -0.961604 -0.204864 0.182617
20.857 16.3675 15.6812 -0.252733 -0.958165 -0.134333
7.36959 22.5027 11.5335 0.329978 -0.38352 -0.86257
8.39744 8.86719 5.16644 0.104651 -0.222888 0.969211
16.4711 13.359 15.62 0.624465 0.587931 -0.51418
19.2523 12.4959 14.6583 -0.226571 0.292429 0.929059
7.95514 15.1077 7.07456 -0.306589 0.498561 -0.810827
7.89516 11.0867 3.86874 0.861407 0.498837 -0.0956035
21.0754 15.8136 13.0995 -0.676819 0.0236621 0.735769
11.6055 19.9741 5.20553 -0.61254 -0.770628 0.175862
7.15866 19.6396 6.44178 0.560689 -0.393154 0.728737
9.26506 8.10049 4.43606 -0.161836 0.934915 -0.315822
12.811 21.8573 9.00677 0.916422 0.0122909 0.400025
22.3719 14.8679 3.499 0.878036 0.46268 0.122397
17.2161 21.3711 12.1336 0.351347 -0.927591 -0.127009
15.7902 11.5539 11.7206 0.918223 0.325854 -0.225135
22.302 19.431 4.83218 -0.917897 -0.209706 -0.336882
10.095 16.1116 13.7746 -0.803298 -0.139847 0.578925
19.8986 16.2952 16.2168 0.0268365 -0.997626 -0.0634218
16.4239 19.7824 5.20514 -0.117085 -0.992162 -0.0436615
17.2309 16.2341 15.4494 -0.618073 -0.762772 -0.190168
11.67 19.6559 6.42424 0.636672 0.769748 -0.0462147
15.953 11.3206 5.5757 -0.368047 0.918564 0.144157
9.53112 20.0252 8.46044 0.448878 0.863218 -0.231006
14.6994 8.08047 4.79908 0.96631 0.217542 0.137551
21.5612 13.8837 13.4782 -0.573943 -0.126847 -0.809011
16.1011 11.8908 7.6897 -0.0903225 -0.992818 0.0784469
17.0101 17.9326 3.20316 -0.0203811 -0.357431 -0.933717
19.5053 19.053 5.50727 -0.721997 -0.684727 -0.0993432
19.5696 13.8208 4.8784 -0.307318 0.943921 0.120705
20.7169 15.2639 6.6802 -0.0556112 -0.815231 0.57646
14.7096 17.1528 14.3259 0.852928 -0.426097 0.301587
20.49 13.0765 4.02353 -0.698385 0.0976724 -0.709026
16.8362 20.0055 11.3261 -0.155907 0.981815 -0.108312
17.9336 13.7288 3.81625 -0.397903 -0.80992 0.430934
14.4136 17.7919 17.1694 -0.683863 -0.471291 0.556971
8.34573 18.3484 15.9297 0.68075 0.645415 0.346437
15.7492 9.90124 3.50061 -0.923376 0.0305237 -0.382681
18.3646 8.31853 3.86688 -0.709644 0.407775 -0.574565
20.4668 18.417 5.86698 -0.247485 0.772363 0.584984
12.3058 20.2481 14.3857 0.249721 0.47894 -0.84158
9.93217 8.18304 10.9757 0.497083 -0.818379 0.288382
20.6693 17.734 3.06604 -0.00404566 -0.391833 0.920028
10.3841 19.55 15.9168 0.652715 -0.219629 -0.725069
18.928 23.1007 12.2431 0.895141 0.322194 -0.308082
16.1831 22.2765 3.41319 0.25888 0.597388 -0.759018
7.7751 13.3445 13.5863 -0.33726 0.685137 -0.645634
10.3841 20.6131 12.0734 0.852988 0.0806691 -0.515659
21.7238 20.5346 4.52131 -0.656321 0.192702 0.729458
21.1295 21.7999 16.7388 0.618356 0.750938 -0.231793
17.6971 10.6033 15.2093 -0.741578 -0.126235 0.658883
17.4477 19.0528 14.2991 0.377362 0.305236 0.874316
15.1899 11.7525 6.78587 0.81234 0.489571 -0.316899
17.6969 9.61685 15.512 -0.747389 -0.158027 -0.64532
13.4525 17.8173 13.1372 0.0273731 0.999299 0.0255486
21.1069 22.1881 9.15393 -0.166044 -0.840091 -0.516408
19.2693 9.69864 11.5233 -0.313962 0.949402 -0.00796294
7.96675 22.3847 4.3326 0.0690743 -0.827148 -0.557723
12.5198 17.6713 5.35277 -0.515335 0.667231 0.537803
18.9022 17.5006 16.9131 0.611739 0.79106 -0.000216074
20.702 9.96514 15.2558 0.876486 0.356087 0.323999
18.2178 9.85029 14.0073 0.964372 0.210823 0.159812
16.1612 20.9643 6.65576 -0.296334 -0.474637 0.828798
17.392 12.5321 14.0666 0.304806 0.812413 0.49707
11.1965 12.5278 16.0159 0.289134 0.92071 0.262096
9.18279 21.5681 3.75553 0.105833 0.0463199 0.993305
18.0529 8.14684 8.83991 0.212426 -0.976677 0.0312631
8.88055 20.1812 7.39814 0.683045 0.428777 -0.591269
20.1829 14.8592 3.59871 -0.183322 0.706086 -0.683985
11.8413 16.3413 5.34547 -0.896798 -0.358586 -0.25917
10.2418 23.0917 2.97221 -0.644156 -0.735976 -0.208332
16.8944 23.2626 15.2372 -0.538351 0.84216 -0.0307326
18.0241 16.2517 9.24585 -0.882213 0.132311 0.451879
14.211 21.2734 13.4359 -0.76909 -0.458223 0.445569
14.9776 21.2641 5.45572 0.960747 -0.0227723 -0.276491
16.5091 16.1844 16.5402 0.494968 0.663335 0.561243
11.0026 17.5308 5.5075 0.320427 0.857657 -0.402182
15.709 19.8209 2.75163 -0.377574 0.0163678 -0.925835
13.1902 15.5098 9.77639 -0.66171 -0.646811 -0.379177
14.218 14.8018 5.59514 -0.0720755 -0.732713 0.67671
16.7171 15.6922 3.02186 -0.790117 -0.418633 0.44773
20.5808 9.32545 4.56047 -0.0757831 -0.396499 -0.914902
19.3283 17.0362 17.8065 0.150605 -0.805015 -0.573819
10.3416 22.7178 14.4739 -0.485056 0.0423214 -0.873458
11.0213 11.3466 11.2005 -0.576741 -0.706083 0.410873
17.9054 11.6157 5.67415 0.226472 -0.0527296 0.972589
19.8661 11.3384 6.80062 -0.60416 0.56232 0.564612
16.7157 8.17644 6.03105 -0.366049 -0.878747 0.306287
22.0808 9.09988 2.86658 -0.56809 0.12971 -0.81268
15.7473 12.6448 3.08912 -0.46725 0.0814421 -0.880366
7.45628 18.3213 4.58542 -0.977897 0.00394811 -0.209049
19.6455 14.2005 11.5764 0.289072 0.831443 -0.47449
17.5679 10.8518 11.6227 -0.689019 0.00819262 -0.724697
19.7095 9.96675 4.68554 0.534858 0.817687 0.212875
18.6495 10.0795 5.26093 -0.000425996 0.966003 -0.25853
8.03688 21.7343 12.8608 0.0200712 0.356836 0.933951
9.68806 8.66291 16.0573 0.485954 0.223342 -0.844965
10.0501 20.7399 16.5916 0.510142 -0.408424 0.756932
10.7679 20.3749 15.0418 -0.03698 -0.26044 -0.964782
9.24007 14.1587 11.2498 -0.870237 0.430529 -0.239443
18.5976 10.5291 6.85549 0.878878 0.169467 0.44593
11.1139 14.7861 5.53459 -0.423887 -0.413724 0.8057
21.7889 11.5765 5.64709 -0.564189 0.816105 -0.125157
18.2841 12.1404 13.2447 -0.512244 -0.721449 -0.465958
13.9237 22.9569 13.3254 -0.943316 -0.260732 0.205362
21.1095 13.8855 8.14035 -0.401809 -0.85504 0.327805
17.2756 17.1465 5.92807 -0.911938 -0.402871 0.0778724
15.0893 11.0215 4.8092 -0.5834 -0.778107 0.232796
11.8421 8.79112 6.80947 0.764379 0.00965431 0.644695
14.8737 17.4747 3.48663 -0.144385 0.564235 -0.812891
15.8443 8.98005 13.5783 -0.310852 -0.578433 -0.754179
12.6819 15.2705 2.86108 0.781619 -0.234222 -0.57811
14.4109 11.2572 4.05714 0.700698 0.178517 -0.690763
15.2268 22.0208 2.78555 0.835206 0.168452 -0.523502
11.8335 14.925 15.6826 0.33525 0.481391 -0.809858
13.846 17.1302 3.50513 -0.0721061 -0.528288 -0.845998
18.4121 9.97999 3.0752 -0.222399 0.974696 0.0225111
18.3856 21.9838 2.76724 0.0828377 -0.764464 0.639322
16.951 15.9486 8.55912 0.894749 -0.0728433 -0.440589
8.27675 16.5426 16.9954 -0.0954249 -0.214612 -0.972027
19.626 11.962 4.37205 -0.928753 0.217541 0.300155
9.76366 15.1182 3.23445 -0.00584372 -0.71092 0.703248
22.1908 13.8553 17.1449 -0.559123 0.227066 0.797385
17.373 14.3721 8.82223 0.815006 -0.552267 -0.175403
19.9175 14.4883 8.0028 0.193488 -0.879252 -0.43529
17.6577 11.6416 17.3745 -0.686138 0.724039 -0.0705834
9.23766 8.83664 9.4882 0.747541 -0.622334 -0.232128
19.0801 8.74479 7.85703 -0.244955 0.128655 0.96096
14.4394 13.1926 16.2961 -0.673037 0.704179 -0.226173
12.6849 13.1115 8.44714 -0.954797 -0.117302 0.273135
10.2409 19.3055 2.73845 -0.521519 -0.0346605 0.852536
12.6654 11.2888 9.63552 -0.743815 -0.544049 -0.388264
11.5412 14.5248 12.3433 -0.0579942 0.996044 0.0673234
8.06517 11.4034 10.3247 0.551657 0.493703 -0.672259
12.3064 17.5162 12.1766 0.871079 -0.491066 0.00865811
20.3856 11.7645 10.813 0.720114 0.173091 0.67192
7.2327 8.1625 7.17601 0.244826 -0.945527 0.214565
15.8341 9.21367 6.01397 0.639964 0.681418 0.355129
16.4341 16.6369 11.9187 -0.571141 0.814254 -0.103867
19.6879 8.17283 13.4224 -0.382212 0.913663 0.138324
9.21164 10.7325 6.1362 0.996425 -0.0826803 -0.017368
16.5221 9.47775 16.8851 -0.967368 -0.113396 0.226583
16.9648 10.4925 9.76654 0.439569 -0.367816 0.819445
11.2018 20.6439 4.29629 0.592909 -0.250183 -0.76542
19.3704 11.939 8.78683 -0.269162 -0.698066 0.663518
15.8046 8.90588 18.1514 -0.209383 -0.957482 0.19846
19.2585 14.9264 12.1473 0.270344 -0.620404 0.736216
21.5504 12.2902 8.55081 -0.890906 -0.403184 0.209113
21.0906 10.0525 13.5399 -0.529504 0.445603 0.721847
9.5419 22.2041 17.3027 0.865077 0.470905 0.172887
7.84136 16.1984 14.0675 0.183746 -0.150001 0.971461
11.3618 20.7365 7.9444 0.625562 -0.566957 -0.53594
11.7142 11.7978 3.72582 -0.399606 0.875428 -0.27192
9.33465 9.81991 5.54396 -0.642438 0.0801174 -0.762139
17.2074 20.46 3.15061 0.502029 -0.60567 0.617358
18.6723 12.0382 12.1505 -0.814659 -0.0941356 -0.572249
10.4655 12.7706 16.8868 0.42837 -0.388322 0.815907
18.5875 15.7673 6.43994 0.0175497 0.121956 0.99238
9.16146 16.0097 6.39004 -0.734536 -0.300089 -0.608608
8.6399 15.3165 13.7574 -0.131316 -0.917054 0.376522
15.1733 22.7869 5.57102 0.198981 0.438504 0.876425
13.1819 20.4219 11.1318 -0.470591 -0.648351 0.598486
9.26438 16.6303 15.1466 -0.316823 0.869615 -0.378673
15.7739 15.4972 11.6486 -0.392744 0.870778 -0.2958
10.2663 15.5812 5.81416 -0.67112 0.233521 -0.703609
13.6679 16.8869 8.69154 0.0177583 0.422565 0.906159
14.7197 12.1242 5.27268 0.77141 0.522687 -0.362939
18.3322 15.1984 9.37273 -0.286266 -0.141935 -0.947579
14.3082 16.9036 6.70016 -0.921105 -0.380557 0.0821074
15.9599 17.9437 5.87354 0.722054 -0.244712 0.647112
20.3978 19.4316 12.9728 -0.44892 -0.240166 -0.860692
9.4812 16.3395 16.6554 -0.378029 -0.450836 0.808604
16.6633 18.8141 17.7408 0.103897 -0.41324 -0.904676
17.9114 12.1812 2.89852 0.691045 -0.38961 -0.608819
11.6002 13.9791 7.92571 -0.753632 -0.164035 0.6365
13.5427 18.2682 9.33746 0.439655 0.150207 0.885517
14.899 14.9971 17.2563 -0.708597 0.10255 0.698122
20.2267 16.5248 4.97046 -0.256122 0.826284 -0.501654
19.0061 8.32646 17.8609 0.96413 0.265292 0.00855725
9.39587 13.1266 14.2397 -0.13597 0.329235 0.934407
22.2694 11.5155 10.2856 0.514277 0.54389 -0.663101
10.9927 16.3523 17.6332 0.18407 0.572626 0.798885
13.6681 10.9102 9.09095 -0.85478 -0.0863396 -0.511759
15.9634 15.1264 5.20871 0.300636 -0.0904466 -0.949441
11.3831 18.3324 18.0925 -0.841339 0.24407 0.482263
9.90283 11.418 14.0471 0.330217 -0.80393 -0.494625
9.2169 20.0611 4.67075 -0.722429 0.145326 0.676
9.79867 15.978 11.4854 -0.580217 0.264117 0.770448
12.9335 12.1679 5.72166 -0.590644 0.15468 0.791968
10.1012 18.7827 7.63841 -0.939353 0.337452 -0.0611659
11.3179 15.9502 14.0108 0.253933 0.888111 -0.383114
13.8732 12.7139 14.8466 -0.0431957 0.90318 -0.427084
12.2744 22.5544 14.4545 0.130426 -0.862019 -0.489809
8.95531 20.2657 10.5743 -0.264721 0.953387 0.144832
21.6078 21.1144 17.4627 0.186887 0.933885 0.304847
11.8871 15.0598 8.21544 0.141105 0.478792 -0.866515
19.2164 20.835 6.9249 -0.441534 0.82109 0.361745
21.9589 13.9844 4.567 0.95311 0.182045 -0.241745
21.3837 14.3753 15.9468 -0.114918 -0.00925939 0.993332
8.77889 13.0513 4.63477 0.463666 -0.885717 -0.0228074
16.4164 16.278 10.9533 -0.0108295 -0.996926 0.0775989
18.3268 17.2111 8.7091 0.0418235 -0.397071 -0.916835
14.6057 13.577 3.48274 -0.699118 0.554676 -0.451187
10.4845 21.8633 9.81595 -0.227545 0.934307 0.274397
20.0077 19.1316 3.27189 -0.400872 0.183136 0.897643
9.98045 18.668 6.33392 0.0827786 -0.976779 -0.197611
17.2563 18.0326 15.7084 -0.465072 -0.837858 -0.285835
10.8438 14.4273 3.19134 -0.749584 -0.290001 -0.594999
12.6565 14.0242 2.96296 0.798109 -0.547879 0.250699
12.6738 12.3193 9.17834 0.935301 0.254814 0.245524
7.89934 22.8973 6.25875 0.218607 -0.852524 0.474778
8.02407 15.5577 4.58444 -0.41102 0.78109 0.470066
21.6539 9.99139 4.86181 -0.370667 0.773743 0.51374
12.4556 18.5676 7.21713 -0.968679 -0.17134 -0.179734
11.3606 19.7865 12.3944 -0.433371 -0.152085 0.888291
10.0518 9.30342 4.81004 -0.342323 -0.85812 0.382682
11.3599 22.7422 8.80254 -0.145826 0.557162 -0.8175
10.8782 14.9724 8.02514 -0.12714 0.591503 0.796216
20.5955 20.2303 11.2527 -0.971446 0.18229 0.151862
15.8956 10.8797 15.5504 0.399028 -0.902735 -0.160766
15.7885 19.7713 9.50354 -0.151672 0.16161 -0.97513
17.3981 20.1344 13.5164 -0.318989 -0.692698 -0.646851
13.6154 20.612 4.97056 -0.715698 0.130779 0.686057
16.5546 10.0849 8.22618 -0.574099 -0.359976 0.735409
14.8804 15.3273 4.10808 0.413433 0.41256 0.811707
13.8406 17.7647 6.68006 -0.73817 -0.333285 0.586537
20.1853 22.8837 9.95216 0.564127 0.432078 0.703612
18.0701 17.4632 4.94643 -0.990322 -0.138246 0.0122421
16.6491 21.0994 3.95429 -0.812122 -0.518637 -0.267346
22.2598 13.9969 9.31022 -0.740037 0.486099 0.464815
18.0625 14.8372 6.64835 0.756688 -0.222049 -0.614912
9.13794 11.6354 12.2309 -0.0676496 0.927713 -0.367113
11.8276 13.9318 6.1107 0.121385 0.640316 0.75846
7.56948 21.1691 7.71784 0.255571 -0.805421 -0.534772
20.9845 19.4677 16.3631 -0.521016 -0.632244 0.57342
20.7199 22.3072 11.2634 -0.201844 -0.952413 -0.228403
9.8001 22.3823 5.63933 0.621924 -0.761756 -0.181488
12.5007 16.6188 9.73585 0.411804 -0.590887 -0.693736
15.021 13.0881 15.1786 0.240379 0.901465 -0.359971
10.6079 20.1584 7.37092 0.51871 -0.848846 0.101984
14.1812 20.7155 17.1881 -0.400004 0.0750806 0.913433
11.0122 8.44043 14.5596 -0.0841346 -0.202947 -0.975569
15.9112 16.4295 8.1158 0.227995 -0.830501 -0.508218
10.5948 16.0805 3.32772 0.597832 -0.749646 -0.283952
9.13215 15.2159 7.18218 0.0155099 0.933286 0.358799
12.0802 19.2488 13.12 -0.672532 -0.20589 0.710852
18.8898 20.6891 5.70533 -0.0602865 0.814728 0.576701
8.40636 19.4224 4.27601 -0.686896 0.705977 0.172544
10.5804 8.69292 10.2137 -0.248678 0.915982 0.314859
19.5124 11.2433 7.98564 0.94065 0.335288 -0.0525355
13.0404 9.67161 14.7961 0.00602625 -0.242601 0.970107
14.9061 22.6396 16.6697 -0.166668 0.777656 -0.606196
18.8533 20.0192 14.0949 0.418054 0.854454 -0.308446
18.9564 21.816 9.59226 -0.129741 -0.813734 -0.566573
16.6442 11.5483 17.9771 0.731329 -0.499363 0.464538
18.4334 9.36727 7.16365 0.0114562 -0.668747 -0.743402
15.3148 19.7919 4.75203 0.104263 -0.758571 0.643195
8.63786 19.7129 3.23484 -0.179643 0.887714 0.423901
7.9485 8.76586 12.2226 0.537756 0.342971 -0.770188
21.2927 15.8161 4.11865 -0.966432 -0.0665939 0.248141
10.4023 11.069 16.4672 -0.393732 -0.480192 -0.783831
10.5874 21.0173 13.7993 -0.896111 -0.280864 -0.343658
22.2503 17.015 12.0302 -0.472865 0.0919031 -0.876329
15.7946 8.76656 4.05702 -0.969712 0.183764 0.160903
21.3194 9.95783 3.12473 -0.962761 -0.0827706 -0.257372
9.72834 11.2305 3.38198 0.149391 0.302445 0.941387
19.4044 20.58 17.9858 0.251034 -0.384451 0.888358
18.0822 10.6893 8.95357 -0.600323 0.796925 0.0672621
11.5152 13.1408 13.143 0.927914 0.293488 0.229872
14.9595 14.2375 8.47696 -0.925996 -0.343901 -0.155767
18.1221 18.2662 2.85655 0.127867 -0.655237 0.744523
14.7204 9.18496 5.20855 0.894099 0.441383 -0.0759428
9.97532 23.1188 16.3732 0.959094 0.171795 -0.225001
13.2857 13.7161 7.14661 -0.534783 -0.844974 0.00508836
13.5913 18.9376 15.5054 -0.0723876 0.983502 -0.165783
13.4005 22.4535 15.8291 0.391077 0.810504 0.436053
13.1821 10.5586 6.83998 0.349391 -0.618079 0.704205
22.0502 12.5697 10.4113 0.0200366 0.190986 -0.981388
15.4909 14.154 11.3535 0.00850677 0.552514 -0.83346
20.3004 14.3836 6.00226 -0.0429212 -0.605283 0.794852
19.7482 22.0352 3.03445 0.347944 0.699867 -0.623796
18.4727 13 9.75974 -0.368269 0.0756157 0.926639
15.7147 11.7177 9.43095 -0.989907 -0.031751 -0.138118
20.879 10.8794 9.55074 -0.219556 -0.260857 -0.940079
17.3227 18.1351 8.54149 0.914116 0.0602817 -0.400946
22.2769 21.5563 12.3821 0.164446 0.0563606 -0.984775
7.41694 9.4498 5.11026 0.0318158 0.23947 -0.970382
22.2229 16.9627 9.89998 0.53731 0.64899 -0.538619
19.3449 12.9721 11.1286 0.964582 0.138233 -0.224663
20.4283 17.851 12.8536 0.037553 -0.797437 -0.602233
18.522 13.8379 6.85258 0.876598 0.45813 0.147282
10.9344 11.0544 8.81104 0.271088 0.693461 -0.66755
22.2459 19.549 10.1001 0.274092 -0.960261 -0.0526502
11.325 17.3095 7.50592 0.981754 0.0990672 0.162309
8.73196 16.445 4.33484 -0.156109 -0.0247408 -0.98743
22.1217 22.3957 9.53261 -0.00127415 0.401999 0.915639
11.7948 9.56584 8.65635 0.735623 -0.0842541 -0.672131
16.1369 8.53278 7.09433 -0.100987 -0.994863 -0.00701621
19.6694 10.1734 8.71598 -0.04336 -0.472346 -0.880346
9.15144 18.8265 15.1441 0.871563 -0.434538 0.227055
22.3057 8.0627 8.35931 0.397452 0.893711 0.208116
20.7445 18.2813 7.33029 -0.520757 0.329331 0.787625
11.0009 20.6032 6.0422 -0.326788 -0.802791 0.498735
10.2487 23.1217 4.13982 -0.262414 -0.830817 -0.490797
7.30621 20.066 8.82237 0.143187 0.323272 0.93541
13.4828 9.58488 9.20838 0.0447748 -0.469892 0.881588
12.2683 8.59691 5.36985 -0.026665 -0.703704 -0.709993
15.5173 12.7267 8.87972 -0.968279 0.240571 -0.0675348
18.8002 19.392 11.8858 -0.0384925 0.113275 0.992818
15.7017 20.7653 16.7559 -0.488658 0.268557 -0.830115
19.4761 16.6639 9.66021 -0.881715 -0.327012 0.340063
19.6423 9.43051 5.65316 0.147207 -0.970815 -0.189335
9.84365 9.55987 11.4615 0.951489 -0.251029 -0.177912
7.11954 22.6067 13.5346 -0.593057 -0.572453 0.566198
22.1696 9.85119 16.4692 -0.873784 -0.47988 0.0788452
9.59522 13.9416 10.2117 -0.604411 0.708603 -0.3641
7.93263 11.4535 6.91692 -0.727994 -0.284568 0.623735
18.7106 21.6391 16.0537 -0.674516 -0.340066 -0.655273
7.52162 10.0128 18.1774 -0.340587 0.663858 -0.665802
20.4375 14.8793 9.83361 0.164114 0.493301 0.854237
10.4689 11.1538 7.11553 -0.710627 -0.699418 0.0763151
12.5617 17.6171 3.16433 -0.693424 -0.332212 -0.639373
10.7051 13.7478 4.12435 0.701187 0.300964 0.646341
18.5446 15.2018 12.9843 -0.76218 -0.0770675 -0.642761
12.9511 14.7601 8.27886 0.24416 0.71855 -0.651208
14.8707 15.8339 9.06134 -0.673751 0.539871 0.504577
14.345 12.5119 3.10279 -0.0259185 -0.132761 0.990809
21.1449 20.8519 6.48193 -0.194297 -0.595946 0.779165
12.5249 17.118 8.65425 -0.000742377 -0.631825 -0.775111
14.3104 8.3138 10.8464 0.425869 -0.898396 -0.107334
20.869 15.3381 8.41524 0.368681 -0.234397 0.899518
17.8022 9.08805 11.3226 -0.35812 -0.928412 -0.0990036
14.3749 12.6165 10.7923 0.0861353 -0.115391 -0.989579
17.5038 11.8063 7.97846 0.352676 0.562364 0.747908
12.6716 16.4578 3.22167 -0.137076 -0.219008 0.966046
8.02431 8.65581 13.6612 0.188654 0.773349 -0.605261
7.39667 12.3175 4.75601 -0.287678 -0.934865 0.208012
20.5544 16.4434 8.28172 -0.991372 0.0623801 0.115279
20.7257 13.4926 17.4042 -0.0764399 0.217956 -0.97296
17.1434 16.0296 4.20995 -0.982147 -0.0121937 0.187717
16.849 17.0458 8.85687 0.632908 -0.191004 -0.750296
17.2282 22.7209 5.58093 0.404655 0.569814 0.715239
8.45232 12.8646 7.6879 -0.527291 0.836904 0.146816
18.0756 15.4563 15.6574 0.43362 0.332464 0.837521
16.5919 11.215 14.7512 -0.0280353 -0.909882 -0.41392
8.29553 10.5057 17.1624 0.122315 -0.989248 -0.0801738
11.8915 17.0925 6.63107 -0.429604 0.827095 -0.362429
7.6328 14.9055 17.8992 0.837352 -0.0344203 0.54558
10.3782 17.1106 9.95272 -0.109102 -0.993975 0.0105463
8.17507 21.5988 15.9705 -0.672152 0.725621 0.147263
10.4899 11.9847 3.69759 -0.359761 0.275783 -0.891356
13.6364 8.80895 17.7781 0.118325 0.151222 0.981392
13.3166 19.2048 8.27244 -0.950291 0.0647233 0.304562
12.3005 20.704 10.2226 0.684051 0.317636 -0.656644
20.3732 18.5311 4.42315 0.44638 0.523071 0.726046
17.4065 13.9245 10.5526 0.185233 0.869296 0.458273
22.0812 14.7648 12.4406 -0.710465 -0.629607 -0.314378
14.1586 22.4007 6.03937 0.207746 -0.164115 0.964317
16.8336 13.6232 13.9664 0.370029 0.926746 0.0649649
9.00317 15.0947 8.57075 -0.268508 0.962873 -0.0279087
17.4026 15.8786 6.56305 -0.221882 0.575611 0.787046
17.6995 16.0892 14.4589 0.759504 0.606192 0.235976
21.8973 17.3618 8.61382 0.975681 0.197143 -0.0958203
21.4711 11.2201 3.17278 -0.969204 0.22549 0.0989887
15.6846 21.5985 9.46468 -0.421227 0.898346 -0.124665
20.2519 14.0631 15.1197 -0.598066 0.430591 0.67595
10.883 11.2998 10.1013 -0.89432 -0.386163 0.225986
21.5398 11.7307 6.87972 0.60773 0.127969 0.783766
20.1895 11.2003 17.0393 0.81083 -0.105528 -0.57569
9.22316 12.5479 6.7227 -0.512966 0.832207 0.21047
18.6358 18.4483 12.9023 0.349828 0.0301332 -0.936329
8.19864 19.7238 17.596 0.228904 -0.903274 -0.362903
21.7042 11.6575 4.29259 0.850723 0.1467 -0.504727
11.6409 18.3178 3.68773 -0.863365 -0.496976 0.087266
20.1602 18.617 9.35866 -0.135321 0.920537 -0.366471
17.9246 16.7866 12.4072 0.912806 -0.223053 -0.342101
12.4537 14.0033 11.7428 0.184796 -0.719748 0.669189
9.84107 11.9267 11.3731 0.190614 0.969141 -0.156304
8.17565 15.0356 12.4755 -0.0236855 0.999265 -0.0301472
21.8764 11.2955 8.32623 0.855502 0.276009 0.438104
13.4969 12.6798 13.2437 -0.095882 0.862551 0.496801
16.1734 15.9885 14.3638 -0.369935 -0.482422 0.793988
10.1359 14.2954 16.025 0.963073 -0.239928 -0.122171
11.0979 22.1142 18.0558 -0.799743 -0.38273 0.462524
15.2224 14.3883 13.9723 -0.930073 -0.301806 -0.209468
20.2686 12.7242 9.66053 -0.790475 0.568391 -0.228212
15.5706 20.7107 11.1778 -0.454425 -0.595806 -0.662203
18.5721 17.358 13.1138 -0.689501 0.0766777 0.720214
16.0125 19.3948 6.1544 -0.57131 0.699069 -0.430008
20.8186 8.10812 12.3982 0.491628 0.863304 -0.114053
20.5358 18.7333 15.5599 0.906911 -0.216575 -0.361397
17.9979 16.2069 13.2989 -0.812316 -0.441887 -0.380629
17.1669 9.17126 4.80938 -0.946233 -0.232876 0.224525
7.87471 10.0007 10.6717 -0.994472 0.104713 -0.00775507
18.082 19.7303 5.87939 0.172745 -0.983063 -0.0612076
20.806 10.5199 3.86564 -0.916377 -0.289595 -0.276383
16.602 14.4711 6.61513 0.153518 -0.988119 0.00734375
18.0171 17.7933 12.2273 0.585073 -0.284344 -0.759498
22.1347 13.5482 7.48341 -0.377007 -0.909259 0.176392
12.8322 12.2914 10.5311 0.309341 0.847452 -0.431432
19.4413 19.8836 8.10939 0.266851 -0.300248 -0.915774
22.3532 16.5829 7.39845 -0.828486 -0.515967 -0.217692
18.1686 9.58544 9.81448 -0.661771 0.330077 -0.673133
20.9892 18.9966 11.9101 0.368859 0.615382 0.696597
7.90085 13.5756 5.58885 0.183809 -0.951365 0.247222
14.1439 9.24644 14.9226 -0.297929 -0.671645 0.67833
7.36613 21.212 9.5555 0.342542 0.111701 0.932839
8.45771 20.2639 9.00619 -0.194409 -0.476925 0.857174
13.4903 15.5698 3.82375 -0.0365707 0.401301 -0.915216
13.8399 12.2705 7.58031 0.349169 -0.410288 0.842463
15.5303 10.7602 6.54915 -0.912488 0.058355 -0.40492
15.2563 9.43858 15.0749 0.174944 0.96005 -0.2184
14.8753 16.5436 7.71845 0.278926 0.926615 -0.252162
9.12722 17.7165 4.23799 -0.884528 -0.165753 -0.436046
12.533 21.5275 6.593 -0.995755 -0.0425027 -0.0816435
15.2901 20.8271 2.8496 0.821386 0.569069 -0.0385459
15.9315 13.9219 9.59428 0.949328 0.284869 0.132765
13.4838 10.5825 11.0142 -0.00990025 0.123567 0.992287
13.978 19.9402 7.48734 0.916304 0.0749991 0.393397
19.6223 23.3999 16.9225 0.820764 0.564973 -0.0845662
16.8072 22.4188 8.95863 0.288928 0.957349 0.00198883
14.6677 17.1629 5.58093 0.985383 -0.170284 0.00480639
17.4454 18.0495 9.66833 -0.504783 -0.737787 0.448178
9.13348 11.3847 5.17597 0.807314 -0.571947 -0.145332
13.3637 22.9778 8.59957 -0.545823 -0.299256 -0.782638
19.3821 18.199 6.54505 -0.485985 0.873821 -0.0160131
11.2442 17.0575 9.20329 0.525514 0.577262 0.624983
7.11787 8.01395 16.682 -0.20702 -0.790091 0.576973
19.3553 22.4712 5.87495 0.382916 -0.919417 -0.0897031
10.4518 13.3289 5.2088 -0.5927 0.47719 0.648842
9.85909 17.1379 13.597 -0.136148 0.425598 0.894612
8.74922 22.2843 12.3014 0.216612 0.0404462 0.97542
7.47532 17.3035 11.0208 0.520233 -0.515446 0.680935
8.85106 8.60227 12.7408 -0.413195 -0.87617 0.248185
22.0736 18.4313 5.53473 -0.775678 -0.301065 -0.554693
12.2957 13.2241 17.8099 0.433801 -0.439354 0.786629
21.2195 18.2394 10.1012 0.181921 0.951116 0.249566
10.0576 22.4003 12.1096 -0.421561 0.80911 0.409424
10.7214 23.3053 5.89824 -0.0552096 -0.409936 -0.910442
22.2981 21.3731 4.87374 0.0712836 0.52218 -0.849851
11.8995 22.9057 6.65241 -0.151119 -0.0585947 -0.986777
9.87524 14.138 7.69602 -0.01482 0.973087 0.22996
19.0209 9.2977 12.537 0.975485 -0.199153 -0.0936349
20.7357 20.5187 4.03008 0.568925 -0.722785 -0.39231
16.169 19.1157 12.2459 -0.126888 -0.109689 -0.985834
21.3928 20.0519 8.52023 0.191982 0.722929 -0.663714
19.7141 22.5392 11.3494 -0.0715739 0.882142 -0.465513
17.15 16.9674 3.64081 -0.588193 0.0133325 0.808611
7.92661 17.4044 13.8107 0.86873 -0.416128 0.268599
19.2365 16.4513 5.83125 -0.734704 0.236638 -0.635777
8.4022 9.58667 15.1319 -0.407523 0.852522 0.327308
12.1963 20.9346 16.3632 -0.231281 0.866211 0.442932
19.2 17.242 15.4369 0.709848 0.629295 -0.316392
8.91688 17.8576 8.32382 0.690551 -0.542119 -0.478796
9.97937 21.9297 16.416 0.991377 -0.115464 0.0619627
12.0124 17.2247 4.12897 0.499116 0.839028 0.216601
13.4586 20.164 3.63455 0.734096 -0.610632 0.297039
7.91456 17.206 4.78487 -0.121796 -0.512739 -0.849861
13.8973 13.0983 5.37606 0.0305499 -0.140139 -0.98966
14.7411 23.0358 2.75968 -0.623353 0.185225 0.759686
11.5625 10.4802 10.8636 -0.481858 -0.502063 -0.718155
7.76155 8.53521 14.9398 -0.178757 0.879912 -0.440228
12.4065 23.2004 2.98972 0.383655 -0.558396 -0.735529
12.5548 10.0802 10.4145 -0.14735 -0.129764 0.980535
8.99833 14.0772 2.96933 0.233092 -0.477955 0.846893
14.7004 16.1654 5.91093 0.884647 -0.111275 0.45279
22.1872 14.3549 5.4242 0.317247 0.817078 -0.481391
20.2054 19.8502 17.2417 -0.730818 0.137303 -0.66862
12.5536 17.4278 15.8624 0.106085 -0.643546 0.75802
9.50444 8.40981 3.20124 -0.456565 -0.786588 0.415726
8.06831 14.0539 15.8031 0.240713 -0.358804 -0.901841
7.87365 8.97873 10.279 -0.813197 0.466538 -0.347928
14.5522 18.3231 7.38294 0.468935 0.380294 -0.797168
21.6895 10.4108 12.087 -0.867479 0.108679 0.485457
16.3296 8.52022 11.4938 -0.350179 0.472945 0.808516
18.2561 12.7811 5.88696 0.972282 -0.0472453 -0.228987
7.91922 22.6977 17.3431 0.557762 0.808172 -0.189104
21.8688 10.412 9.76168 -0.643237 -0.699391 0.311607
12.269 14.8848 17.2181 -0.592746 0.715477 -0.36979
21.3043 22.4979 3.16232 0.642994 0.714509 -0.275744
15.7335 22.0251 10.6721 -0.847141 -0.311008 -0.430845
12.193 10.3508 7.11018 0.242582 -0.0659261 0.967888
9.95895 9.63211 9.3937 0.521641 -0.631889 -0.573242
19.5507 8.31493 9.93126 0.739843 0.597183 0.309847
20.3579 20.7309 16.0591 0.978475 -0.00884803 0.206174
8.03714 17.0063 10.1906 0.0114843 -0.77077 0.637009
16.7635 13.3033 18.0713 -0.908812 0.375594 0.181633
13.6221 23.2468 18.0527 0.342422 -0.446463 -0.826691
15.4474 15.9827 12.4903 0.921175 0.0301116 0.387983
22.2096 22.2232 5.39294 0.624396 -0.350023 0.698293
7.19836 16.1994 15.6684 0.254804 0.9267 0.276229
8.41755 23.3744 11.3402 -0.886389 0.46235 -0.0233828
14.6204 8.61678 18.0941 0.102545 0.0779731 -0.991668
16.9001 14.9801 16.0292 0.57473 0.564465 0.592507
13.7186 14.5079 9.02454 -0.0509109 0.993514 -0.101675
16.6337 18.6325 14.9645 0.498228 0.704875 0.504896
10.0256 15.2024 4.43686 0.454855 -0.743912 0.489594
12.5044 8.30183 9.74098 -0.236917 -0.727913 -0.643439
8.64319 17.5261 11.108 0.339876 -0.923936 -0.175574
14.6336 11.0079 13.6361 -0.219281 -0.0253191 -0.975333
16.1587 15.9616 17.4859 -0.602292 0.769925 0.210856
11.3503 22.8191 11.7603 -0.228258 0.235614 0.944661
18.1419 9.09881 17.2664 -0.624409 0.559811 0.544725
13.5751 15.1347 13.8798 0.373744 0.706408 0.601085
18.1265 12.8164 12.4998 -0.84215 -0.507512 -0.182249
15.1738 17.8797 13.2432 -0.619756 0.599574 -0.506373
7.39855 14.0402 6.47969 0.309399 -0.843388 0.439283
18.5957 11.5471 14.0091 -0.269696 0.722645 0.636434
15.407 20.9554 12.8812 -0.848043 -0.485314 -0.212821
16.3961 13.5287 11.2488 0.12774 0.857575 -0.498244
19.7136 21.0015 9.73889 0.231359 -0.425184 -0.875038
12.2684 10.2994 14.5917 0.219811 -0.0107643 0.975483
16.1174 13.613 5.17636 -0.125429 -0.607503 0.784351
14.5002 9.95452 7.32136 -0.521583 -0.850956 -0.0618451
17.9241 12.2117 16.0622 -0.696484 -0.626606 -0.349678
8.91041 11.098 10.9155 -0.501156 -0.64306 0.579065
17.4445 10.8697 13.6808 -0.0355083 -0.465297 -0.884442
20.5041 22.5647 15.1232 -0.273352 -0.0870298 -0.957969
8.95308 19.1768 13.9891 0.0406314 0.990685 -0.12997
15.9814 17.3165 3.64731 -0.111918 -0.875612 -0.46987
21.4018 8.18699 14.8806 -0.598591 0.294947 -0.744779
10.4197 16.606 14.8924 -0.0270717 -0.998449 -0.0486428
13.111 14.6445 14.8411 0.0267679 0.998419 0.0494292
11.5736 22.8911 13.7861 -0.629425 -0.755223 0.182925
11.4159 19.8807 9.58868 -0.834619 -0.00131649 0.550826
11.5176 8.21674 10.8507 0.215782 -0.522181 -0.825085
14.345 13.7139 12.1454 -0.0547803 -0.107167 0.992731
12.8142 16.2701 13.9048 0.308057 0.942566 0.129113
15.1758 22.7124 12.1898 0.582738 -0.797284 0.157335
21.3962 22.647 14.5524 -0.240872 0.310935 -0.919402
19.0451 22.6119 15.5403 -0.802709 -0.282206 -0.525374
17.641 21.8511 11.177 0.314612 0.843323 0.43569
9.46002 10.4968 14.5343 -0.990246 0.136684 0.0270239
7.99174 10.8719 13.6052 0.94432 0.106815 -0.311208
6.93091 15.3207 8.97572 -0.192612 -0.728163 -0.657784
10.7386 13.2473 6.4582 -0.789307 0.538967 0.294123
7.39239 16.9687 14.5786 0.716157 0.244557 0.65369
13.1008 9.37353 11.976 -0.326742 0.897428 0.296417
17.7211 14.0461 5.72125 0.942381 -0.320755 0.0950454
17.1512 13.8901 11.7864 -0.0946703 0.976589 0.193162
8.51898 10.5523 7.05099 0.772858 0.55829 0.301665
12.3964 12.6376 15.2085 -0.223041 0.748196 0.624864
20.0719 16.0582 10.2766 0.638124 0.748644 0.179803
16.1024 18.1249 15.8051 0.188931 0.919096 0.345785
9.69519 12.987 9.16513 0.930915 0.353752 0.0908613
7.84614 16.5453 6.61848 0.636642 0.0770242 0.767304
17.3277 8.94493 7.59717 -0.277645 -0.748196 -0.602591
18.7558 18.415 15.426 0.532295 0.65161 -0.540432
12.168 16.4039 11.5626 0.585203 -0.784348 0.205757
13.7149 19.43 10.5077 0.686104 0.639005 0.347756
21.1919 17.0031 13.0513 -0.174126 0.302703 0.937044
15.1959 10.3931 17.4625 0.428062 -0.254727 -0.867108
18.8141 13.041 7.43504 -0.347349 -0.592166 -0.72711
19.5156 16.3331 13.1889 -0.564292 -0.331477 -0.756107
14.891 15.8452 13.8636 -0.0348201 -0.824683 0.564523
13.7532 22.4977 12.1332 -0.842233 0.517046 -0.152667
13.4971 18.5891 5.74993 -0.21251 -0.522199 -0.825922
13.4406 11.6974 3.28407 0.299194 0.182028 -0.936669
14.1413 14.5934 16.5033 -0.84003 0.517508 0.162897
16.125 18.8203 9.31286 -0.185836 -0.52749 0.828987
20.3838 12.692 13.6883 -0.0300884 0.331894 0.942837
21.4897 11.5 12.296 -0.81187 0.144913 0.565569
18.6482 11.0154 3.86528 0.506087 -0.862163 -0.0234525
12.6897 21.9229 12.4012 0.724205 -0.0111026 0.689496
21.8596 18.0173 17.3461 -0.5378 0.7604 0.364092
21.7267 21.3689 15.8255 0.90232 0.00811965 0.43099
8.23985 15.4494 10.2252 -0.259261 0.0778872 -0.962662
12.2354 13.3315 10.8618 0.464153 0.752945 -0.466516
12.0921 18.9183 11.4407 -0.994844 -0.0608443 -0.0811419
11.3477 16.0648 7.87954 -0.554403 -0.0329862 -0.831595
22.1974 13.396 3.65153 0.990666 -0.0881829 0.103942
8.06028 21.7736 5.19503 0.412758 0.865923 0.282503
11.9034 20.998 9.07024 0.428598 -0.370201 -0.824169
11.2966 10.6183 12.3924 -0.484441 -0.869249 0.0986069
11.5735 8.48298 17.9519 -0.247129 -0.677381 -0.69288
7.57443 8.53223 17.6338 -0.0767693 -0.857882 0.508079
10.7478 15.1013 11.5759 -0.914961 -0.278937 0.291616
10.6067 12.2344 8.93656 0.455654 0.443692 -0.771697
11.4944 16.8868 12.4999 -0.90294 0.429706 -0.00718437
19.559 10.1374 16.9203 0.916211 0.105163 -0.38665
14.7887 21.3847 6.78104 -0.715379 -0.395987 0.575697
11.2242 11.434 2.97031 0.579655 0.494603 -0.647586
9.24758 12.2457 2.91425 -0.287065 -0.438614 -0.851593
21.0731 21.4443 9.97942 0.155773 0.881522 0.445705
10.312 16.9761 4.79902 0.626917 0.0196205 -0.778839
20.8867 23.3383 3.62062 -0.237339 -0.541221 0.806691
10.4434 14.751 10.6452 -0.983189 0.173157 0.0579308
9.72543 9.75715 13.6539 -0.865563 0.292403 -0.406571
9.44989 16.5654 8.71965 0.428584 -0.218679 -0.876639
9.56468 20.2355 5.73727 0.856238 -0.113755 -0.503901
19.8462 10.1926 12.2785 -0.760815 0.625836 0.171728
22.2931 14.1556 10.766 -0.262845 -0.689397 0.675014
8.83531 22.1239 10.1684 0.908318 -0.0760316 0.411311
13.7942 14.7027 12.4722 -0.488139 -0.136739 -0.861988
7.66356 11.8539 13.9609 0.260359 0.0627554 -0.96347
8.42147 8.12771 9.02548 -0.459813 0.887789 0.0200668
20.3061 14.5158 13.9082 -0.0409174 -0.55348 -0.831857
21.3636 17.7467 12.1714 -0.37822 -0.17563 -0.908903
14.498 10.3064 8.4797 -0.605748 0.693044 -0.390845
8.19431 20.7973 13.2283 0.480329 -0.0506709 -0.875623
9.10793 19.3444 11.3911 0.897716 -0.302384 -0.320422
18.816 14.3779 8.90935 -0.104884 -0.31041 0.944799
8.48765 18.487 12.7955 0.392377 -0.148775 -0.907693
9.62634 14.7284 5.82768 -0.439887 -0.0524427 -0.896521
10.6847 19.0561 4.47065 0.995126 -0.0224914 -0.0960088
9.72295 12.0173 8.21227 0.639124 0.234059 -0.732623
17.0547 10.9711 5.83803 -0.493982 0.578129 0.649421
14.5706 13.5422 7.09353 -0.115243 0.837602 0.533987
14.8264 14.8615 11.961 0.47424 -0.413141 0.777438
17.9751 17.4572 7.04415 -0.50833 0.708835 0.489032
13.8523 7.98777 14.5165 -0.611798 -0.67258 0.41634
15.8544 20.1029 12.2192 -0.729788 -0.463492 -0.502578
18.4681 19.9735 17.9302 -0.10992 -0.44279 -0.889862
21.8934 18.5518 8.92387 -0.905059 -0.420867 -0.0611539
14.5635 11.0728 11.0913 -0.682783 0.722464 0.108873
16.6651 17.6989 13.6147 -0.605157 0.772314 -0.193175
22.1363 18.6649 15.9032 -0.796321 -0.198561 0.571354
19.7848 20.0876 10.2125 0.865699 -0.191486 -0.462492
14.6655 19.4187 15.3868 0.0247297 0.847955 -0.52949
20.8338 20.9671 14.5659 0.275276 0.644243 -0.713565
12.1784 19.4942 10.2976 0.879178 0.468881 -0.0848339
7.18771 20.5564 12.5784 -0.644061 -0.0151364 0.764825
16.2531 17.6655 16.8691 -0.763624 0.36881 0.52996
7.94498 14.4598 9.35127 -0.102951 -0.617972 0.77943
19.0793 18.8903 2.83114 -0.586523 0.540804 0.602928
17.2965 21.667 15.9705 0.751013 0.530788 0.392738
7.03253 20.1651 14.5083 -0.978886 0.0500439 -0.198184
18.7729 21.0334 12.9858 0.509792 0.849356 0.136776
6.9294 17.3543 6.11791 -0.880643 -0.29791 -0.368398
18.7884 21.0221 4.61047 0.527214 0.804837 0.272548
7.90811 9.27344 7.91217 -0.0760152 0.969674 0.232282
20.586 10.9989 15.2003 -0.738767 0.113393 0.664353
12.4699 12.1056 7.93141 -0.822365 0.304489 -0.480628
17.7582 23.0196 4.39005 0.595711 0.0751369 0.799677
21.6078 20.7277 12.2993 -0.496245 0.142997 0.856325
7.46479 18.4849 7.80454 0.741685 -0.597128 -0.305518
18.4577 19.9376 7.67029 -0.447271 0.875191 0.184359
18.1942 22.8932 10.4674 -0.553372 0.438583 -0.708114
15.3749 19.7528 13.0916 0.748715 0.432981 0.50195
13.652 23.3672 7.03217 -0.981157 0.121206 -0.150465
11.5039 21.1781 17.4921 -0.898905 0.380655 -0.216958
16.8508 20.0312 8.91016 0.71683 -0.540486 0.440488
12.7212 19.3032 5.55141 -0.393616 -0.552406 -0.734788
20.3387 22.2847 8.08061 0.828938 -0.43257 -0.354605
15.5981 9.98584 13.0353 -0.981759 -0.112726 0.153105
18.1207 20.8839 16.7042 -0.120949 -0.943305 -0.309108
8.29475 12.7123 3.18531 0.328057 0.570224 -0.753142
7.3297 15.9522 8.2215 0.594423 0.519379 0.613927
21.1156 14.3274 11.0644 0.546217 0.550432 -0.631404
19.1467 9.20305 15.983 0.476225 -0.210165 0.853838
13.6569 21.7128 14.4449 -0.472507 -0.830143 0.295971
15.0573 16.6183 15.9681 -0.315507 -0.309421 -0.897058
17.252 22.2673 17.4106 0.00847981 -0.885906 -0.463787
19.741 10.5533 10.8723 0.74823 0.0785657 0.658772
10.0391 22.6218 8.61465 0.350996 0.487124 -0.799695
11.3203 12.8071 9.93183 0.592453 0.614274 -0.521217
16.2788 13.8827 13.1266 0.387721 0.907442 -0.161931
11.2972 9.26488 5.10743 0.0351324 0.926207 0.375374
21.2585 22.8687 5.76577 0.856945 0.389818 0.337176
15.8402 10.6406 9.7926 -0.216568 -0.142869 -0.965757
13.8615 9.78262 4.33304 -0.596671 -0.530952 0.601726
9.06831 10.1048 2.76435 -0.36108 0.406262 0.839388
8.63884 15.4771 16.3244 0.225442 -0.0658366 -0.97203
16.1689 11.6573 12.9275 0.563493 0.75883 0.326576
10.7865 11.3137 14.843 0.923347 0.16961 -0.344475
22.3335 10.3974 14.8547 -0.111869 -0.675945 -0.728412
17.5364 12.7606 7.58486 -0.691771 -0.405024 -0.597836
16.9234 8.28324 17.0792 -0.976949 0.197685 0.0805697
16.4216 8.31179 8.09465 -0.732349 0.603599 0.31517
22.333 19.154 11.7463 -0.775194 0.134536 -0.617231
16.352 12.0459 10.5254 0.900559 0.422268 0.103361
14.821 19.0208 14.4786 0.745114 0.654316 -0.129135
7.51035 12.7362 11.774 -0.0774028 -0.804337 0.589111
9.08935 21.4384 13.3781 0.323032 -0.0217661 -0.946138
21.2362 13.0461 11.996 -0.0210743 0.143949 -0.989361
11.1171 13.5927 10.7315 -0.0585137 0.208484 -0.976274
22.3875 9.25826 11.2983 -0.435326 -0.277702 -0.856372
9.82789 14.6263 14.47 0.621259 0.446662 -0.64384
17.9814 21.4113 9.95794 0.265096 -0.914382 0.305991
22.2066 8.18243 14.2369 -0.245057 0.695336 -0.675615
16.8165 19.0916 10.4305 -0.0580772 -0.971785 0.228607
10.2439 8.61436 12.2904 0.858272 0.0634467 0.509258
9.17757 17.3527 12.3417 -0.776465 -0.214029 0.5927
11.8002 11.5701 5.25878 0.787568 0.24428 -0.565742
14.2137 14.3517 10.0876 0.0415347 0.968867 0.244074
7.31007 21.3941 3.0996 -0.341287 0.901636 -0.265661
20.8595 9.34011 11.1728 0.317662 0.896946 -0.307535
16.27 23.2358 13.6704 -0.163251 0.717617 0.677034
9.63698 15.3788 9.41899 0.420454 -0.624447 -0.658244
6.92637 10.7998 12.8111 0.690999 -0.0997285 -0.715943
19.7313 13.2139 16.8541 0.203241 -0.207137 -0.956968
21.4664 11.5399 17.375 0.646552 0.537466 -0.541388
14.9569 10.1857 15.9214 0.212331 -0.965941 0.1479
14.0187 9.90807 12.1494 -0.421706 0.127974 0.897656
15.915 9.00314 9.78003 0.831255 0.464802 0.304918
9.90803 14.8627 17.288 -0.866516 -0.299696 -0.399164
19.6941 21.7664 15.3073 -0.3826 -0.0720918 -0.921097
18.8958 21.2524 11.5137 0.365047 -0.510764 0.778371
10.1938 9.87662 8.04406 -0.044642 -0.998984 0.0061985
9.27322 10.4463 8.55342 0.62109 0.316126 0.717155
22.1 11.9725 13.224 -0.0524994 -0.492701 0.868614
8.31305 8.67142 3.04297 -0.373335 -0.591605 0.71458
18.6889 14.1568 16.6317 -0.0475725 0.53266 -0.844991
13.5573 21.7271 4.98488 0.836332 0.0868807 -0.541296
16.3621 11.3134 3.54695 -0.862283 -0.453842 -0.224713
7.79286 12.0642 7.96304 -0.479486 0.506553 -0.716587
21.8239 22.3896 11.2489 0.148252 -0.691071 -0.707419
18.3235 11.36 10.1795 -0.0281423 0.53024 -0.84738
21.4612 21.3486 3.97409 0.185601 -0.42541 -0.885764
8.66693 23.221 10.1452 0.947756 -0.0302943 -0.317555
19.7338 17.0474 10.9425 -0.0750717 -0.801936 0.592675
20.3959 9.4338 13.2172 0.72858 -0.679738 0.0844216
11.1539 10.4189 13.4575 -0.139497 0.971519 -0.191552
12.3866 11.3887 7.18772 0.70224 -0.342826 0.623962
10.0267 14.903 12.8708 -0.73565 0.673204 -0.0749327
8.76305 12.3798 10.775 -0.278195 -0.658165 0.69959
9.44146 12.9474 17.5114 -0.836159 -0.255775 -0.485198
19.5954 8.63782 3.56728 -0.153724 0.857997 -0.490112
15.0645 19.0527 9.23075 0.298131 -0.269689 -0.915634
13.1018 10.301 3.47741 0.192067 -0.441712 -0.876357
13.4564 11.1876 16.3228 0.305111 0.951739 0.0331674
21.3527 8.34391 8.09773 -0.507064 -0.733747 0.452218
19.0678 10.6181 15.5131 -0.679858 0.223383 0.698494
17.2173 19.1825 7.19011 -0.735849 -0.57477 0.358001
18.0012 13.2295 15.559 0.851587 0.52314 -0.0335243
11.438 17.8722 14.2372 0.276909 -0.320683 0.905805
17.2926 8.81548 9.69394 0.530352 -0.312282 0.788167
19.3899 16.6657 7.40038 -0.308557 0.947437 -0.0845883
7.60689 14.9026 14.395 0.0012735 0.0191194 0.999816
18.4718 15.5334 14.1076 -0.66453 -0.64082 -0.384382
14.6358 21.3118 8.85805 0.000776807 0.993161 -0.116754
19.2212 18.192 8.98344 -0.0931346 -0.547495 0.83161
16.9611 15.5142 10.1408 0.838409 0.320543 0.440821
8.88603 11.9619 15.9386 0.360071 0.91655 -0.174027
19.3664 12.293 17.2374 -0.426591 0.431593 0.794826
21.7001 19.0365 14.2394 -0.399701 -0.480722 -0.780478
7.0363 20.2766 16.9171 -0.55204 -0.766704 -0.327745
7.57277 12.2693 16.1726 0.0557686 0.677003 -0.733864
8.767 13.5 13.2317 0.372761 0.840115 0.394026
22.1579 21.0464 7.10529 -0.0246674 0.985998 -0.164921
9.29667 17.9385 10.2306 0.658905 -0.431995 0.615811
11.1353 9.76836 7.60024 0.462574 0.742467 0.484529
20.5223 9.59567 9.33542 0.823361 0.0377523 -0.566261
18.6906 20.6837 15.0278 0.124893 -0.854449 0.5043
8.22312 22.0963 2.92904 0.0429044 0.775405 0.630005
12.1756 18.1094 10.8576 -0.862134 0.201179 -0.465028
19.7039 11.7805 5.55344 0.7655 0.372468 -0.524669
9.75691 18.3708 9.18905 -0.265507 0.905413 0.331259
20.2381 15.7695 12.2694 0.333196 0.501761 -0.798258
10.2668 10.1233 3.2866 -0.788304 -0.309682 0.53167
10.0077 21.1857 10.9551 0.841685 -0.276438 -0.46384
16.4366 17.1892 7.37779 0.0643912 -0.771857 -0.632528
13.7198 21.471 8.17694 -0.287714 -0.941417 0.175941
11.582 19.427 2.97747 -0.649422 0.37464 0.661737
17.0125 22.161 7.75014 0.760501 -0.645439 -0.0710334
21.9411 8.41182 11.5659 0.198076 0.439019 0.876372
19.829 11.2203 14.0706 0.19025 -0.200294 -0.961086
10.7427 16.2577 11.8837 -0.0930417 -0.652975 0.751643
14.9444 17.3777 9.50087 -0.304444 -0.281681 -0.909928
20.5403 11.9474 14.8141 0.233144 -0.092041 -0.968077
12.2992 12.09 13.2249 -0.749966 0.254447 -0.61058
14.0953 21.789 16.8153 -0.0629177 0.00900128 0.997978
11.3267 21.865 13.0969 0.884776 0.368604 0.285135
7.35231 19.0845 17.8454 0.672385 -0.737362 -0.0647734
20.1449 20.9455 12.8591 -0.0972254 0.744227 0.660812
11.479 21.8826 7.64725 -0.98876 -0.149508 0.001024
20.4783 16.241 17.3662 0.329564 -0.500111 -0.800797
10.2731 21.3011 15.062 -0.723443 -0.303379 -0.620154
14.7589 21.1451 11.5784 0.313788 0.923435 -0.220917
20.9701 17.3414 16.9609 -0.578076 0.656806 -0.484184
16.0101 21.9309 14.7702 -0.548081 -0.77791 0.307347
8.94626 18.118 6.16032 0.0364396 0.788581 -0.61385
22.2421 10.3114 7.8127 0.322947 -0.468202 0.822491
15.8174 13.0057 10.4833 -0.580691 -0.0175318 0.813935
7.57181 23.1026 8.99795 0.220664 -0.454276 -0.863099
20.0125 14.363 17.5328 -0.272928 0.296905 -0.915073
9.38829 11.1894 16.6278 -0.202975 -0.960889 -0.188395
17.7877 14.6997 16.8765 -0.0448258 -0.286864 -0.956922
8.5925 21.7073 8.77984 -0.250102 0.388521 -0.886849
13.1673 22.5074 4.11329 -0.522688 0.0426732 0.851455
21.8682 16.0554 16.3815 0.263721 -0.963744 0.0406151
20.0872 16.4834 15.0312 0.428861 0.888024 -0.165803
7.30659 16.0109 16.848 0.352742 -0.556962 -0.751909
17.1697 17.3299 11.5727 -0.331337 0.542935 0.771645
16.5293 22.2743 9.96468 -0.275567 0.951797 -0.134704
14.8367 15.5275 16.1865 0.349132 -0.550449 -0.758362
12.8623 8.52646 14.8597 -0.0836374 -0.0844534 0.992911
7.08051 12.0414 6.16955 -0.707355 0.62589 0.328498
19.4751 18.8931 10.3216 0.767315 0.443009 0.46365
17.8336 19.7669 10.8572 -0.0100009 0.914739 0.403922
15.1845 13.647 5.95144 0.392766 0.0901275 0.915212
13.5811 19.5138 18.0428 -0.828096 0.546788 0.123614
9.70425 13.5767 12.7707 0.43003 0.159216 0.888664
16.6284 21.0653 14.5964 0.844912 0.502349 0.183762
22.3417 12.9495 13.9945 -0.230397 0.325171 -0.917159
17.1095 20.1185 14.9312 -0.753446 -0.325812 -0.571109
14.3386 17.7575 11.8826 -0.0110087 0.863166 -0.504799
19.3711 11.6785 11.4442 -0.606447 0.295329 -0.738243
10.1379 18.9114 13.6806 0.230332 -0.915219 0.330638
12.4147 17.8015 13.511 -0.208713 -0.668505 0.713821
12.037 22.4857 15.644 -0.0237525 -0.911724 -0.410116
10.8947 15.9687 15.8022 -0.0169985 -0.846146 -0.53268
13.2919 21.6446 11.6054 -0.547877 0.695214 -0.465306
9.11078 21.3838 6.28975 0.0566882 -0.296397 -0.953381
12.1051 13.7367 14.2625 0.200144 0.979764 0.00215815
9.39034 22.8662 15.0872 0.210159 0.945875 -0.247291
21.1381 21.8287 12.3702 -0.257831 0.412718 0.873606
20.2677 13.7648 10.2323 0.923216 -0.115332 -0.366566
17.9477 20.7819 8.92533 -0.467562 0.835851 -0.287645
19.7978 8.0502 14.9025 0.447029 0.791275 0.417193
19.2064 21.6222 8.23625 0.919172 -0.390831 -0.0487211
21.7476 15.4835 13.8698 -0.520597 -0.594425 0.612893
12.4781 20.8029 11.9924 -0.236105 0.434932 -0.868958
19.0931 15.2999 17.4921 -0.0801422 -0.0624719 0.994824
17.1423 8.10286 4.97504 0.866448 0.305947 0.394544
10.3496 12.7065 15.3788 -0.56979 -0.801163 0.18297
15.6265 11.8658 14.1453 -0.0477777 -0.813606 -0.57945
17.0887 20.2597 7.87711 -0.41472 0.858786 -0.300822
18.6514 18.5893 4.1297 0.796784 -0.181471 0.576371
9.06871 23.3205 13.8766 0.500739 0.792901 -0.34723
9.74772 17.5339 16.3822 0.656257 -0.164133 0.73647
7.8 20.1086 15.9407 -0.920659 0.137604 -0.36531
21.9198 13.3974 15.6312 0.767654 0.503281 -0.396755
13.6116 16.5653 16.8517 0.65701 0.609052 -0.44429
11.4229 20.7552 12.9908 -0.0516194 0.528255 -0.847515
9.77446 8.49041 6.54815 0.632575 0.639 -0.437638
9.31642 19.6793 17.7352 0.177229 -0.824476 -0.537428
16.7332 14.3418 7.69514 -0.860098 0.498866 0.106605
7.60719 12.3947 10.6464 0.0595089 0.661493 -0.747586
21.5315 10.5821 16.9059 0.743518 0.548436 -0.382621
10.9308 19.2682 8.6548 -0.728214 0.423654 0.538722
9.39567 19.6216 12.3503 0.972766 -0.0964681 -0.210759
12.8583 14.6611 5.68354 0.521847 -0.689267 0.502581
21.8412 17.1749 15.2173 0.36376 0.535141 0.762432
14.7209 20.4744 13.6844 0.661541 0.683731 0.308018
15.1393 11.4897 16.6918 -0.66273 0.492265 -0.564326
11.9518 9.31905 14.6504 0.21777 -0.348916 -0.911501
18.2406 7.99523 13.8457 -0.373597 0.747265 -0.549564
