23.1635 12.9539 7.18963 -0.338203 0.0507536 -0.939703
11.4939 13.5767 16.885 0.151198 0.414858 -0.897236
12.436 12.4769 15.9195 0.75757 0.379553 -0.531062
11.2153 12.6499 9.2697 -0.373815 -0.874752 -0.308335
23.4296 12.359 6.06944 -0.744121 -0.461285 0.483219
14.4653 14.2663 18.2102 -0.490522 -0.805856 0.331638
12.1634 12.4786 17.6531 0.596539 -0.149362 0.788564
15.0628 12.0266 6.62881 -0.966935 0.204178 0.152802
13.9864 13.9722 8.45251 0.313826 0.94748 0.0616092
14.3713 13.0503 6.12677 0.0769672 0.95652 0.281329
13.7461 12.7463 7.48672 0.782229 0.369446 -0.501624
13.1199 12.7428 6.51616 -0.434726 0.0974593 0.895273
17.6701 14.7784 16.9574 0.44489 0.877237 0.180355
15.4894 14.0692 17.8721 0.283165 0.940427 0.18819
17.2625 14.0843 17.8724 0.374371 0.925731 -0.0535502
17.5481 12.3794 6.58312 -0.479375 -0.794574 -0.372629
17.4868 18.6133 17.9878 0.503182 -0.414644 -0.758207
19.7635 11.4082 5.73018 0.701675 0.710746 -0.0499209
19.5935 18.1296 18.5106 0.759489 -0.474122 -0.445405
20.7964 12.175 8.17075 -0.580189 0.240354 -0.77821
19.1821 16.1178 17.4826 -0.296703 0.9538 -0.0472621
22.4823 23.5392 15.7873 0.065151 0.997636 0.0218661
20.8654 15.4433 5.64324 -0.269552 -0.918943 -0.287897
22.1821 12.4622 16.425 -0.859046 0.493826 0.134818
22.618 23.7993 17.8095 -0.672509 0.129477 0.728675
19.6467 14.118 15.8921 -0.739342 0.668801 0.0779657
23.141 13.9996 5.65665 -0.0339762 -0.986328 -0.161254
23.9334 23.982 7.67603 -0.347357 -0.865127 0.361799
11.6785 15.1774 6.57042 -0.0335373 0.32387 -0.945507
11.9198 13.0761 6.7371 0.574301 0.723852 0.382382
12.4565 15.463 18.1659 -0.621415 0.5576 -0.550386
12.3226 13.0322 5.89554 -0.608235 -0.706614 -0.36159
12.1192 14.1891 5.6899 -0.304181 -0.810506 -0.500554
13.5019 14.9082 8.9901 0.500178 -0.366689 0.78445
13.3475 14.6314 6.76348 -0.98307 -0.183156 0.00526992
15.1293 14.0554 6.90284 -0.353903 0.436189 0.82734
15.1981 15.5942 6.06837 -0.246043 -0.116955 0.962177
16.2933 13.7429 18.3716 0.25965 0.953994 -0.149926
12.6801 14.6027 9.40822 0.349422 -0.705036 -0.617113
14.5026 22.5055 15.907 -0.584819 0.671679 0.45479
15.062 18.6534 18.3728 -0.296509 -0.94643 0.12788
16.6885 15.1069 17.444 0.681988 0.691413 0.238414
18.9694 17.4934 6.04383 0.614843 -0.671403 -0.413747
16.9526 16.9446 18.1079 0.721658 0.671969 -0.166334
18.9199 17.864 15.6193 0.638964 0.723525 -0.261222
17.1644 16.5164 17.2703 0.921764 0.21272 0.324192
21.9103 17.9334 6.40559 -0.705727 -0.69128 -0.155178
20.3404 14.9622 17.3458 0.570082 0.646302 0.507247
19.0592 15.703 18.5729 -0.106287 0.952748 -0.284561
19.8825 15.0989 18.2507 0.252757 0.966581 0.04283
20.3819 17.1452 5.82426 0.510057 -0.262744 -0.819028
21.8538 13.7955 16.3457 0.164714 0.639063 0.751311
18.1582 14.1744 7.45465 0.0125235 -0.689416 0.724257
23.6216 11.6447 18.381 -0.628823 -0.672993 0.389439
23.8454 13.8569 6.52749 0.991927 0.0933551 -0.0858243
12.6387 11.0709 17.5305 -0.460834 0.601484 0.652572
23.8988 13.8988 17.9466 -0.331442 0.403228 -0.852967
14.9116 19.2316 17.4672 -0.854894 -0.327154 0.402649
22.9361 15.8255 6.65996 0.829342 -0.138829 -0.541219
11.8226 16.2889 18.5527 -0.799951 0.249543 -0.545716
23.5474 17.4588 5.97847 0.564562 0.823105 -0.06138
13.8271 15.4919 17.7728 0.663781 -0.508268 -0.548688
13.5834 15.5719 7.21631 -0.904526 -0.395622 0.159108
16.2911 13.9691 6.73205 0.583917 0.172212 -0.793337
12.0611 17.3516 16.7921 0.0202 -0.976062 0.216554
15.1951 16.62 6.58366 -0.749545 -0.341784 -0.566891
12.6303 19.3921 6.65339 -0.212525 -0.942593 -0.257586
15.3754 16.6677 18.5771 -0.651946 0.452043 -0.608788
19.6664 20.2435 17.9503 0.938231 0.336419 0.0809036
15.4038 15.0449 7.6706 0.41453 -0.319874 -0.851966
18.6079 18.3124 17.9642 -0.542856 -0.0919307 0.834779
20.5247 17.8894 10.639 0.129835 0.339622 0.931558
19.0416 19.4595 5.94264 0.358275 0.300912 0.883794
18.1258 16.9451 5.64624 0.340345 0.493551 -0.800358
17.5104 19.9847 18.4766 -0.561792 0.816652 -0.132172
22.1028 17.9322 18.5081 0.897081 0.278586 0.34298
19.8332 18.0013 16.3926 0.445762 0.437749 -0.780815
19.8727 17.2339 15.5912 -0.869309 -0.206865 -0.448897
18.2476 16.8086 16.6846 -0.366835 -0.914855 -0.168739
23.1153 15.8736 18.4701 -0.96968 0.161195 0.183674
18.8838 16.5422 15.9514 0.449987 0.346188 0.823205
16.5505 16.5754 7.66864 0.0930319 -0.373593 -0.922916
23.8264 15.0018 6.84807 -0.140373 0.411536 0.900519
22.4556 13.2355 7.82569 0.575637 0.0876537 0.812994
23.0384 17.0635 18.0223 0.956351 0.215163 0.197729
12.1844 18.5797 17.5612 -0.908533 -0.195384 -0.369315
12.1829 18.7614 7.52672 -0.964521 -0.176581 0.196262
21.577 17.0323 8.2862 -0.584804 -0.688995 0.428125
12.2376 18.5488 18.6363 -0.699336 -0.711809 -0.0652474
13.8027 15.4439 5.8947 -0.797288 -0.0504726 0.601485
13.6905 20.1714 18.3314 0.76711 0.565693 0.302545
11.7906 17.5249 6.50626 -0.568108 -0.457552 -0.684032
14.324 19.507 5.66489 -0.790825 -0.599216 -0.124641
14.8799 17.5015 7.36717 -0.903502 0.076359 -0.421726
14.501 18.6133 6.19774 -0.739661 -0.671908 -0.0379633
14.6907 16.0262 17.6312 0.406911 -0.457821 -0.790458
15.9031 21.6808 6.23998 0.0857047 -0.243352 0.966144
15.9527 17.6833 18.6472 0.180672 -0.730726 0.658329
14.6388 17.4118 6.24699 -0.93432 -0.25732 -0.246644
17.6417 19.9355 8.76534 0.807088 -0.35724 -0.470094
19.1637 19.3607 17.2363 0.35483 -0.383074 0.852848
17.785 18.11 7.51306 0.0659791 -0.900429 0.429969
18.7094 17.954 7.77469 0.134516 -0.990259 -0.0359508
19.1559 18.6523 6.70019 0.762071 -0.537312 -0.361308
18.0721 19.3248 17.1811 0.430054 -0.796497 -0.425024
20.0221 16.7915 17.7266 0.733935 -0.589822 -0.336823
21.0691 19.5105 6.92394 -0.227976 -0.0689914 -0.971219
12.6113 17.1855 6.11092 -0.649866 -0.0743475 -0.756404
22.8152 22.2487 16.4955 -0.143817 -0.987212 -0.0687648
20.8021 17.2121 17.0748 -0.812262 -0.139923 -0.566261
21.4141 20.1896 8.92637 -0.805451 -0.315542 -0.501679
23.0787 17.7003 7.36519 0.14909 0.643528 -0.750762
21.9576 16.9055 5.67892 0.641275 0.522915 0.561539
21.8837 17.9735 16.9966 0.639733 -0.0857861 0.763795
12.342 22.5035 6.95862 0.949294 0.224272 0.220323
13.271 19.6813 7.86319 0.23533 -0.924614 0.299513
11.8804 20.5804 6.44518 0.953742 0.233262 -0.189646
13.7146 19.5988 6.48109 -0.170748 0.916489 -0.361792
13.5969 22.2861 6.31762 0.489878 -0.848655 0.199511
16.1542 19.2597 18.144 0.176583 -0.231977 -0.956559
16.5292 23.3804 6.12066 -0.671812 -0.626587 -0.395041
16.9218 19.894 17.0126 -0.0140407 -0.300392 0.953712
15.1304 21.1103 6.36704 0.478248 -0.874738 0.0781804
15.9896 20.5963 7.47 -0.942033 0.147129 -0.301541
13.9397 20.503 16.531 -0.663155 0.736642 -0.132603
15.7908 21.1634 16.1262 0.827408 -0.342167 -0.445328
16.2809 20.5038 5.93659 0.292316 0.393409 0.871654
19.1116 20.6625 16.7628 -0.119129 -0.285352 -0.95099
15.518 21.7279 17.2356 0.954648 -0.0766358 -0.287704
20.0411 19.772 5.71231 0.179909 -0.609928 -0.771765
17.8285 21.1032 18.0387 0.530299 -0.649271 -0.545188
19.8459 19.4791 8.85873 -0.445632 0.568578 0.69147
21.2921 12.01 17.0866 -0.883576 -0.354198 -0.306329
16.6647 18.1195 17.4953 0.444768 0.790469 -0.421118
17.8907 11.4483 17.7004 -0.524899 0.579419 -0.623502
21.6203 18.7876 5.72356 -0.019865 0.118959 0.9927
23.6192 18.9943 17.321 -0.481967 -0.667512 0.567569
21.8921 22.5784 16.7078 -0.198358 0.87978 -0.432019
22.5329 20.1567 18.0159 -0.794081 -0.599212 0.101886
11.3511 18.7772 6.79135 -0.505863 -0.861407 -0.0456086
23.8941 22.1242 16.6952 0.480832 -0.710272 -0.514115
22.9545 21.7303 5.77174 0.514846 -0.808235 -0.285814
23.2858 23.8347 6.51331 0.625911 0.774565 -0.0910185
22.6084 19.0857 18.5349 0.18873 0.34328 0.920076
14.63 21.8472 18.4632 0.729076 0.598435 -0.332149
15.1745 21.1002 18.0589 0.959102 0.0168407 0.28256
12.4209 22.45 18.6625 -0.350041 0.446043 -0.823721
14.3297 20.0747 17.6421 -0.818901 -0.220298 -0.529971
12.1 21.1502 18.5826 -0.313533 0.840774 0.441358
13.5179 20.04 8.7353 0.114074 -0.950715 0.28832
17.1031 11.6655 7.48142 0.526605 0.285555 0.800715
14.7322 23.1319 18.0094 -0.599304 -0.779368 -0.182814
16.143 13.1383 17.4821 0.463889 0.826622 -0.318595
13.2544 21.6233 17.3919 -0.880164 0.149312 0.450575
17.7845 23.7177 5.79608 0.610228 -0.744499 0.270818
19.6892 21.2767 5.85486 0.386558 0.896204 0.217698
16.915 23.2312 18.0604 -0.98956 -0.130776 0.0605754
17.5421 22.8317 6.42497 -0.628393 -0.162082 -0.760823
18.3696 22.1254 17.7893 0.422911 -0.824202 0.376613
20.1049 20.7948 16.7002 0.157354 0.823923 -0.544418
21.7591 23.2822 17.5828 -0.36558 0.673925 -0.64201
20.4635 11.7468 17.8776 0.692537 0.721165 -0.017734
20.9142 22.311 6.19523 0.176285 0.453242 0.873782
21.4737 20.476 18.579 -0.528687 -0.795961 -0.294849
22.5757 21.9571 17.804 -0.108078 -0.877713 0.46684
20.8929 22.8261 18.2404 0.773303 0.0547203 0.631671
20.0607 22.2156 16.7382 -0.535466 0.168045 -0.82767
22.6265 20.2795 6.10641 -0.790756 -0.562474 -0.241511
20.9625 22.3019 16.2937 0.0227252 0.871683 -0.489543
23.1782 23.6242 9.14617 0.803618 0.227527 -0.549936
11.4641 23.659 6.46531 -0.0917021 -0.946766 -0.308586
13.7508 22.8187 8.16244 -0.914208 -0.324648 -0.242545
12.3311 11.3434 6.00307 0.911485 -0.392206 0.123973
11.5996 22.2153 17.4587 -0.268914 0.0585221 0.961385
11.5334 11.2709 11.5325 0.565808 -0.283625 0.774221
15.2009 12.5777 18.5552 -0.148964 0.98884 -0.00224951
13.5477 11.7316 7.27819 0.867893 0.263252 0.42126
12.1244 23.5225 18.6389 0.291427 -0.203381 0.934723
12.9781 14.3904 10.3828 -0.786099 0.484865 0.383345
17.9103 12.7388 7.72929 0.986674 0.14626 -0.0712962
11.8861 11.2472 7.86263 -0.328414 0.306549 0.893405
14.2 23.4355 17.2566 -0.686193 0.372215 0.624976
15.5422 12.9052 6.91485 0.680552 0.335358 -0.651447
18.2361 11.7744 7.41991 -0.249691 -0.274376 -0.92864
15.9159 12.1624 7.59685 0.613982 0.195003 -0.764853
18.429 21.9609 16.8501 -0.0775718 -0.989312 0.123472
18.7465 13.5741 8.88687 0.12359 -0.922107 -0.366667
20.113 13.4782 5.6745 -0.788399 0.400845 0.466637
16.9971 13.3892 9.36502 -0.813238 -0.275424 0.512626
22.1301 13.7203 18.6487 0.0190922 0.633619 -0.77341
19.8422 12.6211 6.15207 0.719166 -0.305127 0.624257
19.5421 23.5897 6.58363 0.756099 0.649928 -0.0768596
23.7772 12.4662 17.1606 -0.0866663 0.509237 0.856251
21.6833 12.0693 6.3835 -0.740384 -0.463541 0.486787
22.8411 12.3023 8.1296 0.429014 0.210847 0.878345
19.7466 11.0841 10.4505 0.659442 -0.216378 -0.719943
23.4931 21.6236 17.5514 0.149448 0.503939 0.850712
23.2077 14.5536 11.0912 0.509684 -0.603452 0.613244
24.0818 15.362 13.9071 0.228667 -0.641644 -0.732123
14.5218 13.2721 11.3609 -0.899403 0.135772 -0.415499
12.0335 12.0781 11.7559 -0.125688 0.159173 0.979217
12.9955 13.327 10.0591 0.751534 -0.55804 0.351834
11.9189 12.8343 10.5684 0.239613 0.0219699 -0.97062
13.7724 15.0893 11.0774 -0.555225 0.197988 0.807791
17.9988 15.8324 18.6664 -0.308998 -0.291504 0.905288
12.4478 20.2216 17.3104 -0.345461 0.933319 0.0978368
14.5146 13.3234 9.04222 0.0219208 0.817687 0.575246
16.5628 13.1967 10.6233 0.336367 0.937568 0.0884455
18.1871 14.3138 6.02153 0.300706 -0.723044 0.621919
18.3149 12.982 5.87647 -0.268564 0.784329 -0.559197
14.9153 14.9982 11.9836 -0.328115 0.607558 0.723335
19.0483 12.3572 9.69965 0.0778305 -0.396712 -0.914637
15.6868 11.8676 9.9223 0.404431 0.7319 -0.548415
17.7581 12.0115 18.4758 -0.750044 0.37651 -0.54376
18.2433 13.0123 9.77687 -0.103037 -0.618887 -0.778692
20.2361 11.5565 9.24668 -0.523479 0.371676 0.766699
18.9117 14.8191 16.968 0.292913 -0.763317 0.575803
21.6213 13.5717 17.6016 -0.633588 0.3532 0.688343
23.0316 13.3794 9.75171 -0.485367 -0.524502 -0.699512
19.9603 15.1005 16.2598 -0.629106 0.681066 0.374666
21.9107 14.1598 6.9813 -0.105148 -0.278658 0.954617
19.9765 13.1212 16.686 -0.786507 0.351615 0.507715
21.1216 14.2766 8.53314 0.0402307 0.957839 0.284475
23.3359 11.809 7.14592 0.592546 0.78164 -0.194753
13.3039 14.2684 11.356 -0.989367 0.142994 0.0265677
13.2442 13.5458 7.418 0.433518 0.254112 -0.864575
22.522 15.0646 9.18631 0.787347 0.615266 -0.0391525
23.9362 13.9829 12.7838 -0.643062 0.546432 0.536548
23.4349 16.2573 7.37195 -0.86706 0.315906 0.38524
23.904 23.1888 9.59686 0.789841 0.601792 -0.118312
12.7872 17.0225 9.10933 0.192076 -0.031529 -0.980873
15.1124 14.6496 5.93315 0.997788 -0.0348348 -0.0566225
11.7084 14.1713 8.68914 0.560746 -0.711061 0.424213
14.8093 13.3706 7.93425 -0.673501 0.547094 -0.497076
14.9887 14.5568 8.93389 0.437158 -0.663214 -0.607487
17.1072 14.3771 9.6165 0.816696 0.365165 -0.446835
17.9894 15.1155 7.86662 -0.0506772 0.720159 -0.691956
16.5139 11.7603 17.4087 -0.336667 0.255376 0.906332
17.3093 16.2402 8.20611 -0.361274 -0.290774 0.885964
19.9912 13.9097 11.0883 0.400926 0.51582 -0.757092
16.9993 16.4968 5.97912 -0.169952 0.794714 0.582706
17.6189 17.54 6.29117 0.497573 -0.36676 0.786071
19.7537 17.0957 7.55073 0.186625 -0.815625 -0.547657
19.1634 13.8126 7.48557 0.27486 -0.547973 0.790049
21.3324 15.3357 6.6307 0.472387 0.866593 -0.160831
21.3218 14.6843 17.5482 0.241868 0.118999 0.962984
19.5179 16.0306 7.85555 0.724644 0.34801 0.594794
21.1319 13.0707 7.37836 -0.251765 0.967788 -0.00126884
22.5601 14.9859 6.41141 -0.655154 0.489923 -0.575108
21.1139 13.4894 6.10472 0.180129 0.980712 -0.0758726
20.6144 17.1849 7.94036 0.119761 0.0741162 -0.990032
24.009 13.7753 8.1084 0.249227 0.507432 -0.824863
11.9621 13.3554 8.13205 0.0461983 -0.722582 0.68974
13.0996 12.8501 9.02436 -0.516617 -0.787817 -0.335337
22.3782 19.1544 7.18677 -0.54015 0.675372 -0.502106
22.9453 15.269 8.20786 0.639533 -0.716658 0.278207
22.4625 18.2954 8.37481 -0.498903 0.816771 -0.289795
12.169 15.122 8.58906 0.21953 -0.493529 -0.841568
12.5153 18.2669 8.24363 -0.216418 -0.929547 -0.298506
14.5503 16.6101 8.72594 0.220787 0.959335 -0.175866
13.3603 16.4066 6.60854 0.288714 -0.0614882 -0.955439
13.5558 14.5779 7.81772 0.824746 0.449537 -0.343089
14.5522 19.3623 9.3716 -0.787629 -0.209832 0.579319
16.8458 17.6462 7.79586 -0.370656 0.601068 0.708047
16.9818 15.3847 7.87474 -0.166125 -0.37949 0.910159
15.2102 17.5573 9.41646 0.021196 0.847148 -0.530933
17.6918 17.7069 8.71688 -0.970239 -0.189958 0.150172
19.5469 15.7518 8.89354 0.420863 -0.796996 -0.433211
18.1192 18.5293 9.7256 0.126372 0.108555 -0.986025
20.1025 19.2316 6.81039 0.0463191 0.379881 0.923875
16.0417 18.3727 7.63518 -0.119533 0.761082 0.637547
18.577 15.7896 8.29548 -0.334827 0.802364 -0.494067
19.7452 18.5561 7.55727 0.503692 -0.670816 -0.544335
20.5638 15.6376 7.72253 -0.0256082 0.0169225 -0.999529
19.2845 14.4201 8.29081 -0.509076 0.466076 -0.723612
22.2411 16.9052 12.0257 -0.0244247 0.58231 0.8126
19.6455 13.2034 6.81918 0.890441 0.446197 -0.0895731
19.8765 15.431 6.20008 0.496032 -0.867749 -0.0310354
21.2228 17.3221 13.066 -0.29042 0.641967 -0.709602
22.7409 14.2402 7.88274 0.704311 -0.513208 -0.490472
11.9941 16.6304 6.78437 -0.645102 -0.46129 -0.609142
12.4299 17.6408 17.7028 -0.982346 0.0651501 0.17536
23.5678 18.076 9.27666 0.223871 -0.449037 0.865013
14.1474 18.2505 7.81264 0.148796 0.866183 -0.47706
11.3454 18.7974 18.1551 0.71164 0.699945 -0.0603862
15.0627 19.1545 7.96743 -0.0458712 0.991196 -0.124206
14.7851 19.9666 6.72769 -0.537935 0.737531 -0.408257
12.9208 19.1463 9.47993 -0.390765 0.896041 -0.210746
17.0732 19.8585 6.6555 -0.321895 -0.0680691 -0.944325
13.2383 18.0889 7.11801 -0.0112116 0.398876 -0.916937
16.6693 19.2016 9.22567 0.947851 0.19073 0.255346
18.8161 16.7541 6.82499 0.361621 0.910975 0.198382
18.0028 20.9426 6.83466 -0.707397 -0.322871 -0.628763
13.6269 18.0098 18.3017 0.835458 0.0623362 -0.546008
14.3593 20.843 9.39241 -0.535583 -0.818798 0.206689
19.5511 17.3209 10.0185 -0.320868 0.438402 0.839552
17.267 18.5781 6.36601 0.796852 0.601194 -0.059931
17.4844 18.8059 8.44272 0.451458 0.509166 -0.732759
18.7457 19.5196 9.66454 -0.0477866 0.369708 0.927918
20.9489 16.4558 6.86786 -0.702491 -0.0835981 -0.706766
18.3593 20.209 7.68286 0.717376 -0.62186 -0.314105
22.1369 17.1727 7.04946 0.824998 -0.487057 -0.286626
21.1906 18.289 9.9405 -0.832345 0.383967 -0.399714
22.6689 17.6467 9.80719 0.565412 -0.0510317 0.823229
21.8134 18.7488 9.14017 -0.601803 0.289231 -0.744432
21.3268 18.0692 8.39993 -0.266535 -0.356644 0.895413
22.5195 19.0048 10.7275 -0.890793 -0.0272484 -0.453592
23.615 19.4934 6.43274 0.122559 0.67604 -0.726601
12.1269 20.1188 7.63184 -0.241084 -0.831143 0.501078
12.5953 20.7688 8.27058 -0.232186 -0.901952 0.364105
22.2197 22.5732 7.8153 0.528602 -0.184044 -0.828678
14.3103 18.6962 8.67058 -0.0852746 0.88551 -0.456728
11.5396 20.6164 8.36186 0.333931 -0.067456 0.940181
12.0677 19.6796 5.88956 -0.824512 -0.555444 0.107994
14.433 22.2948 9.90565 -0.449568 -0.892727 0.0304422
19.081 20.205 8.49309 -0.664406 0.0241732 0.746981
14.0118 23.5877 5.63142 0.160579 -0.97173 0.173077
16.5251 19.2568 16.0625 -0.880525 -0.158184 0.446826
14.1707 23.6532 7.57423 0.979173 -0.150881 -0.135848
15.8635 19.9789 9.30465 0.443018 0.499005 -0.744802
16.863 21.4352 17.6827 -0.450973 0.756953 0.472911
15.4604 22.2396 8.48757 -0.587768 -0.326737 -0.740116
16.6494 21.2599 9.34286 -0.411469 0.446529 0.794547
15.6438 20.6975 17.2875 0.915392 -0.210261 0.343289
18.6268 21.3256 8.80961 0.224744 -0.463252 -0.857256
20.4999 21.4517 6.68904 0.966098 0.0829953 -0.244472
18.3837 23.0077 8.18152 -0.956275 -0.0519552 -0.287816
21.1882 19.6006 9.64061 0.470444 0.606693 0.640786
22.4533 21.2112 6.61455 -0.801548 -0.593842 -0.0697984
22.3532 19.7643 9.91312 -0.0436615 -0.23555 -0.970881
22.5475 20.7679 11.4968 0.561005 -0.141174 0.815686
11.2337 19.9013 10.2833 0.938903 0.190282 -0.286799
19.105 11.2847 17.4274 -0.156515 0.343009 0.926201
20.8403 18.3798 6.68745 0.00435918 -0.44157 -0.897216
22.6751 20.5624 8.17921 0.682968 0.693858 -0.228289
11.1821 19.4146 8.57379 -0.611683 -0.406456 -0.678703
11.2349 20.9916 17.1927 0.128179 0.464874 0.876049
21.3777 21.9016 7.31457 0.820584 0.156562 -0.549664
12.6931 22.9015 8.80249 -0.0806506 0.829664 -0.552406
11.6204 21.6245 7.85555 -0.820482 -0.10042 0.562783
23.8942 23.5391 5.71229 0.545515 0.736387 -0.400184
13.754 20.5695 7.09253 0.474615 -0.768155 0.429743
11.5948 10.9633 10.29 0.928543 0.291835 -0.229434
13.8297 23.2611 6.72968 0.821332 -0.545194 -0.167862
14.8674 11.1571 17.4017 0.269245 -0.372212 -0.888237
13.2662 22.7445 18.3216 -0.339551 0.935416 0.0985024
16.8866 11.0506 9.13509 -0.16132 0.588769 -0.792039
17.5377 22.0127 16.69 -0.109059 0.00619781 0.994016
16.0716 22.6633 17.3281 -0.999405 -0.0329096 0.0103665
15.7123 18.5032 6.42584 -0.620548 -0.0863038 0.779405
16.5519 22.7578 6.88869 0.0313387 -0.598221 -0.800718
16.1949 22.597 10.6036 -0.428015 -0.377486 0.821162
18.3226 20.1845 6.10596 0.316788 0.361079 -0.877079
18.8432 20.9464 6.38138 -0.487558 0.549912 -0.678148
19.5481 23.1998 7.60697 -0.718641 -0.618421 -0.317978
20.3197 23.0899 9.75284 0.935798 -0.0170574 -0.352123
21.2786 20.2563 17.5242 -0.802294 -0.594936 -0.0487299
21.3601 21.3611 8.32867 0.195398 -0.952052 -0.235406
19.4112 22.9347 18.6292 0.955889 0.0178045 0.293188
20.5975 20.7206 7.88749 0.607541 0.271346 -0.746502
20.7608 22.9534 16.9319 0.647379 -0.493897 0.580488
21.5969 21.7312 18.1734 -0.166795 -0.41991 -0.892107
22.0591 23.8234 10.4704 -0.193565 -0.497259 0.845734
11.5592 23.0927 8.33123 0.369252 0.753091 0.544524
24.147 21.2254 5.87449 -0.353243 0.874552 0.332232
14.0314 23.4071 10.6497 -0.677433 -0.499567 0.539923
23.004 11.5846 8.94732 -0.137678 0.453232 0.880696
12.5422 23.3715 9.79613 -0.709319 -0.457676 -0.536097
23.9619 13.1256 11.1839 -0.0139613 -0.121659 0.992474
13.1223 21.5689 12.02 0.177151 -0.9839 0.0236112
12.7981 12.2487 10.1838 0.0601566 -0.478873 -0.875821
14.6062 11.7306 10.145 0.0932455 0.287422 -0.953254
14.5226 13.5665 10.3403 0.192767 0.868909 0.455892
16.2456 14.1211 12.8937 0.615822 0.662242 0.426847
15.1319 11.4386 12.3823 -0.876406 0.131038 0.463403
15.7869 22.9062 7.92273 -0.410137 0.808156 0.422695
15.5188 12.8741 10.858 -0.231135 -0.972719 0.0198824
17.5065 23.3168 8.9213 -0.187269 -0.773207 0.605872
16.9087 11.7361 10.7519 0.431481 0.299213 0.851055
18.1008 13.3914 11.4929 -0.202724 0.665966 0.717909
16.8502 12.4724 8.68581 -0.917821 -0.389648 0.076027
18.3789 23.7872 10.4652 0.866443 -0.376048 0.328428
18.4949 11.1251 8.40313 -0.0549455 0.538889 0.840583
18.0976 23.1077 12.1312 0.944303 -0.136676 0.299353
20.106 12.6818 10.2895 0.589692 -0.384944 -0.709987
23.0395 11.6906 17.2837 -0.0497588 0.532612 0.844895
19.5265 12.5106 11.5778 -0.976826 -0.160073 -0.142081
22.2613 22.086 11.2037 0.753457 -0.648354 0.109273
20.7992 23.7458 7.22427 -0.43821 -0.682898 -0.584484
18.9279 11.4573 9.97885 0.390001 -0.379462 -0.838992
19.4946 14.6686 9.66347 -0.544979 0.797651 -0.258362
11.6638 11.9384 9.91587 0.515416 -0.330991 -0.790437
24.1999 12.5541 7.80466 -0.236259 -0.839922 0.488582
23.2326 14.0567 9.09831 0.944639 0.00308176 0.328096
23.3266 16.2274 13.0424 -0.532433 -0.19801 -0.822987
14.0944 13.1886 12.1791 0.840341 0.124467 0.527574
11.323 14.9195 9.37262 0.612943 -0.469753 0.635321
23.1145 13.0977 12.4991 0.219453 -0.815642 -0.535321
14.187 14.3099 12.1925 -0.884336 0.44958 0.125808
15.3237 13.2408 9.65914 -0.0642077 -0.780185 -0.622245
16.4519 14.1479 8.90596 -0.863209 0.0201154 0.504447
13.9947 11.4004 6.45404 0.793548 -0.507814 0.33527
11.8765 15.4829 11.7028 -0.169279 -0.222981 0.960012
17.4789 14.6405 11.521 -0.100481 -0.932408 -0.347158
13.6109 15.5558 13.049 -0.356688 0.257401 0.898064
17.9282 14.5291 10.6692 -0.451754 -0.75436 -0.476297
15.9106 15.7885 13.8234 -0.279385 -0.15379 0.947783
15.9092 23.6958 11.281 0.75093 -0.65034 -0.114725
18.277 11.7468 11.9401 -0.493801 -0.359277 -0.791884
17.3104 13.6697 7.23536 0.16557 0.26212 -0.950726
18.565 13.8071 12.7959 -0.357232 0.176485 0.91719
18.7862 12.5913 17.5108 -0.0375199 -0.301383 0.952765
21.501 11.5329 18.2209 -0.598207 0.0840175 0.796925
19.7806 11.7299 6.95659 -0.575005 0.244866 -0.780647
21.1165 13.3787 12.9846 -0.675278 0.736179 0.0451655
21.8053 13.0697 8.636 -0.0568433 0.685447 0.7259
20.0253 14.1621 7.40852 0.291024 -0.2127 0.932772
21.2448 11.2312 9.49134 0.156732 -0.759807 -0.630974
22.3358 13.308 11.9742 -0.188719 -0.951575 0.242673
22.8515 13.0486 10.8434 0.376513 0.378024 0.845775
12.0423 13.7274 10.666 -0.857827 0.201733 -0.472691
22.9192 14.4969 9.85962 -0.740318 -0.669118 0.0648835
21.7739 15.8116 8.62553 0.386535 0.0120216 0.922196
22.2955 15.4264 13.6803 0.156598 -0.975994 -0.151371
11.8928 15.7954 7.51266 -0.71709 -0.0791047 0.692477
13.4984 11.8562 8.48628 -0.577404 -0.501396 -0.644366
12.5581 16.2412 11.5613 -0.314943 0.453777 -0.833605
13.1952 15.5503 10.1264 0.418112 0.200121 -0.886078
11.7987 16.9109 9.3378 -0.0573418 0.526273 -0.84838
12.7047 16.025 9.07024 0.230005 -0.0547312 -0.971649
13.5141 17.317 11.9754 0.07197 0.943547 -0.323326
16.81 14.7192 12.1597 -0.128836 0.989962 -0.0581073
15.7301 17.4907 11.7916 0.806315 0.1443 0.573614
15.9827 15.7845 7.81249 0.249764 -0.146274 0.957195
14.8577 17.4657 13.9127 0.409155 0.149824 0.900081
18.0498 16.0516 12.6955 -0.322947 0.575478 0.751352
19.0488 16.6947 10.7984 -0.0517154 -0.545385 -0.836588
20.3259 13.1672 8.73726 -0.158135 -0.105375 -0.981779
18.0734 16.0584 9.31573 0.402648 0.71338 0.573554
18.5674 14.6502 12.1326 -0.0461489 0.413849 0.909175
20.3287 15.3197 10.1894 -0.0610183 0.223859 0.97271
19.3599 15.1064 7.0175 -0.679365 0.11562 -0.724635
19.2793 15.5567 11.0834 -0.217524 -0.0555238 0.974474
23.9978 14.8562 12.3526 0.60622 -0.493134 -0.623952
22.1573 16.9366 10.5007 -0.349353 0.518343 0.78056
20.9117 14.0042 9.76095 -0.524678 0.387495 -0.757998
23.3266 16.8161 9.97777 0.348173 0.0313927 0.936904
22.7428 14.9327 12.5528 -0.419094 0.846024 0.32955
22.5351 15.4294 11.3485 0.90584 -0.0586438 0.419542
21.7005 14.9825 7.58161 -0.936267 -0.223531 0.270995
12.6581 17.7604 10.6935 0.213197 -0.668533 0.712468
22.9749 16.1435 14.2951 -0.283187 0.750544 0.597066
13.6007 17.5335 9.04934 -0.275199 0.925603 -0.259854
15.9881 14.9777 9.78612 -0.915112 -0.32657 0.236478
14.8161 16.1087 7.89611 0.795863 0.58731 -0.147205
13.8227 17.4363 10.9508 0.387835 0.852977 -0.349305
17.2297 14.7824 6.60179 0.0668729 -0.201296 0.977245
16.1155 14.7052 8.24779 0.502757 -0.396322 -0.768222
15.5899 16.9344 8.62832 0.170285 0.97367 -0.151556
14.4317 16.3838 11.2536 0.660597 0.457072 -0.595564
16.858 19.1382 7.768 -0.0500284 0.842186 0.536862
16.4036 17.3593 11.1534 -0.704914 0.142502 -0.694831
16.9781 16.2262 11.3348 -0.948309 0.298275 0.108361
20.2352 19.3619 11.3613 -0.388563 -0.910878 -0.138997
16.3605 17.5838 9.74436 0.373574 -0.617117 0.692538
18.739 14.5593 18.1552 -0.184478 0.848241 -0.496442
18.7252 16.5864 12.271 0.0588223 0.416487 0.907237
19.7201 19.7025 10.4604 0.00569761 -0.663451 -0.748198
20.7914 19.1492 10.6168 -0.751086 -0.604217 -0.266067
20.0225 16.2601 10.1389 0.239212 -0.126851 -0.962645
21.2554 18.872 11.5739 0.343393 -0.750439 -0.564732
11.357 17.1325 12.2308 0.582646 -0.320089 0.747039
22.2037 18.11 11.6655 0.409624 0.0822593 -0.908538
21.8418 16.9308 9.35777 -0.518432 0.391533 0.760217
23.6101 19.4783 9.56445 -0.569007 0.80829 0.151319
23.5161 15.6107 10.5913 0.519354 -0.287651 0.804692
23.4818 19.7708 7.57135 -0.91156 -0.205517 0.35612
23.2136 19.0354 13.5608 0.0732149 0.156648 0.984937
11.6034 18.9977 10.1461 -0.416944 -0.0572787 0.907125
23.803 16.4784 8.22561 -0.827788 -0.363859 0.427051
24.1587 17.1985 7.08595 -0.371148 -0.632172 -0.680153
13.8637 16.562 7.85797 -0.372639 -0.173036 0.911701
14.4504 18.3579 11.4792 -0.0511635 -0.962844 0.265169
12.5039 18.5828 11.3642 0.241284 -0.834418 0.495509
15.1241 18.6004 9.85191 -0.967946 -0.250701 -0.0151338
16.128 19.5089 7.2725 -0.356964 0.416913 0.835919
15.8201 19.7475 12.0334 0.536259 0.0803838 -0.840217
18.6687 16.6421 14.2786 0.591793 -0.571795 0.568183
16.878 19.2939 10.4004 -0.987168 0.0575203 0.148966
18.7284 17.5737 9.47522 0.726527 -0.031743 -0.686405
19.0517 21.3557 10.4358 0.0352298 0.888011 -0.458471
17.8694 19.4519 11.1801 -0.821673 0.370462 0.433142
15.4692 21.751 9.8031 -0.0948479 -0.995482 -0.00450989
18.5255 16.8453 8.65837 0.976949 0.0258016 -0.211907
20.4912 20.7804 9.19699 0.108822 0.928562 -0.354867
19.3145 20.0712 11.9227 0.921814 -0.0417639 0.385375
22.2489 18.6671 12.8587 -0.570198 0.744807 -0.346606
20.2004 18.0637 8.74307 0.378216 -0.00624881 -0.925696
17.6963 19.8294 12.3006 0.409312 0.866872 -0.284598
21.0353 17.8937 15.2303 0.981276 -0.0125373 0.1922
23.4813 18.488 10.4087 -0.53493 0.461551 -0.707687
23.3497 22.2148 7.67424 -0.35181 -0.384473 0.85347
21.1534 22.2455 10.4596 0.514622 0.672587 -0.53178
11.1715 18.238 12.0133 0.87996 -0.211139 0.425548
22.4875 20.4283 7.26173 0.97864 0.152836 -0.137493
12.8485 21.0519 10.3411 -0.533495 -0.775511 0.337588
22.2576 12.0608 10.7203 0.343693 0.153968 0.926374
12.5071 20.6267 11.4764 0.0626826 0.981894 -0.178762
13.4224 21.4098 9.23328 -0.199884 -0.940146 0.275992
13.5973 16.969 10.1611 0.700552 0.626456 -0.341732
11.5544 19.9803 11.2346 0.153483 -0.913892 0.375825
15.0179 20.9573 11.2991 -0.783801 0.292531 -0.547797
16.8155 22.2466 8.55707 0.124875 0.0215164 -0.991939
14.3864 20.8349 7.9371 -0.0412569 -0.635959 0.770619
15.2446 20.798 8.55452 -0.220834 -0.585142 0.780283
16.6757 17.632 13.4117 -0.767195 0.277919 -0.578076
15.519 22.7192 6.87021 -0.29935 -0.912841 0.277689
14.6711 20.0833 10.3242 0.0501857 0.989253 -0.137333
15.2395 22.0399 12.4891 0.339245 0.88123 0.329161
18.3781 17.7941 11.9657 -0.166428 -0.418114 0.893019
18.0525 22.2142 5.97962 0.453185 -0.291097 0.842548
20.6505 21.4739 9.93824 -0.756165 0.647586 0.0940531
18.7457 23.4977 9.32148 -0.868224 0.466354 0.169413
19.3487 22.0886 12.2016 -0.435637 0.543295 -0.71767
21.029 20.6662 10.7406 -0.472064 -0.738454 -0.481499
19.1109 18.4564 9.61864 -0.0231747 -0.0425837 0.998824
19.3601 21.2606 11.5676 0.605482 0.446438 -0.658851
22.9088 23.3027 11.2249 -0.235541 0.949268 0.208354
20.68 20.6684 6.23537 -0.0686357 -0.482575 0.873161
23.1668 19.7945 12.3181 -0.206898 -0.0300636 -0.9779
22.9482 21.6105 10.2132 -0.59407 -0.793552 -0.131744
13.3308 18.2961 14.2052 -0.437492 0.255226 -0.862242
21.6355 22.1828 9.36008 0.996518 -0.0722487 -0.0416277
23.2957 22.5967 8.83952 -0.932185 0.346083 0.106104
11.6432 21.7449 9.42131 0.613266 0.631121 0.474965
12.108 22.6178 12.1259 0.167737 0.815529 0.553875
11.7956 23.2296 7.39705 -0.959446 -0.0258536 -0.280704
13.9962 22.1857 7.39037 0.821628 0.565006 0.0754694
13.0608 12.0041 11.7973 -0.514339 -0.51316 0.687111
16.4546 20.2903 10.1742 0.890601 -0.311954 -0.330931
14.9993 23.4591 5.946 -0.176528 0.983991 -0.0244865
14.2994 22.043 8.54689 -0.575193 -0.598792 -0.557316
16.0466 11.1364 8.011 0.164656 -0.174183 -0.970849
16.6552 21.4269 11.7814 0.985029 -0.138065 0.103228
17.6377 23.7957 7.31231 -0.702999 0.0405986 0.710031
17.3094 21.7704 6.61072 -0.513628 -0.484082 -0.708414
17.6063 21.6832 8.68948 0.200968 -0.0908218 -0.975379
19.7518 22.1946 8.0262 -0.569016 -0.359972 -0.739352
19.1375 22.5651 17.4546 0.303893 -0.910034 -0.281935
16.4536 21.4193 8.15874 0.714452 -0.0773697 -0.695393
16.3979 22.9238 12.577 0.0594781 0.914392 -0.400438
20.3981 22.2822 12.5725 0.513483 -0.85202 0.101965
20.8558 23.8155 6.04968 0.708839 0.14987 0.689265
23.5506 20.4406 11.3095 -0.555991 0.0188582 -0.830974
17.1934 22.3551 10.5082 0.50834 0.760193 -0.404595
23.2615 19.6935 8.65827 -0.421703 -0.855525 0.300405
20.7795 23.7929 10.6587 -0.657493 0.235035 0.715864
11.2331 21.4187 6.93384 -0.927955 -0.0754393 0.364978
22.3379 22.4127 10.2853 -0.516653 -0.856101 -0.0127191
12.3497 21.5332 8.88199 -0.174257 0.753608 -0.633806
13.2199 22.6312 10.1188 -0.23644 -0.381659 0.893551
13.7647 11.4104 9.72321 0.110062 -0.993841 0.012925
21.6362 11.3441 15.3602 0.0892484 0.984701 -0.149659
12.5438 12.5561 13.779 -0.750903 -0.647945 -0.127719
23.7873 23.7187 11.5525 0.106222 -0.709921 -0.696225
13.0046 11.5076 10.8066 -0.828222 -0.512475 0.226757
12.9344 11.6835 13.9703 -0.256074 -0.517009 -0.816779
11.8623 23.9892 13.4421 -0.314894 0.496985 -0.808609
15.3388 12.5164 12.4539 -0.242307 -0.47598 -0.845418
14.254 12.2619 11.6927 -0.345915 -0.18569 0.919707
16.1036 12.085 11.4855 -0.0647387 -0.723787 -0.686979
16.4226 11.2049 13.0956 0.822236 0.43122 0.371452
16.1811 14.757 14.0133 0.58011 -0.192264 0.791522
17.0886 12.5453 9.97086 -0.486889 -0.648444 -0.5852
14.5493 15.9047 14.6904 -0.496373 0.657307 0.567064
17.3979 23.5365 10.9139 0.861918 -0.352091 0.364868
19.1881 11.1139 12.1867 0.865103 0.307736 0.3961
16.412 12.8436 13.1325 -0.179843 -0.853926 -0.488331
20.5876 22.9914 13.7917 -0.352398 0.804152 0.478701
19.5019 13.0212 13.2685 -0.957713 -0.139493 -0.251649
20.722 11.86 12.0868 -0.866953 -0.189052 -0.461143
21.1318 11.028 11.7404 -0.848067 -0.252957 0.465613
22.6292 23.4508 12.9886 0.202235 -0.952991 -0.22563
20.8444 23.32 12.6661 -0.685806 0.342989 0.641895
22.1152 11.7203 8.35282 0.0745174 0.491232 0.867835
22.3135 23.4823 12.0713 -0.270037 0.949136 0.161929
23.7386 13.9624 16.0358 -0.0707784 -0.432211 0.898991
24.0937 12.1385 12.6341 0.0158821 -0.0791627 0.996735
12.7229 13.7365 12.0999 -0.885649 -0.0410998 -0.462533
23.3902 12.2171 10.602 0.193112 0.5529 -0.810561
11.4258 17.331 15.8668 0.469824 -0.848744 0.242692
11.8404 14.8045 15.3221 -0.837665 0.270315 -0.474602
15.0115 12.8321 13.9643 -0.314412 -0.45221 -0.834656
12.5696 13.3373 13.0181 0.876057 0.377916 0.299504
12.9022 15.7283 17.3246 0.0588195 -0.987076 0.149068
17.2207 15.6292 12.896 -0.47921 0.757067 0.44408
15.4445 13.8427 13.6976 0.811906 0.0253457 0.583237
17.3912 15.2858 10.4463 0.646017 -0.0666086 -0.760411
15.0098 23.8409 14.6947 0.284458 -0.774035 -0.565645
16.0844 14.6165 11.555 -0.405495 -0.0350443 0.913425
15.7107 15.667 11.7924 0.295663 -0.421452 0.857299
16.6276 13.2657 11.5504 0.831663 -0.543395 -0.114272
17.4934 14.1488 13.1132 0.382269 0.877859 0.288501
17.6913 13.4401 15.3413 -0.270677 0.900947 -0.33916
17.743 11.8899 9.93977 -0.140243 -0.272602 -0.951851
21.4887 23.5769 13.4707 0.0291689 0.576731 -0.816413
16.1693 15.5516 16.5035 0.48411 0.132243 -0.864956
20.3394 13.1847 12.4143 -0.0706549 0.927054 -0.368211
19.5411 14.0808 12.7369 0.115694 -0.219572 0.968712
19.3002 13.4403 10.0653 -0.209113 0.319549 0.924208
21.3229 12.8944 14.1863 0.468066 0.484378 0.739116
21.0215 14.2716 11.0083 0.179494 0.840045 -0.511963
22.0398 14.3757 10.6182 0.121297 -0.870171 0.477588
19.5401 12.2275 8.02748 0.557035 0.0980725 0.824678
21.1632 14.0168 12.2209 -0.293785 0.936702 0.190472
23.3106 13.0029 16.159 0.360127 0.269364 -0.893169
23.4706 14.6165 14.1743 0.795313 -0.541179 -0.273137
23.7864 13.3348 13.5463 -0.766395 0.60827 0.206507
23.7449 15.4886 16.3173 -0.492246 0.781898 0.38253
13.0818 17.6113 16.6298 -0.255593 0.949129 0.183917
11.3229 14.8964 10.6018 -0.111591 -0.792204 0.599967
11.2102 15.9408 12.842 0.3451 0.0640935 0.936375
12.317 16.2098 15.3316 -0.413342 0.883719 -0.219523
13.8486 14.2727 14.0255 -0.97129 -0.2379 9.01536e-05
13.9162 18.8484 12.2964 -0.167534 0.969257 -0.1802
13.1345 14.6417 14.8334 0.240315 -0.511402 0.825056
13.1702 16.8959 18.1074 0.925139 0.291899 0.242718
16.142 15.5877 10.5854 -0.710093 -0.675724 0.197904
16.9869 15.6214 14.3341 0.71713 0.0797721 -0.692359
18.7761 15.8896 13.3875 -0.516363 -0.0861971 0.852021
14.6611 18.3327 15.5001 -0.726532 -0.0449234 0.685663
18.1231 14.9156 14.2494 -0.649972 0.309644 0.694015
18.0125 17.0175 11.396 -0.480565 -0.509019 0.714113
18.9004 14.4455 10.3326 -0.733923 -0.342786 -0.586391
16.6235 16.5084 14.7684 -0.394272 -0.184874 0.900206
18.6099 15.3878 15.0757 0.496404 0.00373256 -0.868083
20.5792 16.7277 11.4785 -0.56539 -0.67775 0.470095
21.1639 12.6251 11.1354 -0.544896 0.649491 -0.530329
21.1759 16.5977 12.2723 0.12391 0.909684 -0.396385
21.9234 14.2844 12.8472 0.260823 -0.965387 0.000400186
23.4528 18.1839 14.3598 0.0981344 0.0311769 -0.994685
21.145 15.8196 9.58385 0.235924 -0.963823 0.124033
19.9182 14.7695 13.7433 0.80023 0.170784 -0.574861
12.679 17.2474 15.6385 -0.651598 0.737331 0.17822
11.9841 16.772 14.0051 -0.7711 0.0720125 -0.632629
11.3058 16.2934 11.0559 0.29914 0.0533001 0.952719
12.8601 16.6972 13.0871 0.280021 -0.204681 0.93792
12.6557 17.5034 13.785 -0.3798 -0.0059049 -0.92505
11.6959 17.2321 11.0506 -0.455859 -0.216207 -0.863392
11.6869 16.2249 8.70318 -0.656975 -0.296067 0.693346
14.3874 19.2829 15.4677 -0.00897055 0.0809592 -0.996677
15.5927 16.8946 17.5208 0.409286 -0.90479 0.117643
14.1165 16.1228 10.3067 0.643022 0.199469 -0.739416
13.7817 17.4226 14.011 -0.189415 -0.690665 0.697928
15.2635 18.722 14.0385 0.119278 -0.762984 -0.635318
16.0933 17.7596 14.4385 -0.0769957 -0.665594 0.742331
17.3473 17.0002 9.6829 -0.063656 -0.997641 0.0256872
14.0776 16.4959 13.198 -0.227882 -0.209485 0.950887
16.6581 19.5288 12.7873 0.104254 -0.811637 0.574784
17.5458 16.0639 15.1705 -0.160616 -0.431401 0.887747
18.0089 16.2459 10.4681 -0.616045 0.765353 0.186343
19.6485 16.6542 13.0072 -0.00224459 -0.136151 0.990686
18.6848 17.9266 13.5605 -0.723275 0.247167 0.644811
21.0923 15.6444 11.5265 -0.379016 -0.919935 0.100327
19.6654 19.0519 13.938 0.925024 0.249512 0.286486
19.6412 15.0794 12.5077 -0.420603 0.0668988 0.904775
20.6885 16.4168 13.8945 -0.182076 0.140109 -0.973251
21.5816 17.4079 14.4541 0.898798 0.187574 0.396204
23.2655 16.4327 11.5552 0.441354 0.275394 0.854029
11.2789 17.3158 14.4181 -0.0828218 -0.810206 0.580265
22.7368 20.063 17.0519 -0.0747176 0.996981 0.0211392
24.0393 17.6121 13.0037 0.868955 0.447884 0.210518
11.6093 18.0024 10.3349 0.180997 0.255539 0.949705
13.134 18.1341 12.5977 -0.292947 0.804722 -0.516338
11.6616 19.5965 14.7838 -0.629756 0.518688 0.578248
12.8728 19.8828 12.607 0.432301 -0.854373 0.28838
13.3141 19.0123 10.9931 0.0831796 -0.781754 -0.618014
12.0127 18.1466 8.99607 -0.799681 0.304573 -0.517442
12.436 20.7558 13.6022 0.62939 0.269394 0.7289
14.8773 18.0131 12.672 0.0813101 -0.840776 -0.535242
15.103 18.2189 10.7231 -0.365108 -0.851233 -0.376959
14.9948 15.5931 10.3923 0.47367 0.150841 -0.867689
14.2027 20.35 15.2455 -0.719315 -0.557868 0.413968
18.1659 20.5258 10.1611 0.719949 0.473932 -0.507013
16.0549 16.4975 9.83844 -0.27592 0.173812 0.945335
15.2555 16.6072 12.7038 0.381105 0.610427 0.694362
17.0322 21.4237 15.1924 0.2148 -0.289569 -0.932744
17.5366 18.2511 13.1318 -0.0862172 -0.50383 -0.85949
20.7475 20.1034 14.0152 0.981074 -0.161076 0.107468
20.5783 20.4706 15.3654 -0.487417 -0.537893 -0.68782
19.1789 18.6632 11.7311 -0.0717401 0.844999 -0.529934
21.7741 19.1965 16.0944 -0.539138 0.524122 -0.659262
22.097 19.5251 11.7266 -0.62509 0.762812 -0.165469
17.1187 18.0869 10.6417 0.433672 -0.342361 0.833497
20.9186 18.306 14.1203 -0.663239 0.344265 0.664526
19.1739 18.998 12.6739 0.701881 -0.425078 0.571552
22.2333 21.4123 8.57637 0.223511 0.210753 -0.951644
19.8868 19.6499 13.1865 -0.954802 0.0560497 0.291909
23.7983 22.5097 12.8972 -0.500105 0.535535 0.680512
12.6526 18.2324 14.9626 0.536149 -0.00999023 0.844064
12.5561 21.4982 12.8554 0.70307 -0.709948 0.0408365
12.7066 23.4969 11.4527 -0.150977 -0.457743 -0.876172
11.9983 19.4332 12.4121 0.2703 -0.880053 0.39044
11.4228 21.2454 12.8767 0.334747 -0.0410078 -0.941415
14.0463 20.3719 11.4441 -0.163194 -0.69025 -0.704927
15.1444 18.8611 12.0981 -0.602305 0.576675 0.551973
12.9529 22.5317 16.3344 0.432079 0.742289 -0.512167
14.9611 19.9727 11.6021 0.547615 -0.0911411 -0.831752
17.4902 20.8885 9.65568 -0.537237 0.175553 0.824959
16.3461 18.6489 11.0626 -0.402562 -0.528023 -0.747753
14.4281 22.288 12.9191 0.0637056 -0.550451 0.832433
14.5596 20.7423 12.9669 0.865877 -0.204394 -0.456597
13.5457 21.405 11.1855 -0.31761 -0.939567 -0.127821
16.0733 18.6896 12.5846 -0.632569 0.413604 0.654819
15.2838 23.2145 10.6727 0.776099 0.330258 -0.537214
17.8769 18.6336 12.0253 0.580831 -0.0889405 0.809151
18.8903 22.1549 8.49084 0.463226 0.244541 0.851834
19.8956 22.6618 10.7498 -0.950828 -0.308231 0.0303444
19.9494 22.7137 14.4783 -0.54126 0.834151 -0.105971
18.7941 20.6307 13.4478 0.172153 0.535685 0.826683
19.7644 22.4102 6.83865 0.717374 0.0832754 0.691693
19.9865 23.2142 11.5866 -0.991853 0.122997 0.0331727
18.2832 21.5925 11.0353 -0.319486 -0.100957 -0.942197
23.8257 20.8181 9.98602 0.198559 -0.481832 -0.853471
22.0879 21.3799 12.0714 0.856965 0.475122 0.199676
11.1688 22.2266 11.0589 0.0941116 0.48709 0.868266
22.0647 21.0484 13.8568 0.315128 0.82659 0.466308
11.3148 18.6768 14.4696 0.355711 -0.711094 0.606478
23.4447 11.2846 9.98861 0.7358 -0.0584324 -0.674673
23.2994 21.2717 9.29554 0.507215 0.813918 0.283321
23.426 22.8623 12.0864 -0.00999443 0.866881 0.498415
22.6185 22.1536 13.5172 0.105406 0.788264 0.606242
11.6433 22.9891 10.6858 -0.225466 -0.360896 -0.904942
12.4873 22.6805 13.2113 0.810334 -0.223195 -0.541796
12.1433 22.2902 14.7909 -0.416505 -0.597695 0.685043
13.6688 11.2095 11.9511 -0.159148 0.0729116 0.984559
14.7269 23.7954 9.16334 -0.551872 -0.833521 0.0260905
13.1935 19.9507 10.3137 -0.61977 -0.784446 -0.023024
12.8804 12.5363 12.6041 0.455638 -0.402837 0.793798
16.105 23.443 9.00008 -0.627014 0.35538 0.693224
15.252 21.7572 10.7514 0.825106 -0.564831 -0.0128688
15.1037 22.6579 11.7859 -0.538211 -0.804108 -0.252466
18.0579 21.5505 14.8761 -0.348284 0.752344 -0.559174
19.6415 11.8218 13.1986 -0.0749474 0.709785 -0.70042
17.7646 11.0483 13.8193 -0.721138 -0.543411 0.429725
19.8701 20.8232 10.1258 0.36269 0.0428398 0.930925
20.5491 23.3309 8.55512 0.613229 -0.429496 -0.662936
16.8985 22.9225 13.7152 0.0796416 0.699776 -0.709909
17.2086 22.3793 11.5859 0.943055 0.070321 -0.325119
19.6471 21.309 8.39985 0.0678761 -0.377991 -0.923318
21.5048 12.8272 9.90751 -0.419332 -0.0648326 -0.905515
21.961 11.2645 14.1464 0.555542 -0.769891 -0.314071
20.4806 11.8117 10.8344 -0.964987 0.259904 0.0353611
11.9762 21.6278 10.4939 0.276654 0.784546 0.554932
22.588 23.5169 8.18842 0.452232 -0.350643 -0.820082
22.2482 23.4314 14.813 -0.20475 -0.954211 -0.218079
23.4205 23.2585 15.3153 -0.0616269 -0.341629 -0.937812
24.1797 23.4614 13.0905 0.238764 0.0718386 -0.968417
23.6121 12.257 15.4718 -0.999481 -0.0241409 0.0213444
11.2007 23.175 17.2018 0.103893 -0.0864501 0.990824
14.1637 13.2325 13.5495 0.417473 0.471575 0.776745
11.4418 13.1134 14.315 -0.858515 -0.331301 0.391397
12.1849 23.0616 16.724 -0.385883 0.535404 -0.75129
23.2904 11.0828 14.9541 0.169344 0.342151 0.924259
14.6051 12.2231 14.7526 0.639588 -0.35862 -0.67994
13.9398 12.5473 14.1619 -0.356729 0.698849 0.619963
14.1207 13.1442 16.2959 0.574048 -0.315382 0.755648
15.7033 22.5871 14.8081 -0.420924 0.286565 0.860642
17.4931 11.9701 12.6995 0.79505 0.284053 0.535919
14.62 22.9187 13.6716 -0.37808 -0.397573 0.836057
15.7705 12.3631 15.0784 0.107457 0.906339 0.40866
16.487 11.4028 15.1086 -0.110678 0.377357 0.91943
18.622 11.6182 14.4708 -0.380936 -0.499281 0.778207
18.4644 22.3813 12.9299 -0.479671 -0.347506 -0.805702
17.3427 13.7124 14.26 -0.117941 0.934199 -0.336694
19.0898 23.9529 15.3546 -0.528799 -0.403912 0.746476
22.5293 13.0291 14.9942 0.0216713 -0.0504048 -0.998494
20.918 22.2158 11.7506 0.958233 0.00653587 0.285914
17.8947 23.192 15.7458 -0.202854 -0.342171 0.91748
20.4989 12.4171 14.654 -0.287212 0.849431 -0.442691
22.8236 13.9071 16.7062 -0.0242178 0.159541 0.986894
20.7148 11.5197 15.9831 -0.31647 0.895233 -0.313694
18.3673 13.7852 16.7271 0.215322 -0.369601 -0.903898
19.2796 11.7866 15.9861 -0.687059 0.726549 0.00877335
22.8114 11.8983 12.6701 0.153554 -0.853282 -0.498328
12.1122 14.3774 12.5923 0.432566 0.566035 -0.701777
20.743 15.7524 16.1613 0.464356 -0.0765414 -0.882335
13.7246 14.3646 17.3448 0.108935 -0.302127 -0.947023
23.8575 17.4813 17.2732 0.706234 -0.66912 0.231327
11.4278 13.5087 15.3394 -0.0236845 -0.707576 0.706241
12.8401 15.6179 16.3737 0.264645 -0.960626 0.0846209
11.48 11.3656 16.0385 0.637489 0.311118 -0.70485
13.0433 14.7336 13.1861 -0.920123 0.382961 0.081937
15.5913 16.5991 14.5202 -0.535022 -0.290691 0.793253
14.2674 14.0347 15.3845 0.1571 -0.811388 -0.563001
13.1698 23.3881 14.4442 0.37448 0.437677 -0.817438
17.5405 14.7253 15.8662 0.860998 -0.265852 0.433595
17.9999 12.7977 12.24 -0.991392 -0.118687 0.0552761
14.8662 11.0826 13.6261 -0.667028 -0.547645 0.505133
18.0138 12.4063 14.0873 -0.525258 -0.791605 0.312194
18.9352 13.9484 15.1419 -0.787761 0.611757 0.0720196
19.538 12.6976 15.5614 -0.258408 0.733913 0.62817
17.8961 12.7203 16.5877 0.404074 -0.844348 0.351853
16.8787 12.7122 15.3987 -0.0583259 0.724229 0.687088
22.6868 13.895 14.5583 0.987696 -0.156366 0.00230535
21.405 13.7656 13.8105 0.959005 -0.2255 -0.171637
23.1544 14.9948 15.3156 -0.630609 -0.776076 0.00619639
21.4484 11.8181 13.3724 0.796246 0.524059 0.302249
21.126 15.6519 13.6984 0.557742 0.570279 -0.60308
20.8079 13.4409 15.0379 0.260319 -0.874482 0.409286
21.681 14.8069 14.2806 -0.462068 -0.212506 -0.861008
21.8141 15.1054 11.9395 0.107989 0.923002 0.36933
11.9618 15.0299 14.2226 -0.211187 0.853354 0.476642
22.9183 16.9713 13.6871 -0.56102 -0.3915 -0.729372
12.5666 14.1114 16.8545 -0.644176 0.519485 -0.561402
11.8158 14.5036 17.427 -0.738195 0.0135419 -0.674451
13.9742 16.016 15.96 0.559476 0.79892 0.22071
21.9421 15.6432 17.8653 0.431671 -0.715169 0.549721
12.3473 15.935 13.4577 -0.247147 0.122418 -0.961214
12.37 13.6507 15.6185 -0.090936 -0.451405 0.887673
13.8283 15.3102 14.8617 0.674639 -0.736047 -0.0556566
16.0782 14.0688 15.1595 0.834528 -0.0167616 0.550711
14.9461 15.1838 15.4872 -0.354012 0.337562 0.872197
14.3084 18.4078 16.9598 0.895091 0.127044 -0.427402
14.0481 17.4701 16.3414 -0.441991 -0.0532519 -0.895437
17.7384 13.0286 17.5143 0.850203 0.413752 0.325521
14.5332 15.0207 13.3762 0.514541 -0.566576 -0.643614
14.9415 13.0821 15.776 -0.271331 -0.944024 0.187609
16.1303 18.2657 16.7163 -0.713151 0.17837 0.677938
18.5359 12.9004 14.8396 0.347217 -0.871115 0.347274
17.1074 19.2329 14.7915 -0.304527 -0.774799 0.554031
22.619 17.7799 16.4454 -0.310373 0.698229 -0.645093
16.6746 16.8221 12.5478 -0.833605 -0.314142 -0.454331
19.3401 12.9402 14.2451 0.385413 -0.922232 -0.0307449
19.9237 16.3032 15.767 0.0831854 -0.0130355 -0.996449
21.8201 16.5311 15.0817 -0.0803458 -0.743699 -0.663669
20.5635 18.8548 12.5245 0.819083 -0.390165 0.420564
17.0128 17.9411 14.545 0.135475 -0.860727 0.490709
21.4641 16.8401 16.3699 -0.623143 -0.288775 -0.726844
20.0079 17.1411 14.6059 -0.838296 0.160982 -0.520907
21.3019 16.3935 10.4324 -0.82626 0.562854 0.0221391
22.0282 15.8508 15.855 -0.603231 0.156545 0.782052
23.5426 15.8484 17.472 -0.892125 0.451619 -0.0123647
13.8392 16.1128 17.0054 -0.087543 -0.908446 -0.408731
12.4196 19.0983 15.2812 0.897876 0.361532 -0.251225
23.8349 17.4233 8.54804 0.128368 -0.650477 0.748599
13.5377 19.0293 16.4353 0.0021023 0.140019 0.990147
14.9546 16.1872 13.6692 -0.330758 0.624183 0.707809
15.6245 18.0289 15.8806 -0.491619 -0.467959 0.734387
15.0062 17.1576 15.5395 -0.838341 0.261671 -0.478239
15.2379 16.281 16.3598 0.426313 -0.528724 -0.733967
16.7605 17.3466 16.9239 0.941197 0.193613 0.27688
16.834 20.4202 13.2737 0.284682 -0.855161 0.433192
15.7898 19.3257 15.2229 -0.646676 -0.380268 0.661216
15.9436 20.3623 14.2956 0.962509 0.198559 -0.184798
16.0619 19.5915 13.6293 0.107933 -0.718416 0.687189
17.5957 18.3333 16.3598 -0.0351544 0.996538 0.0753349
16.8672 16.8746 15.9689 -0.314203 0.784008 -0.535358
17.7815 18.1405 15.2652 -0.14024 -0.940567 0.3093
20.1367 17.6343 13.4437 -0.229044 0.452931 0.861622
21.5313 18.8182 14.9419 0.863927 -0.503433 -0.0135853
20.0415 15.7259 13.4946 -0.277408 -0.0403398 0.959905
19.391 19.2707 15.9597 -0.293556 -0.863656 0.409785
20.7589 18.3816 17.8173 0.0269814 -0.367369 -0.929684
20.0238 17.6637 11.8067 0.144219 0.490499 0.859425
11.7839 15.5461 16.2393 0.336085 -0.26753 0.903036
21.0184 18.9465 16.7193 -0.128739 -0.244574 -0.961046
22.5304 15.1888 16.9811 -0.988126 0.141939 -0.0588325
22.5831 16.7916 16.1646 -0.250413 -0.676854 0.692215
14.1873 18.7305 13.8486 -0.286906 0.607828 -0.740426
13.0245 19.4179 13.8995 -0.65639 0.385067 -0.648749
23.9047 16.8344 16.5142 -0.545336 0.718248 -0.432121
23.4013 16.6486 15.5098 -0.403903 -0.841173 0.359569
11.4297 19.0273 16.2986 0.463465 0.86924 -0.172111
12.2821 21.2921 16.1128 0.362734 0.801667 -0.475136
15.9495 20.0667 16.0137 0.663646 0.00709738 -0.748013
14.6702 20.8153 13.9761 0.87533 -0.0677962 -0.47875
14.114 19.9947 13.5898 -0.943429 0.201124 -0.263613
15.7691 20.901 15.0962 0.488746 0.83953 -0.237312
18.4453 19.2123 15.653 -0.0632132 -0.894712 0.442148
15.5087 21.6698 13.3329 0.360318 -0.58086 -0.729912
17.7976 20.2297 15.8269 -0.470865 0.153912 -0.868676
18.7885 21.5368 13.1572 -0.697614 -0.364799 -0.61665
20.702 19.8835 16.172 -0.346547 -0.724945 -0.595281
18.0464 20.86 14.2171 -0.0202279 -0.857565 0.513978
18.6424 17.813 14.6901 -0.739445 -0.665683 0.100436
18.8519 19.3418 14.5567 -0.891631 0.0112764 -0.452623
19.9454 18.9497 16.9424 -0.00228747 0.860985 -0.508626
21.8155 20.0144 16.6458 -0.0860123 0.682092 -0.726191
19.6371 14.8108 15.1308 -0.22788 0.800702 0.554028
18.2698 23.3096 13.7107 -0.679266 -0.681292 -0.272836
22.3286 18.3655 14.0095 0.164923 0.939688 0.299645
23.9782 19.1318 12.3949 0.113958 -0.466745 0.877019
23.2586 20.2079 15.135 0.269527 -0.347243 -0.898208
22.8942 19.1732 16.1398 -0.446581 0.866782 -0.221932
23.6913 14.8689 18.0373 -0.953934 -0.0563853 -0.29467
22.2151 19.5708 15.0663 -0.748689 0.629677 -0.207298
24.144 20.36 13.7966 0.909975 -0.347232 0.226662
23.6457 19.6307 15.919 0.144273 -0.666742 -0.731191
11.1987 21.9978 14.4246 -0.221368 -0.24835 0.943037
24.1651 10.9994 14.5729 0.0692577 -0.283908 0.956347
12.1219 20.9636 15.2116 -0.584744 -0.600721 0.545169
14.5779 23.578 15.6859 0.186816 -0.648695 -0.737763
17.4647 21.0421 16.3576 -0.953716 -0.0460234 0.297165
11.9308 21.3732 14.1781 -0.647958 -0.655216 0.388384
13.0765 20.1752 14.5623 -0.980467 0.150192 0.126993
13.469 22.5757 13.9457 -0.383463 -0.344612 0.856854
16.5106 21.5286 13.8698 -0.866747 -0.352632 0.352705
13.615 21.7248 13.1021 0.339745 0.062246 -0.938455
17.2709 20.6627 11.2417 0.992583 0.115811 0.0369567
15.7645 22.228 16.0338 0.708562 -0.0732731 -0.701834
18.3087 22.6207 9.61549 -0.216498 -0.228554 -0.949153
17.3089 21.9995 12.6575 -0.0613055 0.997535 -0.034147
17.8873 20.0286 13.2932 0.21902 -0.975121 -0.0342033
20.5547 23.4589 15.0401 0.450132 -0.862512 -0.231202
22.5116 20.5177 14.6018 -0.201783 0.322473 0.924821
19.9501 21.1806 14.4541 0.353225 0.116057 0.928312
21.5814 19.2507 13.5342 0.946558 0.319899 0.0411482
