12.9969 25.4981 15.8662 0.932731 -0.213796 -0.290353
23.6461 14.9322 7.75347 0.200366 0.384289 0.901208
32.3622 18.9953 8.33088 0.319853 -0.921775 -0.219148
13.4486 14.7532 38.1725 0.44874 -0.356134 -0.819635
15.384 15.2668 14.8629 0.202622 0.339108 0.918668
26.6246 39.1621 22.0852 -0.934041 -0.0118313 -0.35697
38.1503 28.2995 12.4756 0.558875 0.6287 0.540736
23.9561 17.3764 7.95879 0.628971 -0.373802 -0.681666
28.8856 28.7463 27.9774 0.0221815 -0.146789 -0.988919
9.25213 25.8809 9.44828 -0.0961714 0.841548 0.531552
43.2019 27.3647 37.0033 0.682452 -0.679325 -0.26977
16.5211 34.1031 33.4821 0.878288 0.439852 -0.187459
35.8195 9.38147 20.1965 0.317201 -0.897612 -0.306067
23.1086 40.6103 14.1698 -0.676183 0.432416 -0.596484
23.4309 38.1953 21.0657 -0.817297 0.402779 0.412061
8.8311 25.084 38.2465 0.912538 -0.408226 -0.0250163
40.3703 33.4409 25.9337 0.109572 -0.489756 -0.864947
37.0836 9.98093 24.7268 -0.540523 -0.603708 -0.58598
40.7223 25.3354 15.7952 -0.180206 -0.814284 -0.551785
15.2385 41.6266 29.4413 0.0856728 0.520558 -0.849517
25.022 40.2088 34.0751 -0.164629 -0.323578 -0.931769
36.2882 20.1847 20.997 0.259129 -0.0660353 0.963583
27.9863 44.6853 42.2943 -0.679415 -0.349322 -0.645267
32.7302 20.2142 25.6106 -0.923197 0.373627 -0.0900569
32.3081 27.7771 25.2489 -0.447384 0.867883 0.215934
38.571 33.0381 6.89968 -0.305439 0.331015 0.892825
36.8121 25.3024 37.0831 -0.51218 -0.470075 0.718819
44.2403 15.3165 17.4865 0.140091 0.951048 0.275468
29.1635 15.7439 20.2303 0.796566 0.511583 -0.322126
45.432 17.3083 41.5727 -0.833779 0.538501 0.121775
33.6228 29.6205 7.07373 0.68657 -0.711945 0.1475
16.7418 10.9304 28.0159 -0.42696 -0.522072 -0.73834
40.0113 32.5945 42.9449 -0.455741 -0.884793 0.097165
29.6229 27.3881 14.2185 -0.80206 0.517472 0.298197
8.63341 29.9453 44.2395 0.644115 0.159648 0.748083
42.0984 38.7536 18.1358 0.76259 0.0267108 -0.646331
33.0506 30.9438 21.7109 -0.916491 -0.296323 -0.268768
11.9921 15.0563 10.6949 -0.986138 -0.155293 0.0584425
29.9617 15.7638 9.51018 0.197309 -0.979044 -0.0504261
8.72986 10.286 31.5952 -0.147067 0.20675 0.967277
14.735 10.8754 39.7976 -0.258977 0.779627 -0.570186
31.6214 37.6914 31.0912 0.266443 -0.235253 0.9347
34.9793 36.2493 10.0788 -0.23719 0.486829 0.840677
10.4767 15.9724 21.2148 0.570373 0.18732 -0.799741
24.3875 26.4897 34.3741 -0.703251 -0.250703 0.665271
41.4555 32.3531 28.466 0.0650427 -0.256513 -0.96435
17.4774 46.2366 15.2485 -0.601357 0.136816 0.787179
17.0288 25.0939 34.9117 -0.995867 0.0902759 0.00992823
25.9758 28.228 11.2801 -0.962668 -0.198153 -0.184409
24.8838 42.9718 24.5242 -0.0722369 0.418977 0.905119
9.9174 22.7258 20.3583 0.928104 0.285919 -0.238479
35.5693 17.097 10.1455 -0.455201 0.833526 0.313094
17.878 39.2684 16.6577 0.175012 0.84686 -0.502194
31.6074 12.5771 21.1425 0.954631 0.034528 0.295782
26.3013 25.9961 19.312 0.123473 0.0541356 0.99087
18.4672 43.5177 8.24207 -0.852706 0.515319 0.0856634
34.0851 20.5611 40.5142 0.128132 0.846906 -0.516074
41.5739 33.9995 44.3715 -0.964007 0.262015 -0.0451618
30.166 31.2248 19.6599 -0.268315 0.954815 0.127807
11.7535 20.1609 14.2118 0.626705 0.555276 0.546726
14.2155 33.116 25.2343 0.0209089 0.300018 -0.953704
15.822 24.1454 10.2211 0.191471 -0.59602 -0.779807
21.2718 46.0262 17.9417 0.442187 0.792814 0.419424
25.7058 24.3955 10.5901 0.470505 0.869915 0.147898
15.8837 36.0486 28.4883 0.405491 0.671638 -0.620064
45.1184 25.7936 16.7717 -0.275117 0.516159 0.811105
39.9974 38.81 8.45644 -0.751777 -0.646905 -0.127846
42.8656 18.1098 26.5145 0.925345 0.258591 0.277251
27.3546 19.1662 21.643 0.957479 -0.0271723 -0.28722
20.1931 12.8724 16.6991 -0.371768 0.830095 -0.415609
40.8969 12.5524 10.9107 -0.433899 0.878016 -0.202037
38.7625 32.3662 42.5499 -0.249445 -0.465984 0.848903
45.6713 46.6318 39.599 -0.51228 -0.747011 -0.423726
45.0708 28.55 13.9099 0.475277 0.876603 0.0753592
37.3356 32.744 15.3491 -0.701449 0.63067 -0.332001
31.687 43.5776 15.8841 0.519586 0.0714061 0.851429
41.5588 39.7795 29.8613 0.939557 0.341166 0.0289642
27.6225 15.5032 21.4487 -0.032227 0.805268 -0.592034
23.0986 17.4917 37.8915 0.162177 0.967997 -0.191522
7.61027 33.7221 10.2883 0.18555 0.982374 -0.022657
38.9955 17.0529 22.436 -0.599994 -0.458393 0.655655
40.2502 41.7348 8.19506 -0.167997 0.273583 0.947064
11.6594 42.2368 23.4034 -0.801345 0.597798 0.0219889
24.1426 32.1921 28.7085 -0.292049 0.863103 0.41202
23.8867 14.978 14.4316 0.691658 0.139514 0.708622
31.8896 37.4178 15.1782 0.585487 0.735018 0.341986
44.7685 34.4996 42.6327 0.121306 -0.344606 0.930877
31.7676 29.9776 34.0092 0.594662 0.785593 -0.170941
39.2533 11.5579 31.2055 0.625198 0.61355 0.482374
23.2216 21.0051 17.5984 -0.512285 0.571336 0.641202
39.1046 44.0761 14.7721 -0.956369 0.287921 0.0495901
39.6249 10.2422 18.2214 0.990081 -0.0979747 -0.100703
31.1646 27.4537 6.83311 -0.113908 -0.991641 0.060603
44.3821 31.716 38.4049 -0.937554 -0.199529 0.284923
37.2159 27.1135 20.3519 0.840178 -0.113059 -0.530395
21.5899 40.1906 22.9226 0.0180874 -0.97481 -0.222304
24.4982 9.20848 43.079 0.894201 0.327926 0.304745
14.2361 24.354 34.2738 -0.835561 -0.353937 -0.420197
14.7571 34.5211 11.6303 -0.193428 0.338949 0.920706
40.6568 30.8606 31.0916 0.539745 -0.821331 0.184636
44.3506 42.3949 32.5195 0.474303 0.676006 -0.563961
7.6851 15.6274 41.1394 0.700811 0.37375 0.607597
8.84836 27.7095 24.365 0.268291 -0.960138 -0.0784565
12.8802 43.8949 43.0689 0.883339 0.458036 0.099573
35.6242 45.5789 22.9304 0.747837 0.272661 0.605307
22.5145 34.8879 25.8916 -0.163068 0.447509 -0.879286
35.2166 46.2007 26.9364 -0.641142 0.666514 -0.38039
22.2393 34.057 16.2351 0.280244 0.959229 0.0366547
31.6905 39.3971 28.1994 0.281676 0.648123 -0.707528
24.6507 12.1223 27.5546 -0.283171 -0.35978 0.889029
18.5451 21.7635 21.0783 0.543122 -0.107121 0.832793
15.8722 38.7927 13.4858 0.0293256 0.188075 -0.981717
26.7574 11.5994 22.4285 0.538485 0.74523 0.393276
12.1132 15.7988 21.471 -0.0516198 -0.219016 -0.974355
19.6981 34.2082 11.4692 -0.136411 0.961676 -0.237849
26.2756 42.0603 31.0317 0.953199 -0.0169177 0.301871
18.4377 45.2421 8.17213 -0.310918 0.667497 -0.676593
37.649 27.5235 40.3244 0.320494 0.940518 0.112734
38.3214 28.8062 8.44116 0.181816 0.0612544 0.981423
41.285 26.259 7.92286 0.253151 0.472935 0.843947
28.7185 11.1252 15.2007 -0.579322 0.687814 0.437377
25.8962 41.0104 24.3663 -0.551609 -0.753412 0.357909
43.3321 45.8986 27.8738 -0.25283 -0.962738 -0.0959871
29.1912 42.877 24.5046 0.253839 0.893331 -0.370845
24.5467 45.0138 41.5556 -0.507314 -0.414316 0.755628
18.2859 22.9339 11.387 0.165175 0.34959 0.922228
22.9594 16.2736 25.8091 -0.067146 0.950014 0.3049
42.0686 38.2257 25.7655 0.909024 0.258753 0.326683
11.1358 26.4875 40.9026 0.190497 -0.915593 -0.354119
26.273 11.7886 20.0283 0.872451 0.397977 0.283628
13.1358 43.9898 7.10194 -0.984904 -0.088725 0.148631
44.0115 31.728 24.7618 0.282618 0.550759 -0.78536
13.5504 29.0994 9.93235 0.33007 0.337147 0.881695
22.1973 19.801 7.5019 -0.933948 0.357396 -0.00301444
42.3411 44.1639 14.1131 -0.22792 0.785351 0.575566
24.3904 24.8467 8.17034 0.563421 0.678272 0.471703
14.2409 32.3256 21.6149 -0.752538 0.149392 0.64138
22.3931 46.1269 35.7755 -0.313719 -0.194674 -0.929345
23.5662 28.53 11.1699 -0.952536 -0.303776 -0.0198846
20.429 23.1471 36.31 -0.207805 0.245709 -0.946807
19.8607 30.9426 14.6051 -0.624034 -0.115891 0.772756
35.4223 29.3955 30.2842 -0.458059 0.850674 -0.257944
27.8958 13.8444 15.8869 0.694245 0.326464 -0.64144
14.9154 15.0471 8.38314 0.132392 -0.440609 0.887883
34.025 36.3208 30.9441 0.874313 0.0130477 0.485188
24.4346 23.3617 14.3556 -0.734609 -0.573711 -0.362223
36.3646 34.3328 10.1269 -0.395782 0.685097 -0.611554
35.34 39.6599 41.1889 0.883369 -0.192108 0.427496
36.4091 9.95109 16.3192 0.0666951 0.973704 -0.217835
38.0045 21.5833 25.1775 0.88667 -0.339178 0.314285
9.45954 46.7058 20.4715 -0.749957 0.661323 -0.0147412
25.1475 21.3289 22.067 -0.545065 0.822207 -0.16395
40.086 21.7331 9.86572 0.0518392 -0.984644 -0.166699
39.1106 19.664 12.366 0.453542 -0.0168942 -0.891075
31.1524 44.1079 8.5528 -0.382122 -0.00198524 0.92411
36.2514 45.1201 43.6864 -0.691001 0.469511 -0.549615
44.3006 44.3203 9.43235 -0.340639 -0.0897627 0.935899
25.6772 42.4909 39.8499 0.713142 -0.0732234 -0.697185
36.0204 21.1507 19.6423 -0.921854 0.161079 0.352476
44.5399 35.4428 14.9962 -0.583915 -0.804021 0.112224
8.97183 47.0362 19.0806 -0.882534 -0.223402 0.413794
34.5288 17.4774 33.5469 -0.533587 0.516248 -0.669905
23.1238 37.7517 43.1135 0.534445 -0.807661 -0.249102
17.4118 44.2648 40.4383 0.248871 0.939319 0.236101
18.0921 22.0436 31.9896 0.413317 -0.888398 0.199795
29.2932 44.7418 38.4324 -0.901616 0.0458761 0.430097
28.1085 40.911 17.1965 -0.436953 -0.451372 -0.778033
45.3912 40.0424 11.474 0.492705 -0.445108 -0.747744
38.4539 45.0716 14.3455 0.959819 -0.0677256 -0.272326
34.2056 28.7476 43.0794 -0.762731 -0.307093 -0.569152
7.88122 41.8284 15.9479 -0.516795 -0.350575 -0.781038
35.6598 11.1861 19.8897 -0.705151 -0.363919 -0.608544
9.16821 16.6893 39.0502 0.541735 -0.714841 0.442183
36.0714 11.6336 39.5285 0.314613 0.259139 -0.913163
36.5448 36.1484 9.5617 0.387721 -0.562611 -0.730166
45.0149 37.7009 11.3028 0.419928 -0.907217 -0.0248641
15.9106 39.0886 8.66024 0.593636 -0.619053 0.514169
10.9491 43.7343 10.1922 0.183066 -0.71286 -0.676992
26.1045 30.4655 29.4637 0.459415 0.837568 0.295663
16.0744 19.3734 18.9809 -0.636622 -0.771142 0.007207
27.2036 38.7849 12.881 0.965518 0.259628 0.019168
27.569 9.24168 12.4557 -0.443454 -0.761799 -0.47224
12.5972 15.4433 34.1342 -0.567906 -0.477466 -0.670454
21.6787 41.6222 29.1645 0.0227556 -0.73299 -0.679859
11.2026 13.0111 27.1836 -0.3559 0.419347 0.835155
40.1112 31.9747 15.7566 -0.608001 0.79317 0.0348717
13.5727 12.0587 17.449 0.779701 0.158712 0.605703
40.2202 12.4438 22.8213 0.409077 0.742114 0.530964
30.4958 9.1656 6.70648 -0.904295 0.267673 0.332568
13.8073 39.3925 26.9718 0.405704 0.744525 0.530176
14.6759 45.3301 43.2682 0.995562 -0.033872 0.087797
13.8559 14.5908 32.479 0.969978 0.196113 -0.143815
37.9633 36.3607 24.888 0.387316 -0.879629 -0.276115
31.1167 24.2647 20.4797 -0.637948 0.121914 -0.760368
28.7947 12.8994 31.0412 -0.337652 0.899935 -0.275876
39.5769 46.8804 10.4507 -0.384871 0.602018 -0.699606
11.5919 19.4034 35.8791 -0.815048 0.17441 -0.55252
21.2571 30.6228 27.5257 0.156117 0.857535 0.490164
23.1014 22.8816 19.5203 0.466247 0.792068 -0.394007
44.4341 42.3222 19.652 0.27055 -0.58784 0.762395
37.467 29.7262 22.6683 0.32342 -0.788176 -0.523621
29.4448 29.425 16.1493 0.665221 -0.0954639 -0.740519
22.9454 16.1617 28.5159 0.3818 -0.53038 0.756919
40.8039 43.0379 18.8742 0.734902 0.280465 -0.617461
21.7053 17.1769 23.0521 0.815538 0.543458 -0.198874
42.008 13.5451 25.5198 -0.856119 -0.51353 -0.0578618
45.36 42.55 10.3251 -0.261219 0.0390393 0.96449
44.8506 44.6253 28.9916 0.693823 0.30727 0.651302
33.8872 19.798 35.2487 -0.941288 -0.165991 0.293981
40.948 38.1908 23.5126 0.802298 -0.117309 0.585283
39.0452 41.2149 41.7029 -0.597147 0.385847 0.703234
23.9055 9.76079 32.3266 0.619988 0.776093 -0.115301
29.7931 24.206 34.5326 0.8003 -0.153754 -0.579551
13.4546 32.7318 10.7538 0.388795 -0.157854 -0.907701
23.9554 13.2297 40.2597 -0.690026 -0.532234 -0.490501
34.2872 11.592 27.145 -0.213687 -0.689632 -0.691914
36.0419 20.7776 30.6269 -0.390373 0.907746 -0.153642
15.1016 32.8244 24.5399 0.251708 -0.120435 0.96028
26.01 39.6029 31.6619 0.965383 -0.260619 -0.0106558
35.3772 26.552 9.98676 0.174257 0.983442 -0.0497643
19.7181 29.2424 16.9063 -0.62695 -0.669313 0.398689
34.4805 11.183 43.7365 0.83232 0.402892 -0.380685
44.8973 34.5946 30.6637 0.247234 0.875969 -0.41419
25.7821 21.8687 39.914 -0.309509 -0.94673 0.0889239
10.9705 12.9607 22.7423 -0.305267 -0.949071 -0.077955
33.9452 23.8649 13.4602 -0.216185 0.281636 0.93485
14.071 31.2639 41.5923 0.209778 -0.285987 0.934989
13.9798 45.3495 37.3769 0.48723 0.143687 -0.861372
19.3618 12.4767 12.0595 0.676994 -0.67053 0.303429
20.7172 15.7265 16.6305 0.987799 -0.0610946 -0.14325
36.0581 16.5509 17.5841 -0.882257 0.28964 0.371121
14.214 36.5992 14.4684 0.7847 -0.399981 0.473563
31.0783 9.277 10.4731 0.554797 -0.328164 0.764531
26.1639 15.6201 40.4489 -0.621624 -0.404627 -0.670716
13.6412 9.71632 14.7048 -0.389123 0.564705 0.727799
23.5904 18.1718 6.93688 0.130749 0.983247 -0.127002
22.5375 10.878 15.9387 0.523929 -0.783224 0.334752
18.7299 12.7021 16.6634 0.722343 -0.154924 0.673958
19.3163 36.4963 13.6262 0.356793 -0.378163 0.85422
19.0774 38.4768 32.576 0.314231 0.375556 -0.871904
11.1762 17.795 29.7739 -0.475617 -0.487386 -0.732286
41.1996 15.6813 43.6528 -0.408654 -0.735794 -0.540008
19.9466 27.9811 31.1722 -0.611085 -0.740407 0.279951
12.5635 17.414 32.6427 -0.199579 0.097486 0.97502
27.4294 16.7116 17.6018 -0.726338 -0.683134 0.075899
8.46408 43.237 36.9556 0.783817 -0.402422 -0.472955
8.82034 37.557 26.6296 0.84413 0.367199 -0.390651
34.5254 20.7424 35.794 -0.79551 0.147794 0.587639
24.4995 46.9488 33.0298 0.756377 0.36763 0.541056
43.938 12.5153 7.46737 -0.182184 0.978135 -0.100304
27.8164 36.6869 15.3653 0.465745 0.823659 -0.323524
39.3516 12.5838 12.1677 -0.342333 -0.438069 -0.831207
32.3134 29.1561 43.4653 0.740793 0.552848 0.381554
44.7648 39.0302 38.6104 0.168647 0.921327 0.350308
35.6884 23.3887 7.23324 -0.689714 0.723781 0.0208989
9.0793 18.5428 11.3412 -0.938938 -0.315107 -0.138211
20.3726 18.7914 29.6978 0.565188 0.768429 0.300132
40.1246 39.1698 41.2299 0.256892 -0.8678 0.425357
18.8343 45.2394 34.3077 0.376326 -0.610051 -0.697292
26.7935 30.0742 18.9572 -0.429611 0.626745 -0.650096
34.9145 36.363 42.6752 -0.563016 -0.826115 0.023394
40.1805 26.767 8.83491 -0.767185 -0.215132 -0.604272
41.793 43.4989 19.432 0.915442 -0.270838 -0.29768
19.7738 14.497 32.3873 0.913572 0.406455 0.0134239
9.01058 23.3759 24.0442 -0.363025 -0.864235 -0.348296
30.1823 36.5429 16.295 0.462349 0.141771 -0.875291
43.4516 19.5846 8.02187 -0.86992 0.310901 0.382858
37.0375 45.2437 37.3431 -0.0543533 0.957684 -0.282644
13.9314 18.9458 19.6993 -0.270642 -0.618773 0.737477
22.484 39.1912 7.44464 0.171184 0.430152 0.886378
15.0657 14.2397 11.84 -0.856874 -0.497861 -0.133796
27.1879 11.8141 16.1872 0.49622 -0.835445 0.236214
18.0297 31.9877 40.6858 0.0730837 -0.724566 -0.685319
35.2772 22.4932 40.2181 0.732356 -0.162616 -0.661219
39.6986 25.6641 27.0713 -0.195886 0.729759 0.655042
12.6077 13.3036 42.9502 0.450156 0.610409 0.651737
16.5222 11.3748 29.4765 -0.495479 -0.64385 -0.583059
29.1976 15.7587 18.7395 -0.9094 -0.384334 0.158992
41.6819 35.8371 27.7182 -0.367496 0.71379 -0.596197
20.3495 15.9612 44.4978 0.172592 -0.547504 -0.818811
14.3668 46.5195 37.2073 -0.848324 0.477958 -0.22782
17.5168 41.1548 21.6556 0.18588 0.364468 -0.912476
43.8488 23.5136 11.0559 -0.503179 0.0473291 -0.862885
21.678 33.1906 12.9309 0.396279 0.912203 0.104157
22.5299 19.9019 13.2547 0.287431 -0.905161 -0.313156
26.1468 27.2763 15.2106 -0.945222 0.322341 -0.0514983
32.112 45.611 13.6329 -0.600172 -0.676749 0.426384
38.343 38.8658 42.4056 0.335685 -0.0693818 0.939416
16.2339 46.8385 43.565 -0.827061 -0.522745 -0.206656
19.837 9.83369 22.981 0.528252 -0.369703 -0.764375
23.1044 36.2775 27.4719 0.697387 -0.151056 -0.700595
29.9154 15.1027 41.7195 0.49222 -0.648897 0.580217
27.8669 23.2889 30.6015 0.0168812 0.690761 0.722886
33.1878 29.551 18.2119 -0.462773 -0.449638 0.763981
11.2366 21.478 13.1737 -0.229347 0.625853 0.745458
42.1788 19.1131 30.2973 -0.500366 0.361951 -0.786527
38.2392 33.7609 15.6455 0.253136 -0.0199307 0.967225
45.1392 46.6757 36.701 -0.557708 -0.733655 -0.388216
39.1066 35.6533 30.322 -0.527653 -0.249847 0.811886
32.7725 18.3192 31.524 -0.934629 0.331476 0.128814
29.8177 26.2515 14.7479 0.409989 0.834235 0.368729
26.5421 35.2059 12.14 -0.354305 -0.439297 0.825522
28.3751 17.1513 24.5894 0.519677 -0.276345 -0.808436
45.6731 45.7759 23.4104 0.423955 0.778704 0.462475
41.3513 10.5511 42.7784 0.227255 0.454245 -0.861404
20.7849 44.8077 11.2226 -0.714223 -0.690849 -0.112304
16.4853 25.9453 19.3466 -0.623897 0.461511 -0.630682
14.9087 33.8739 28.7046 -0.540693 0.840922 0.0223893
29.9088 17.2856 30.5347 -0.839366 0.0113521 0.543448
38.8574 20.771 33.2336 -0.963723 0.252269 -0.0871715
12.5317 9.93694 40.4944 -0.493628 -0.853376 -0.16757
15.4927 18.6181 24.5678 0.703646 0.417783 0.574752
26.7478 9.29531 14.5196 0.165388 -0.899676 -0.404017
8.61679 38.6461 26.2889 0.929871 0.0382368 -0.365894
37.1585 31.5191 39.4317 0.248252 -0.0511776 0.967343
25.7747 39.9486 18.2571 -0.760463 -0.601913 -0.243715
9.58274 13.8361 18.3641 -0.226741 -0.354081 0.907312
36.9251 36.5201 37.3522 0.676599 -0.675581 -0.292923
41.1916 22.1774 36.3142 0.150124 -0.131792 0.979844
10.2517 32.7539 37.4697 -0.897821 0.426272 0.110495
45.1026 27.054 8.1988 -0.0786608 0.973374 -0.215304
38.4696 34.8382 26.1912 0.0020841 -0.747948 -0.663754
35.4425 44.4578 24.9319 0.610099 0.20797 -0.764545
45.193 36.2864 42.1691 0.0181791 -0.9556 -0.294107
42.8485 9.06893 13.5091 -0.681465 -0.705583 -0.194315
8.4724 35.7505 28.6698 -0.765317 0.175361 0.619305
23.4373 20.8935 13.4176 0.490218 -0.541665 -0.68285
37.4738 40.4835 22.2482 0.00219892 0.782519 -0.622623
26.8146 45.9019 29.031 -0.615836 -0.661009 0.428734
40.8198 43.0696 29.9592 0.236892 -0.837433 -0.492533
37.7311 23.1237 35.3022 0.954108 0.16278 -0.251359
20.7383 20.0814 35.5757 0.207591 0.857179 -0.471328
37.4937 25.1676 18.7816 0.226351 0.376881 -0.898179
19.65 46.0082 18.4677 0.243789 0.294572 -0.92401
36.5617 27.0234 32.8947 -0.377545 -0.445692 -0.811676
34.1573 44.8274 12.5031 0.869047 0.474645 0.139532
30.761 17.3897 26.9853 -0.148828 0.294557 0.943974
25.3918 33.5385 36.1347 -0.316812 0.911863 0.261028
29.6349 15.5558 21.4687 -0.250913 0.909171 -0.332343
31.0019 36.2552 32.2915 0.37249 0.343281 0.862212
14.6176 32.2563 15.6659 0.0730617 -0.48283 0.872661
44.3602 9.31099 31.3273 0.928099 -0.327252 0.177588
37.2053 19.9766 23.2147 0.178209 0.690689 0.70085
23.8759 27.745 18.9455 0.16781 -0.775046 0.609215
32.38 34.2447 25.6709 0.531822 0.00944281 0.846803
35.2672 42.3265 11.3596 -0.865479 0.476477 -0.154645
31.2227 13.6966 7.77009 -0.843242 0.186614 0.504101
19.9499 41.7693 24.397 0.601957 -0.490079 -0.630453
25.3246 22.115 14.3584 0.239849 0.685024 -0.687906
38.8499 35.9583 42.2314 -0.726856 -0.659608 -0.191305
31.2877 32.4087 24.5396 0.805803 0.565015 -0.177311
37.5844 45.5108 26.3113 -0.92138 -0.364173 -0.135786
39.5952 44.3856 33.0247 -0.525942 -0.834865 -0.162437
19.1584 26.248 14.8931 -0.135595 -0.835229 -0.532922
27.8552 19.9114 36.3065 -0.00220939 0.788791 0.614657
30.4724 36.1736 11.9779 -0.0780822 -0.734105 0.674532
29.433 42.1619 22.3487 -0.516231 -0.519417 0.680963
13.9151 44.5335 29.0824 -0.319365 -0.834408 -0.449188
22.8803 45.9888 12.4176 -0.389434 -0.54336 -0.743707
38.4972 46.9607 14.7218 -0.900438 0.157921 -0.405305
32.0029 45.7138 26.9124 -0.279371 0.444962 0.850859
20.5044 19.335 37.586 0.287013 0.922791 0.257061
39.4806 40.4221 25.766 -0.591352 0.778243 0.211286
23.8481 25.0899 12.9227 0.104332 -0.465989 0.878618
40.3805 10.6093 23.0194 -0.815766 -0.0695171 -0.574189
14.0149 23.65 15.2684 -0.040713 0.991482 -0.123714
12.2906 21.5925 25.9446 -0.593491 0.580014 0.55799
25.3973 16.8735 20.6309 0.887504 -0.219278 0.405283
44.0688 21.8155 34.0947 -0.00950533 -0.997742 -0.0664816
23.9442 13.1803 42.794 0.417161 0.400372 -0.815891
30.9437 33.388 36.5238 -0.100155 0.472927 -0.875391
32.8576 22.7675 42.8569 0.748666 -0.485149 -0.451808
36.4425 33.499 38.539 -0.589966 -0.138132 -0.795525
13.5542 34.201 38.1144 -0.692602 -0.63176 0.348112
13.1576 22.6131 31.103 0.0956727 -0.853454 -0.512311
37.8169 33.4932 33.5869 0.391135 -0.913668 0.110561
30.0967 19.1078 7.18215 0.660903 -0.694449 -0.284514
42.5804 21.3602 39.51 -0.800865 -0.15378 0.578763
42.0326 23.9564 9.79013 0.897973 0.086044 -0.431555
41.0283 26.8238 28.8851 -0.351496 -0.869796 0.346275
29.848 18.027 9.42468 -0.0492259 -0.686324 -0.725628
30.0793 27.7292 31.9535 0.99663 0.00220332 -0.0819974
33.3551 33.2045 40.4064 0.267944 -0.148068 -0.951988
40.2378 31.189 33.2704 0.111173 -0.29554 -0.94884
36.7348 31.8431 37.1037 -0.808253 0.0319074 -0.58797
42.2319 21.2355 20.8403 0.726692 0.650831 0.21986
10.3304 17.1894 25.7225 -0.512497 -0.643776 0.568242
18.562 20.7586 9.8765 0.334962 0.609436 -0.718602
42.7134 31.7131 22.585 0.178741 0.735794 0.653191
12.8672 12.3612 26.0767 0.866515 0.296517 -0.401533
8.79693 24.5565 33.0871 -0.841137 -0.253075 -0.477955
43.0528 21.3475 11.5551 0.818756 -0.187326 0.542722
26.7684 22.7821 22.7004 0.942236 -0.106664 -0.317513
36.7674 29.9484 18.2212 0.79995 -0.600058 -0.003307
45.4401 10.6639 6.74492 0.491596 -0.428918 -0.757867
19.5149 30.9512 8.90026 -0.134992 0.982521 0.128174
15.02 37.1335 44.1074 0.153355 0.267592 0.95125
9.33039 39.0859 22.0891 0.422703 -0.685978 0.592248
14.7566 9.93102 15.6614 0.086795 0.569204 0.817603
12.0722 29.922 8.778 -0.0376294 0.585192 -0.810021
11.8449 12.5519 24.0915 0.201261 0.377658 0.903808
43.4407 12.6461 17.1973 0.910163 -0.152698 -0.385081
23.0184 25.6479 15.375 -0.850842 -0.0122356 0.52528
21.4194 12.3888 24.1597 0.220476 0.915586 -0.336294
42.7705 32.4732 41.479 -0.515203 -0.294175 0.805001
30.4131 42.4745 15.426 -0.295695 0.560416 -0.773626
12.9409 18.8117 38.6326 0.568021 -0.773377 0.281497
16.031 14.9129 31.1791 0.874603 0.299207 -0.381504
11.8807 13.5089 12.3848 -0.671308 0.488445 -0.557464
33.3901 44.6266 17.7828 0.226947 -0.171522 0.958684
32.9648 20.5419 28.445 -0.0191516 -0.649687 0.759961
28.058 15.6784 40.4677 0.750794 0.527381 -0.397715
27.7829 29.1149 32.2774 -0.361914 -0.679073 0.638653
25.229 15.5469 41.8637 -0.272952 0.413443 0.868656
20.2636 18.3833 26.8527 -0.350863 0.849688 -0.393605
42.841 38.1303 18.9367 0.0743107 -0.997146 -0.0133286
26.5894 33.4831 36.8056 0.249103 -0.479485 -0.841452
14.6478 22.8119 11.0791 0.351393 -0.639988 -0.683329
38.7892 36.8662 18.5029 0.0641023 0.539862 0.839309
24.1116 16.1017 18.1843 0.141679 0.908583 -0.392942
40.4149 27.9288 7.07706 -0.121782 -0.710002 0.69359
25.9438 25.0491 17.9758 -0.676895 -0.00525444 0.73606
45.0493 26.496 34.954 0.128642 -0.800259 -0.585693
8.16806 9.30119 13.649 0.967498 0.0968199 0.233612
21.9174 17.1279 15.2414 -0.372688 0.507319 -0.777001
14.9423 13.9346 44.3377 0.945563 -0.319216 -0.0633344
7.78414 33.4281 22.3748 -0.503097 -0.507862 -0.699263
45.3626 19.0673 21.61 -0.897438 0.360643 -0.254049
23.3553 38.8913 28.5748 0.204046 0.967971 0.146276
13.89 9.37513 24.1031 -0.534499 -0.228246 -0.813766
8.18464 29.8162 28.9282 0.458456 -0.362025 0.811638
16.1552 46.3346 38.0725 -0.993342 -0.0858887 0.0767729
33.9858 11.2793 10.5597 0.0526871 0.928642 -0.367216
39.2355 12.0147 41.0408 -0.444761 -0.00881988 0.895606
17.5208 37.3094 13.6228 0.79546 0.188304 -0.576007
20.4167 44.9354 20.4287 -0.951118 0.260982 0.165115
43.9182 23.7494 32.0139 0.292179 0.198992 -0.935432
10.4069 24.3765 24.9933 -0.622903 0.76685 0.1547
34.357 46.1893 13.0853 -0.587985 0.659117 -0.46887
45.2511 28.361 40.8615 0.104392 0.728739 0.676788
45.1693 42.1291 23.7203 -0.475536 -0.851226 -0.22199
9.49729 11.0189 14.8314 0.903169 -0.278205 -0.326938
20.051 41.33 8.12975 0.988305 -0.152375 0.00589506
22.2822 9.50244 34.263 -0.108175 -0.866252 -0.487756
24.9781 38.5517 30.8886 -0.0803478 0.985511 -0.149374
13.1725 12.0567 37.5486 0.42728 0.894718 -0.130042
37.3428 17.9738 30.7522 0.848326 -0.0138616 -0.529293
29.6759 17.7384 35.1728 0.495215 0.131207 -0.858805
25.8208 27.4626 42.7623 -0.513458 -0.0409356 -0.857138
39.9845 15.0791 15.7049 0.31951 -0.547261 0.773575
31.0156 39.5852 35.7975 -0.467529 -0.170183 -0.867441
33.9109 46.4648 39.4015 0.173232 -0.984833 0.00974361
20.4266 42.5135 33.2374 0.21763 -0.346792 -0.912344
30.9933 40.2047 42.5993 0.45263 0.891388 0.0235413
12.5029 39.5512 14.663 0.0025989 0.931017 -0.364967
15.661 12.5639 33.6204 0.362289 -0.353102 0.862592
40.9034 44.7035 28.1829 -0.790323 0.401331 -0.462951
35.983 22.3348 18.7524 -0.889113 0.384326 -0.248539
9.68265 34.212 38.0695 0.746127 0.128438 0.653297
16.7309 34.7245 11.435 -0.66419 0.62923 0.403636
14.046 32.269 27.747 0.901819 -0.394454 0.176431
13.4896 18.25 41.4309 -0.740371 -0.596513 0.309875
10.1319 16.8555 37.3673 -0.865964 0.0610186 0.49637
41.5483 42.6073 37.9166 -0.304137 0.895901 0.323824
20.7152 18.4766 35.4227 -0.497914 -0.432084 0.751921
17.3242 35.806 8.88002 -0.0394624 0.712461 0.700601
16.2218 24.888 20.3757 -0.205434 0.969858 -0.131045
7.94902 13.907 42.7146 -0.922987 -0.321132 -0.212059
22.9973 42.0885 40.7719 -0.407574 -0.0229263 -0.912884
23.3841 30.759 36.8615 0.342994 0.478036 0.808602
11.8032 42.4548 14.8994 0.61652 -0.580345 0.532074
38.2843 45.5434 42.3581 0.92257 0.00214389 -0.385825
35.3536 22.7844 42.3529 -0.793012 -0.325158 -0.515175
12.4319 45.1598 40.8302 0.457642 -0.884693 -0.0887816
21.1664 15.6632 24.6636 -0.404629 0.907666 0.111435
41.9564 46.564 23.5913 -0.229477 0.972704 -0.0344457
12.4949 31.0104 44.5909 0.181612 -0.983367 0.00237981
32.5863 25.478 9.04655 -0.537816 -0.818079 0.203718
22.2991 36.953 44.703 -0.363582 0.0996003 0.926222
39.4956 38.8232 16.0086 0.644681 -0.687435 -0.334394
19.3643 44.6539 24.4734 0.67042 0.348175 0.655219
14.7273 27.7227 27.0745 0.0567566 -0.937375 0.343666
43.7531 34.6789 37.7422 -0.975647 -0.0890044 -0.200479
32.2054 27.3783 41.0579 0.172622 -0.245948 -0.953788
18.345 10.2531 24.8567 0.575641 -0.534284 -0.619014
40.5367 12.1171 42.072 0.291757 -0.44905 0.844531
20.4236 22.189 21.8719 -0.918402 0.389365 0.0702271
44.1904 40.3943 36.4192 -0.383797 0.7873 0.482555
30.2011 39.6238 28.9916 0.214573 -0.940333 0.264069
25.9055 33.9028 27.1704 -0.948763 0.25878 -0.181335
41.1438 33.0485 23.7506 0.655408 0.739552 0.153307
8.83059 15.998 24.6605 -0.546106 -0.36121 0.755841
16.9249 28.9121 40.9605 -0.714955 -0.46219 -0.524613
35.2711 27.705 14.6096 0.237396 -0.135441 -0.961925
40.5405 26.2934 10.1157 0.574252 0.655 0.491131
28.5313 42.3019 12.3878 -0.0127923 0.958892 -0.283484
31.4484 20.0074 20.2055 -0.602478 -0.343364 -0.720501
34.1611 37.5001 7.42939 -0.91609 0.375896 -0.139577
23.3902 38.7146 10.6634 -0.64825 -0.75641 -0.0872653
22.2429 21.9057 35.2182 -0.535919 -0.704192 -0.465729
38.8469 16.7085 8.45241 0.870537 -0.345537 0.350384
26.4961 35.0971 34.0637 0.762201 -0.0452819 0.645754
17.7353 30.4329 14.9004 -0.497723 0.187876 -0.846744
15.2969 42.8082 35.8773 -0.442954 0.514526 -0.734204
37.3131 32.9757 8.71842 0.276369 0.777684 -0.564648
40.0416 14.353 14.2168 -0.724243 0.420026 0.546855
34.1004 27.6852 26.9265 -0.434412 0.898214 -0.0670628
7.7151 26.7762 40.0543 0.936115 0.123758 -0.3292
10.0224 46.8792 9.71325 -0.862722 0.0986725 -0.495958
38.6968 29.4866 40.9236 0.190966 0.57301 -0.796989
45.5473 18.9747 27.1126 -0.556198 0.533691 -0.637039
29.7374 25.9906 30.6598 0.89397 -0.187207 0.407151
40.5917 26.772 22.8381 0.448197 0.786413 -0.425057
43.4571 36.1643 23.3997 0.478156 0.822209 -0.308769
23.5673 19.4099 37.0064 0.881111 -0.285981 0.376641
26.5983 18.5692 39.8225 -0.11173 0.462649 -0.879473
28.8242 42.1615 29.4664 -0.181824 0.980613 -0.0730664
20.4668 42.8538 41.971 0.290667 0.0986288 0.951728
43.7746 33.5454 24.4436 0.320712 0.704459 -0.633152
33.3266 35.3372 43.8248 0.280097 0.513486 -0.811097
31.043 42.6422 32.6303 0.697551 0.598118 0.394561
31.6282 22.748 12.3112 0.456244 -0.529089 0.715477
19.1624 20.7551 17.021 0.842714 -0.456773 0.28494
40.3411 30.2076 12.888 0.557475 0.813116 0.167523
19.629 9.62271 13.3509 0.390516 -0.0308105 0.92008
18.4941 45.0778 36.1355 0.923742 0.316922 0.215083
26.1539 21.9374 16.7289 0.838374 -0.364849 0.404987
21.211 36.5575 38.2518 0.354329 0.517418 -0.778929
13.8613 31.636 33.1088 0.455902 0.109427 0.883278
33.3002 33.4522 19.7838 0.257148 0.840258 0.477328
37.3946 28.4777 14.994 0.250102 0.198013 -0.947755
23.6988 29.2896 35.1861 0.59388 0.740465 0.314672
8.64161 43.9774 35.6408 0.261652 -0.93933 0.221807
12.3617 29.7586 34.1384 0.620132 -0.54242 0.566759
16.5361 34.208 27.1519 -0.928316 0.303451 0.21482
18.781 23.0068 14.7908 -0.785653 -0.497728 0.367446
17.9565 37.1572 40.4669 0.827408 -0.548119 0.122323
24.7228 44.3706 24.7771 0.942605 0.226994 -0.244886
17.1111 12.3205 38.3396 0.690106 0.478989 -0.542515
9.51475 23.183 18.2864 0.801458 0.287978 0.524151
34.0466 33.7843 35.8477 -0.637233 0.650576 -0.413141
22.1888 33.3285 19.4857 0.840122 0.154607 0.519896
41.7171 11.2785 37.0463 0.366293 0.560172 -0.742992
41.1385 34.9807 33.0804 0.899774 -0.172698 0.400726
18.7584 26.6685 43.6548 0.598123 -0.762997 -0.24512
38.8191 15.0633 9.13981 0.301427 0.449189 0.841054
25.5481 20.4421 27.375 -0.809277 -0.587402 -0.00543444
13.393 26.3372 38.0957 0.697319 0.712862 0.074657
31.0298 30.9796 25.2087 -0.909466 0.0814497 0.407721
36.6895 15.212 13.1855 0.6369 -0.652715 -0.41027
9.27484 37.5623 30.1268 0.422341 -0.307069 0.85284
30.0888 40.7646 39.0282 -0.445949 -0.845058 -0.29497
31.4249 26.8493 33.6125 0.769011 0.291024 -0.569146
12.3373 16.2195 18.7011 -0.0907916 -0.784546 -0.613388
23.4492 19.0437 18.6414 0.0692325 -0.623218 0.778978
33.2363 38.3763 29.1282 0.797484 -0.034092 -0.602376
36.5612 28.3359 28.8052 0.665057 0.517605 0.538316
11.688 24.0999 30.5704 -0.0663558 0.829019 -0.55527
43.1991 35.7133 41.9471 -0.513983 -0.348631 0.783759
33.0044 41.3778 36.3292 -0.987368 0.104501 0.119099
16.0682 21.8091 29.7997 0.315124 0.730958 -0.605308
25.7524 23.1438 18.1034 -0.291247 -0.793121 -0.534916
43.1649 41.3166 41.3884 0.304174 0.951375 0.0486208
27.7632 45.9747 41.3686 0.492369 0.29203 -0.819934
20.4496 44.477 37.5166 0.838975 0.149819 -0.52314
22.8276 35.2425 28.8678 -0.676876 -0.726395 0.119122
33.1864 13.859 43.0244 0.832915 -0.127223 -0.538579
9.77029 27.8745 17.8289 0.74153 0.656651 0.137634
28.3981 24.605 30.0242 0.650955 -0.157586 -0.74258
20.539 10.6612 13.2079 -0.726507 0.665452 -0.171352
31.7117 32.2006 35.6351 0.914976 -0.19278 -0.354478
42.6773 41.3462 24.139 0.0755161 -0.194773 0.977937
21.6033 26.5465 18.4846 0.680326 0.266346 -0.6828
24.8133 21.8271 11.8887 0.726863 0.146587 -0.670956
17.3356 26.2886 9.62621 0.207672 -0.948053 -0.240972
10.595 31.95 38.4515 -0.993717 -0.0320523 0.107236
40.8806 30.5458 42.3293 0.87663 0.452251 -0.164286
40.0213 40.443 35.8225 -0.232626 0.970361 0.0654613
24.4598 24.8191 31.0429 -0.726283 -0.686938 0.0250695
24.5134 29.7478 10.4105 -0.471189 -0.539628 -0.697698
33.1917 44.9878 14.7015 0.119448 -0.655594 -0.745606
43.8792 17.3942 32.8586 -0.320944 0.83833 -0.440679
25.8602 30.5745 23.6997 0.831507 0.287917 0.475079
26.5752 11.549 13.6705 0.968073 0.193787 -0.159003
27.1298 35.4609 38.9759 -0.468618 -0.491166 0.73427
26.8811 22.5102 29.7559 -0.521534 -0.707877 0.476354
19.7897 20.8095 10.4273 0.0654882 -0.370817 -0.926394
27.5628 29.2398 6.93172 -0.598007 0.498492 0.627609
11.6955 13.8994 31.544 -0.515359 -0.724542 -0.457651
18.1498 45.5954 22.914 0.0430683 -0.989003 0.141489
27.5406 26.2776 16.6961 -0.767086 0.28266 -0.575918
39.3347 16.4086 34.8259 0.0906674 0.84584 0.525674
36.5805 42.306 43.2821 0.842574 -0.411129 -0.34791
17.7496 36.8291 31.4031 0.749336 -0.652827 0.110962
28.4514 43.4632 13.4614 0.915459 0.0926461 0.3916
44.7097 38.1369 7.30489 -0.114321 -0.69279 -0.71202
44.8833 20.8508 44.4186 0.727467 -0.208021 -0.653849
13.8994 22.1554 29.2168 0.142701 -0.481795 -0.864586
28.0472 9.69248 16.1459 -0.898544 0.130941 -0.418894
14.2319 41.4603 43.9132 0.440033 -0.875357 -0.200302
16.5133 13.0846 8.9918 -0.00750283 0.532582 0.846345
10.4014 41.3869 23.03 0.87295 -0.41254 -0.260324
11.8397 18.3477 19.9264 -0.58252 -0.165856 -0.795715
27.298 36.7009 9.21632 0.713907 -0.161065 0.681466
12.0785 37.5891 21.6232 0.327258 0.12939 0.936034
27.4001 47.1933 42.6407 -0.680275 -0.56598 -0.465718
19.638 13.064 38.5065 -0.792007 0.0602628 -0.607531
36.8897 43.6387 41.0383 -0.354715 0.41617 0.837245
34.2113 35.2935 14.1705 -0.469576 0.287227 -0.834865
44.846 23.77 32.9244 0.174721 0.255001 -0.951024
11.3768 29.8886 15.0638 -0.125044 0.979838 -0.155827
37.9712 15.7516 10.6346 -0.538679 0.8343 0.117337
9.44628 31.2957 40.4688 -0.0328583 0.780065 0.624835
35.7204 34.7571 14.7497 0.687359 0.37224 0.623678
12.0782 32.5685 25.3994 -0.62411 -0.118415 -0.772311
35.2132 33.0003 43.8861 -0.439546 0.103692 -0.892215
38.0723 19.5122 7.01647 0.481395 -0.837297 0.259215
39.6852 16.0046 28.6508 -0.327996 -0.523768 -0.786184
13.7272 44.2859 23.8613 0.998932 -0.0461404 -0.00224222
37.2801 46.2779 33.2912 -0.779271 0.508268 -0.366607
16.7659 33.9833 28.3715 -0.800616 0.594909 0.0713934
7.85632 10.6139 9.69305 0.372141 -0.900794 0.223788
41.7134 39.2957 36.753 -0.774104 0.357843 0.522218
26.4933 20.4429 21.2741 -0.649265 -0.714042 0.261914
35.869 46.0948 44.6317 -0.767767 -0.116913 0.629972
28.1862 27.7442 31.2546 0.211096 0.731029 0.648872
29.6652 34.0124 29.5992 0.90365 -0.294953 -0.310516
36.0232 43.5325 21.9596 -0.642469 0.569967 0.512222
31.5131 45.6841 35.7169 -0.426629 -0.585547 -0.689291
24.7507 30.6694 9.27883 -0.951944 -0.286022 0.109514
42.0579 19.0515 17.4096 0.286767 0.398825 0.871036
18.0053 39.8607 17.7198 -0.671728 0.0539252 0.738832
41.89 26.1911 26.4242 -0.119917 -0.0510108 0.991473
24.1098 18.301 23.6002 -0.809345 -0.585904 0.04094
34.282 37.9531 8.68546 -0.643893 0.670029 0.36941
43.8361 45.6138 8.3584 0.63339 0.61825 0.465386
40.9758 40.066 24.9208 -0.564281 0.611325 0.554859
43.6313 30.554 39.2066 -0.723248 0.173022 -0.668562
26.2471 36.7984 38.51 -0.306468 -0.106923 -0.945857
30.1565 30.2567 24.1895 -0.410436 -0.0461886 0.910719
30.6996 42.7782 42.6642 -0.365934 0.863298 -0.347574
18.1317 38.6592 38.3839 -0.96229 0.165708 -0.215728
33.7727 22.1293 14.1833 -0.429923 0.643567 0.633237
45.4857 34.239 29.7184 0.287946 -0.572055 0.76801
12.5942 14.8987 24.7513 -0.87124 0.352553 0.341538
28.9693 19.5544 36.2388 -0.224128 -0.84741 -0.481313
16.5549 16.5457 15.2087 0.941565 0.120492 0.314542
13.7516 33.7987 10.2166 -0.176997 -0.28087 -0.943284
23.8108 10.8798 19.6892 -0.781481 -0.533534 0.323465
8.28196 29.944 37.1802 0.961434 -0.2642 -0.0764445
34.7464 37.9111 36.7591 -0.536262 0.612167 -0.581098
7.85576 24.2718 19.7413 0.471723 -0.0644029 0.879392
43.3779 21.9636 28.9307 0.125703 -0.777696 0.615944
44.9814 35.4051 20.2751 0.909361 -0.227975 0.347981
31.3965 39.7184 12.5701 -0.734589 -0.629166 -0.254024
39.1088 36.6801 28.2871 0.258486 0.962254 -0.0851646
10.976 37.5438 37.2802 0.446307 0.46146 -0.766724
26.4115 20.5189 32.3701 -0.734702 0.639383 0.22672
14.2535 31.1444 36.8357 -0.922625 -0.230307 0.309389
32.2682 11.354 6.78004 -0.118716 -0.991384 0.0553648
38.7438 21.993 43.7684 -0.30842 0.734621 0.604325
14.4236 42.8848 31.2556 -0.713058 0.112828 0.691967
13.5054 23.0419 43.4278 -0.428389 0.465251 -0.774613
30.7352 12.7191 25.8678 0.117488 0.425675 -0.897216
17.7685 31.1173 43.586 -0.484172 -0.252416 -0.837773
45.0131 30.5091 41.8176 0.263783 -0.231147 -0.936477
42.754 37.1063 16.1693 0.0333806 -0.222797 -0.974293
24.1861 36.5633 24.1769 0.243631 -0.948983 0.200189
14.4691 9.82332 17.8481 -0.37611 0.325592 -0.867485
14.6163 26.098 12.1576 -0.390111 -0.737526 0.551242
12.8615 39.7982 31.301 0.803942 0.452251 -0.386195
23.8216 37.2688 9.79974 0.619678 0.457003 0.638081
32.0632 13.6411 17.8891 -0.964134 -0.256036 -0.0699326
44.2605 33.0439 28.8464 0.592589 0.385602 -0.707213
22.1996 24.7373 8.82945 -0.273987 -0.862637 -0.425192
27.433 37.9999 22.4912 0.921311 0.387703 0.0295411
20.9912 13.0906 44.076 0.660025 0.748905 -0.0592283
8.11062 27.9231 41.1478 -0.398486 -0.657064 0.639903
27.9416 42.6484 24.3846 -0.0728685 0.638723 -0.765978
19.6092 32.9203 36.5544 -0.901814 -0.0635109 -0.427431
29.1784 35.0052 14.6505 -0.191862 -0.888754 -0.4163
31.3947 13.8686 25.7027 -0.151385 0.0916926 -0.984213
36.8535 16.4192 21.5863 -0.0879677 -0.189748 -0.977884
13.6054 15.0833 35.8903 -0.331353 0.90654 -0.261515
41.4616 22.9575 22.8695 0.979379 -0.0810998 0.185038
35.5672 22.7514 11.3192 -0.207913 0.0863904 0.974325
16.9311 47.0964 42.0486 0.842082 0.189754 -0.504868
13.7699 16.899 40.5563 -0.838871 -0.543333 -0.0329397
17.4311 25.8475 44.6459 -0.292716 -0.91976 0.261455
14.2615 44.0744 22.056 -0.397546 0.591042 -0.701873
29.3686 9.82778 37.0723 0.624854 -0.329844 -0.707644
21.4811 19.4926 8.44246 0.282166 0.757873 0.588227
37.6429 42.1042 39.857 0.7071 -0.342555 0.6186
8.00091 21.3053 29.0129 0.968477 -0.147393 0.200816
41.7051 28.9809 41.8732 0.0954511 -0.647588 -0.755989
21.1129 13.6097 19.6796 -0.0620815 0.30491 -0.950356
38.8634 25.5917 41.2665 0.671381 -0.0190602 -0.740867
18.8742 29.5344 29.3666 -0.103578 0.375789 0.920899
15.3814 42.6745 24.2323 -0.605993 0.275141 -0.746371
12.9593 24.1286 40.6582 0.387963 0.00950716 0.921626
11.6322 18.8772 10.5994 0.966981 0.176092 -0.184226
20.8708 46.7468 14.1612 0.161717 0.141998 -0.976568
42.4483 38.4825 39.5141 -0.160199 0.782671 0.601467
15.5191 32.4522 22.2085 0.287549 0.169655 -0.94262
26.1119 41.5603 33.0498 -0.323659 0.601141 -0.730667
24.7039 38.4381 24.227 -0.301104 0.953476 -0.0148119
14.9292 33.8756 37.3006 -0.0536224 0.471233 0.880377
17.8055 27.0353 14.6133 -0.654812 -0.254791 -0.711549
38.9966 37.1646 8.9526 0.799377 0.132424 0.586055
12.9939 34.9107 42.1078 0.86524 0.477806 0.151857
9.71566 12.2869 11.1592 -0.906877 -0.414664 0.0750189
18.9993 24.1135 6.76823 0.735197 -0.184998 0.65212
20.5825 26.7734 6.87174 0.430414 -0.840881 -0.32812
44.1295 41.9939 30.6276 -0.584252 -0.754292 -0.299489
20.0699 43.9423 36.058 -0.595113 -0.783019 -0.180894
13.2425 33.3929 18.8869 -0.312681 0.421659 0.851137
34.7582 25.1021 42.5598 0.500308 -0.0703768 -0.862983
12.7835 40.5335 37.1083 -0.879868 -0.113408 0.461487
38.1423 36.2937 29.5013 -0.522649 -0.417083 -0.743559
41.5777 22.7234 18.0476 0.233909 -0.00253791 -0.972255
35.0129 33.2005 19.4708 0.82845 -0.553553 0.0851458
12.6006 12.416 40.7231 -0.789654 0.524132 0.318955
27.4156 45.685 27.7408 -0.844498 -0.0492085 -0.533293
16.5841 28.5881 34.9515 -0.151685 0.259829 -0.953667
38.7954 28.7087 15.724 -0.365902 -0.479561 -0.797582
20.8041 10.3958 26.7396 -0.976589 -0.214204 0.0197744
27.5751 12.5508 29.0046 -0.350146 -0.753974 -0.555807
41.4175 12.4134 29.9221 -0.502616 -0.808786 -0.305356
22.0778 46.389 25.8196 0.865973 0.172894 0.469252
13.6109 45.2932 15.6891 0.219025 -0.598023 0.770971
42.3774 17.4654 10.7695 0.00797014 0.281134 -0.959635
30.6195 46.8167 37.8303 0.258129 -0.585825 -0.768231
9.48966 18.7002 35.585 0.455572 -0.888151 -0.0603442
15.8125 36.0817 7.28528 -0.509602 0.827764 0.234762
16.3871 43.959 40.9789 0.151267 -0.98722 0.0501512
17.6938 22.1372 36.4427 0.947132 -0.123603 -0.296079
27.3757 45.6354 39.1087 -0.86887 0.151572 0.471265
45.3057 9.35461 11.1621 0.954242 -0.0420329 -0.296066
12.9428 41.555 43.5216 -0.202489 0.917879 0.341317
23.2231 39.0383 15.2109 -0.299306 -0.921037 -0.249211
27.5227 18.4253 37.9789 -0.418115 -0.556128 0.718263
37.0325 27.9358 31.8663 0.580294 -0.771378 -0.261217
15.2385 9.61482 41.403 0.411283 -0.911418 0.0127632
34.175 34.048 7.18876 -0.957153 0.284397 0.054565
16.18 17.837 14.2549 -0.0435533 -0.881548 -0.47008
17.6417 27.982 16.7113 0.84718 -0.11871 -0.517875
8.45879 39.9293 17.617 -0.21905 0.414882 0.883114
34.6108 42.0772 36.861 0.734342 0.643556 -0.215817
12.924 33.12 22.0302 0.667825 0.489825 -0.56043
29.1123 9.19127 19.4755 0.295764 0.0438928 0.954252
17.3279 39.7449 8.52227 -0.889315 0.457045 -0.0151479
21.9859 12.083 32.1801 0.405982 0.910798 0.0750097
26.3819 36.1642 28.7419 -0.177325 -0.44321 -0.878704
11.2493 40.5005 16.2274 0.265176 0.597581 0.756689
11.9354 38.3957 23.6566 -0.308811 -0.94429 0.11381
26.3856 24.0422 31.003 -0.763476 0.489477 -0.421328
19.2764 42.0333 30.7729 -0.486062 0.364879 -0.794107
24.4901 29.446 38.1357 -0.369356 -0.820182 0.436894
10.3656 36.4079 36.6617 0.506204 0.765537 -0.397128
42.7686 20.9514 21.9369 -0.607242 0.791668 -0.0672215
16.7264 16.7927 12.9686 -0.0632297 -0.950345 -0.304707
12.3979 41.1262 29.718 -0.203509 0.0567718 0.977426
38.9812 28.1662 29.6743 0.0441337 0.741257 0.669769
32.0529 44.9743 15.1768 0.56683 -0.622995 0.539055
13.7152 43.2827 13.7821 -0.938091 -0.344145 0.0393588
33.0393 35.2114 27.0761 -0.575513 0.110496 0.810293
27.7215 38.2384 11.0511 0.0476241 0.871823 0.487501
36.6046 14.4049 40.5641 0.167478 0.731664 0.660772
11.5416 38.622 39.5555 0.189917 0.800454 -0.56851
12.6712 31.4761 32.8976 -0.189482 0.787093 -0.58701
45.3245 21.8416 34.6657 -0.204911 0.820438 -0.533754
28.6478 11.8225 20.2372 -0.262954 0.279064 0.923568
9.43579 18.0392 10.3778 0.830074 -0.183532 0.526586
15.5797 33.5822 19.3262 -0.887268 -0.250791 -0.387117
13.6862 14.2361 22.7646 -0.841921 -0.3956 0.366975
7.85981 16.6098 8.16334 -0.809738 -0.170619 0.561438
17.6468 16.2907 44.3623 0.206725 -0.904613 0.372746
28.6319 46.5393 33.2133 -0.612678 -0.607751 -0.505237
18.0276 43.7428 38.5432 0.00859718 0.703766 -0.71038
33.0357 13.1355 25.6722 0.20693 -0.047033 0.977225
24.3833 29.9387 13.3999 -0.990135 0.119886 -0.0725275
17.7226 18.9048 27.5067 -0.776887 -0.429253 0.460639
18.2785 42.7463 20.5818 0.981151 -0.193154 0.0059395
7.84613 44.4481 12.1258 -0.307357 -0.745266 0.5917
24.0219 36.8907 29.6008 -0.537492 0.0868802 -0.838782
25.2177 39.0862 28.1224 -0.658167 -0.668165 0.346946
34.6472 28.6254 25.8291 0.0280091 0.966781 -0.254068
28.2093 37.4661 23.8388 0.242813 -0.920245 0.306907
38.9974 44.8943 8.74401 -0.687582 0.0674657 0.722966
41.6981 18.6428 7.29022 -0.810473 0.485218 0.328174
38.6617 13.1604 40.7026 -0.933563 0.338624 0.117447
28.9651 40.8648 20.8192 0.190422 -0.445591 0.87475
10.5731 35.7344 30.9256 -0.945533 -0.307255 -0.107523
24.9293 21.1458 7.388 -0.749699 -0.0735802 0.657675
15.9081 30.3138 36.9296 0.726662 -0.435025 -0.53171
39.5781 45.8908 23.0028 -0.11761 0.127204 0.984879
14.5236 44.8986 15.2705 -0.492398 -0.435547 -0.753554
17.3938 29.2223 16.4471 -0.672062 0.444038 -0.59259
20.2982 25.655 25.3019 -0.81413 0.25166 -0.523316
16.6885 38.0154 15.3961 -0.140735 0.784753 -0.60362
11.0605 39.4097 32.2638 -0.224527 -0.856068 -0.465548
18.7212 14.2614 18.2308 0.238885 -0.683259 0.689993
10.7966 38.9153 8.82945 0.365737 -0.264657 -0.892297
16.628 35.3361 34.2135 -0.312801 0.361808 -0.878209
10.7256 10.4619 38.7059 -0.43746 0.486922 0.756
16.5694 33.888 42.0006 0.106647 -0.335623 -0.93594
41.0452 37.3582 38.4877 -0.262326 -0.625913 -0.734451
23.7334 35.4172 36.6381 0.428416 -0.887489 -0.169773
11.9461 20.4185 44.0084 0.606633 -0.444417 0.659159
27.8686 30.9258 16.8434 -0.2744 0.918308 -0.285332
34.9843 11.7024 42.1567 0.215957 -0.845194 -0.488886
25.0297 10.1927 17.2433 -0.311069 0.403951 -0.860268
41.5901 11.2208 17.7253 0.88745 0.412452 0.205709
19.5211 22.0872 43.9815 0.917266 -0.397749 0.0204852
7.70947 34.2637 6.84271 -0.0153909 -0.312734 0.949716
21.9657 9.27646 14.6443 -0.120338 -0.0864832 0.988959
34.1934 12.9276 24.336 -0.521076 -0.351831 -0.777621
40.2503 10.3539 32.6229 0.401901 0.84422 0.354637
23.4607 36.3158 41.4431 -0.0364405 0.0269546 0.998972
44.9068 31.7826 34.7348 -0.214431 0.712786 0.667799
35.4813 38.0074 26.1424 0.872418 -0.4273 -0.237278
35.7636 36.3575 24.1047 -0.610243 0.775404 -0.162334
37.4962 36.0855 30.4052 -0.771723 0.0159982 -0.635758
41.988 26.1648 23.182 0.919657 0.29436 -0.259967
12.0392 39.0252 43.8579 -0.528977 -0.154683 -0.83442
17.2867 11.1403 36.4942 0.226266 -0.720357 0.65566
16.2373 31.0372 7.03965 -0.438632 -0.0729301 -0.895702
42.2465 29.8251 21.0048 0.516274 0.185539 0.836084
25.8165 34.8569 26.0478 0.199919 -0.0509971 0.978484
10.123 17.8631 30.6244 0.561794 -0.643915 0.519385
28.6056 33.4822 8.09906 -0.890914 -0.446434 -0.0834812
36.8114 17.3928 18.2376 0.690782 -0.453947 0.562809
9.88825 14.6738 39.2018 0.545477 0.512022 -0.663543
29.4095 21.3016 44.5413 -0.595165 -0.656826 -0.462988
21.9915 24.1587 36.6775 0.902665 -0.318828 -0.289042
22.8219 44.1648 11.7815 0.893176 0.44676 0.0514024
7.82176 46.5265 18.1272 -0.0563127 0.363019 -0.930078
33.6739 33.6188 15.3656 -0.55701 0.0697129 0.827575
27.0469 17.3918 36.9955 -0.888411 -0.265446 -0.374518
41.583 10.1253 11.8304 -0.174891 0.914346 0.365218
35.8071 43.7595 27.135 -0.191803 0.361497 -0.912432
8.98139 37.9464 36.1734 -0.925774 -0.321863 -0.198361
20.6443 17.1499 15.5628 -0.235345 0.971675 -0.0214719
31.466 38.958 37.6404 0.696443 0.692469 0.188293
39.6641 38.4906 19.0452 -0.237543 0.968285 -0.0774397
14.6004 43.4315 15.9054 -0.720341 -0.679151 -0.140935
42.5904 36.8463 8.91117 0.344054 0.000312661 0.93895
42.9657 35.1983 12.6852 -0.31435 0.629978 -0.710149
12.5939 26.9647 36.9039 0.929976 0.360531 -0.0718443
24.2729 43.1725 31.1278 -0.30472 -0.700148 0.645708
16.3583 19.8224 30.2465 0.915371 -0.334689 -0.223785
18.1209 10.417 16.5326 -0.50014 0.399958 0.768045
31.4081 9.98401 15.7032 0.943742 0.328154 -0.040815
21.3725 42.3025 38.6474 -0.189061 -0.88843 0.418269
22.0289 33.8041 44.7784 -0.763717 0.138179 -0.63059
41.1987 36.2341 13.2697 -0.056293 0.944445 -0.323813
44.9693 15.8815 11.9008 0.814584 -0.578942 -0.0357644
23.0523 11.1423 40.6389 -0.0148108 0.977907 0.208515
9.61345 34.1886 8.03062 -0.360045 -0.781773 0.509115
19.1323 10.4029 28.93 0.740972 -0.121717 0.660413
9.34005 10.3223 9.98268 0.340933 -0.667185 -0.662291
41.3946 23.2632 40.6701 -0.864423 -0.39713 0.30832
29.0663 16.9612 13.2548 -0.256041 -0.185597 -0.948682
33.4679 31.1638 23.0196 -0.657202 0.738195 0.152162
41.1748 43.6543 35.8692 -0.294237 -0.413136 0.861826
41.3274 18.7033 18.8909 -0.835324 0.455018 -0.308532
38.5343 30.8059 12.3161 -0.395788 -0.907497 -0.140716
12.7174 26.083 41.6514 0.501771 -0.186779 0.844594
42.6833 24.274 10.6846 0.770259 0.536592 -0.34463
36.4687 14.4625 42.8563 0.136849 -0.840209 -0.52471
8.65696 26.1903 35.0548 -0.78799 0.416141 0.453761
11.6949 31.2335 9.32904 -0.759827 0.487605 -0.430005
15.497 24.3016 12.6972 -0.462111 -0.206354 -0.86248
13.4285 10.2004 42.5375 -0.0247956 0.963516 0.266501
19.8611 36.2742 38.1506 -0.288069 -0.875185 -0.388675
26.6149 35.7527 43.0586 -0.740501 -0.653729 -0.155876
24.0599 37.9384 17.1401 0.373384 -0.77589 -0.508508
21.8902 23.2175 35.4856 -0.807996 -0.582421 0.0890411
24.4885 32.4825 25.8141 0.767971 0.602248 0.217987
13.4182 42.6747 27.7958 0.917807 -0.388553 -0.0815926
32.5389 37.01 10.8266 0.114911 -0.969049 -0.218494
24.3223 12.0928 8.66829 0.878454 0.323379 -0.351773
18.4152 27.1244 37.2302 -0.0610324 -0.00463844 0.998125
41.059 18.0984 8.19492 -0.718838 -0.647284 -0.253564
28.4658 10.3872 20.9646 0.721928 -0.189287 -0.665575
15.9308 34.7807 17.1137 0.969287 -0.121612 0.213761
44.5312 23.0997 39.3409 0.298269 -0.803148 0.515741
31.0803 44.4545 17.2498 0.86148 0.0919429 -0.499398
23.9591 19.3547 34.6939 0.0654729 -0.790087 -0.609488
26.1761 44.2887 33.9702 -0.548797 -0.189301 -0.81424
36.4862 15.4925 32.8079 0.270159 -0.942814 -0.19523
12.8126 18.8883 29.6033 -0.948564 0.312024 -0.0535486
36.6825 18.8476 9.21439 -0.660428 -0.749637 0.0433625
14.5173 11.4615 14.3221 0.956731 -0.196887 -0.214248
11.1027 18.5507 21.2269 -0.467927 -0.563095 0.681152
29.8659 19.8931 28.3907 0.739845 -0.305664 0.599332
20.3858 23.5158 31.3713 0.592597 -0.556471 0.582382
23.4581 35.2936 26.4045 0.155183 -0.713087 0.683685
10.9854 41.3444 11.4123 -0.263416 -0.942537 0.205514
20.1984 11.0067 22.9462 0.201451 -0.509618 -0.836485
43.7134 10.7593 34.8807 -0.83024 0.106652 -0.547107
30.6628 28.3057 14.9659 0.917332 -0.283307 -0.279711
16.9275 33.0347 32.4871 -0.656192 -0.117479 0.745393
16.2181 32.118 34.5022 -0.668793 -0.320022 -0.671045
15.8639 12.5128 39.7085 0.279774 0.110275 -0.953712
41.4389 22.0636 20.2919 0.374106 0.739897 -0.559104
9.44781 36.6863 21.96 -0.655107 0.333709 -0.677844
16.0511 18.6069 10.2552 -0.0491955 0.350996 0.935084
17.7736 25.1775 26.962 0.138722 0.326495 0.934964
18.1657 31.0438 41.2701 0.178542 -0.745008 -0.642718
30.8519 31.1978 38.4642 -0.230308 -0.177454 -0.956801
12.6276 9.80866 37.7848 0.766673 0.23535 -0.597347
9.79684 30.6407 20.6993 0.614775 0.148527 -0.774591
27.1233 42.9648 17.271 0.327467 -0.394696 0.858476
24.6616 15.726 33.7849 -0.611443 0.241013 -0.753691
25.2311 27.4641 6.71039 0.387924 0.259739 -0.884336
21.627 10.8987 6.74385 -0.435626 0.801781 -0.409118
37.7602 27.6438 29.253 0.310308 0.915991 0.254301
36.9395 15.3532 16.7667 0.356303 -0.779761 0.514802
41.527 10.8073 44.7325 -0.275748 0.599187 0.751623
