16.4644 13.4553 18.7622 -0.854034 0.479098 -0.202711
19.2126 21.9513 12.6013 0.0415591 -0.828014 -0.559165
16.7151 18.1551 11.1883 -0.202593 -0.978081 -0.0480924
22.8154 15.5061 17.7765 0.115342 -0.371439 0.921265
21.8534 15.5979 7.12937 -0.348753 0.738884 0.57656
13.9836 20.3438 8.3278 -0.83601 0.420063 -0.353035
19.552 18.6006 13.5794 -0.447852 -0.414132 0.792416
11.7381 18.769 12.9772 0.885581 0.459184 0.0699757
20.3038 15.5703 16.8022 0.98561 0.120227 0.118825
20.8506 15.1722 17.959 0.196593 -0.926466 0.320956
18.076 14.5297 9.79567 0.654822 0.55107 -0.517233
23.0078 14.9652 12.6799 -0.492991 -0.826069 0.273076
17.6707 14.4332 19.2612 -0.0898977 0.968342 0.23288
18.4132 18.3174 16.7365 -0.92656 -0.283827 0.246839
10.6037 10.3852 17.8095 0.561281 0.317718 0.764211
18.8249 23.0864 10.5636 -0.735289 -0.628981 -0.252455
20.9173 22.682 13.4052 -0.0437445 -0.621282 0.782365
10.7668 14.6845 19.9009 -0.0964205 -0.8948 -0.435931
20.787 17.2185 11.8633 -0.910488 -0.164598 0.379367
14.099 21.4677 14.4063 0.689855 0.653663 0.311168
23.1514 14.5436 19.921 0.423931 0.885368 0.190805
11.3696 21.203 11.7372 -0.240884 -0.970508 -0.00942067
13.8872 19.9996 11.2071 -0.0316003 -0.314682 -0.948671
14.0962 21.5866 16.2209 -0.479644 -0.872563 -0.0926032
13.1496 15.6181 8.96907 -0.53411 0.562071 -0.631508
14.9785 15.2057 18.6114 -0.478898 -0.378551 0.792058
20.9621 17.5195 9.00901 -0.0622923 -0.518781 -0.852635
20.2037 21.8281 15.7764 0.591079 -0.0521477 -0.804926
22.2059 21.3749 9.34171 0.428655 -0.291248 0.855236
16.0065 11.493 11.2416 -0.908605 0.40553 -0.0999079
19.7615 21.3097 10.6636 -0.210417 -0.92842 0.306203
18.888 14.4989 18.9325 0.462402 -0.470358 -0.75163
17.0885 13.5022 19.8597 -0.204142 0.976327 0.0714898
21.2382 16.4048 10.8125 -0.0168603 -0.298154 0.954369
16.9537 16.6786 12.5682 0.0363767 0.0969283 -0.994626
13.7707 12.0558 14.3895 0.177885 -0.882948 -0.434464
18.4321 13.2803 17.7802 0.827989 0.0320616 0.559827
19.9126 10.3256 15.254 -0.624242 0.100776 -0.774704
22.8479 12.3543 17.8818 0.383265 0.846555 -0.369395
11.1984 16.6385 17.5763 0.949889 0.0145812 -0.312247
13.0628 19.5688 17.3748 -0.514237 -0.560395 0.649243
18.274 18.2045 7.46466 0.261987 0.0428972 0.964118
23.1726 15.1665 16.4281 0.481513 0.460454 -0.745739
21.9175 10.8503 15.4519 -0.865423 0.493096 -0.0888788
18.4927 10.4995 13.1208 0.0486457 -0.943466 -0.327881
21.3374 17.5878 10.6851 0.885329 -0.452598 -0.106529
14.4053 21.9516 19.7275 -0.601858 0.338378 0.723372
19.7152 12.7732 10.7402 0.37626 -0.227835 0.898065
16.8311 20.9195 16.3335 0.264673 0.736421 0.622601
14.8445 21.8347 10.3414 0.201021 -0.150578 0.967944
17.5425 22.2662 7.39441 0.929735 0.166028 0.328675
17.3029 18.5559 12.526 0.424486 -0.717438 0.552353
10.7217 16.9697 12.3762 0.230864 0.459668 -0.857559
15.1906 13.7193 15.0061 -0.678 0.131474 -0.723209
20.0914 12.857 9.40404 0.416457 -0.783632 0.46096
22.9483 19.3387 17.8616 -0.59115 -0.102503 0.800022
13.0548 11.305 6.80707 0.595002 -0.726079 0.344647
12.7934 17.9139 6.66961 0.379526 -0.524746 -0.761973
18.9028 17.2133 10.9635 -0.537106 0.469914 0.700499
14.6612 12.7885 14.4865 0.469361 -0.185274 0.86335
15.5592 10.4201 9.52929 -0.314585 0.863945 -0.393236
21.3234 21.9057 12.6101 0.225826 -0.841949 0.490025
22.0219 20.1546 8.9503 0.935638 0.348344 0.0569048
17.7309 15.8183 10.0408 -0.365594 0.359392 0.858591
18.0698 16.2957 19.9457 -0.0471721 -0.122098 -0.991396
14.9377 12.6276 17.5591 -0.912626 0.348025 -0.214457
20.8862 10.5468 8.21698 -0.402472 0.878698 0.256721
11.7186 14.578 7.84312 -0.143763 0.0807838 -0.986309
20.6503 16.3312 9.1326 -0.818039 -0.131401 0.559951
21.0257 16.0917 19.6224 0.165325 -0.846942 0.505329
23.5658 17.891 15.4586 0.132568 0.314869 0.939832
10.7624 21.7103 13.1251 0.390356 0.560228 -0.730593
21.219 19.4673 11.8427 0.837338 -0.270396 -0.475133
15.3212 19.9825 19.7648 0.724744 0.564672 0.394832
23.7964 20.1934 12.864 -0.127784 0.0145959 0.991695
23.6455 19.2681 16.0233 -0.65424 0.7056 0.27221
10.9313 19.0176 18.4056 0.977203 0.208631 0.0393396
15.8303 18.4842 11.0767 -0.240593 -0.881503 0.406285
13.6584 15.894 19.1796 0.370375 -0.745399 -0.554258
14.9149 12.7145 7.60363 -0.229306 0.768209 -0.597723
17.1529 22.105 8.7497 -0.405897 -0.335422 -0.850141
13.9832 11.0474 8.65923 0.936911 0.161281 -0.310138
18.3532 12.5768 16.9048 0.693733 -0.223009 0.684837
13.3385 13.2973 13.9868 -0.465173 -0.847774 -0.254741
13.9054 15.3005 20.072 -0.957133 0.197471 -0.211898
16.0611 11.9752 12.1318 0.936237 0.0562534 -0.346837
17.7655 9.95443 19.4469 0.435457 0.497196 0.750449
20.4698 13.2897 8.30093 0.0688544 0.95105 -0.301268
22.7356 17.8736 18.3288 -0.508359 -0.506646 -0.696334
17.5744 18.9117 7.23961 -0.860122 -0.509589 0.0225726
20.093 17.6728 16.4574 0.339878 -0.557289 0.75757
11.6677 18.4823 17.6831 -0.935567 0.306412 -0.175574
14.5566 15.2081 9.17761 0.617599 -0.506078 0.602044
12.3934 18.3069 14.6831 0.428875 -0.866671 -0.254849
22.6081 16.5992 18.2983 0.598185 0.592434 0.539626
21.3689 12.7437 8.27881 0.323506 0.89326 0.31214
19.1214 10.0365 17.8825 -0.0815811 0.992197 -0.0942829
23.747 15.9064 7.98439 0.0886658 0.195479 -0.976692
23.9212 19.8778 9.24888 0.520637 -0.599255 -0.608138
16.9445 17.3721 19.6136 -0.505144 -0.762345 0.404549
21.9198 23.01 20.1469 -0.985266 -0.147045 -0.0873383
14.2088 11.6521 13.1857 0.563878 -0.823267 -0.0653732
18.1877 23.1625 9.30189 -0.234482 -0.61742 -0.750873
13.7473 17.5284 7.36682 -0.126959 0.252854 0.959138
21.7303 20.404 11.2138 0.594716 0.658539 0.461128
15.5008 22.3993 16.1794 0.339935 0.872271 0.351551
15.9958 20.2654 18.6404 0.392495 -0.145127 0.908232
17.4222 19.1252 16.6969 0.179 -0.530111 -0.828819
18.866 21.6082 17.6798 -0.669261 0.337634 0.661886
16.7455 22.8633 9.7894 -0.10008 0.920575 -0.377526
10.693 15.9049 19.4373 -0.511997 -0.821039 -0.252494
11.2677 19.402 16.1047 0.645117 -0.638845 -0.419167
22.9289 10.339 12.3835 -0.0833262 -0.979739 0.182121
19.498 19.6641 18.3132 -0.882914 0.266128 -0.386831
20.4673 18.9807 11.2266 -0.666521 0.25638 0.700014
21.3926 16.3656 12.9511 -0.537438 0.843195 -0.0135091
22.5375 13.6308 8.92947 0.467978 0.881002 -0.0695138
12.5328 20.0984 8.47207 -0.0666231 0.354665 -0.932617
13.586 18.0521 14.9735 0.217493 -0.740277 -0.63615
23.5763 21.8034 19.661 0.83329 -0.127887 0.53784
12.1092 22.8992 17.7999 -0.436108 -0.311062 -0.844423
14.9184 16.2778 8.80345 -0.533154 0.799196 -0.277545
19.6286 17.522 13.0186 0.70564 0.695344 -0.136269
19.8318 22.8847 11.4589 0.534577 0.471927 0.70108
12.6639 18.5299 18.9282 0.219566 0.95597 -0.19471
10.8318 21.7889 7.9698 0.526519 -0.348294 0.775544
10.6226 11.1457 6.71305 0.225861 -0.479292 0.848096
21.5484 19.5113 18.0582 -0.203465 0.213633 0.955491
19.6729 13.0944 15.3121 -0.782189 0.358573 -0.509515
23.2796 10.5185 7.54289 0.0677154 -0.260778 -0.963021
23.5895 18.7391 8.94042 0.525949 -0.821303 0.220995
16.078 13.4316 16.7902 -0.572578 -0.552297 -0.605906
11.8676 23.2023 15.1852 -0.255386 -0.411552 0.874873
14.6783 9.76797 12.3288 0.588593 0.587371 -0.555476
14.3298 20.437 19.5393 0.764868 0.577984 0.28445
22.5538 12.7064 19.0673 0.0913668 0.594887 -0.7986
12.8131 16.5986 12.9563 -0.42403 -0.638588 -0.642187
22.983 21.7567 14.8491 -0.166791 0.731128 -0.661538
16.693 12.5646 7.01347 0.712022 -0.237819 0.660656
11.5719 19.8925 19.1127 -0.850989 -0.176739 0.494551
13.1763 21.253 20.028 -0.722767 -0.0281144 0.69052
12.0762 19.1789 16.8841 0.726132 -0.314523 -0.611398
19.8734 17.5021 14.9738 -0.174538 0.971361 -0.161227
16.8496 12.9333 17.6423 -0.699703 -0.381186 -0.604245
18.3782 23.0838 15.9477 0.00685025 0.968182 0.250153
16.3688 15.3096 7.16983 0.0641333 -0.993903 -0.0896911
18.4604 21.9607 6.72913 -0.246691 0.611571 -0.751748
22.9577 10.5457 9.97821 -0.0401343 -0.197567 -0.979467
18.8921 12.2544 13.1869 0.52171 -0.83246 0.186627
18.056 11.9899 8.96469 -0.639345 -0.211857 -0.739158
23.0607 13.5274 12.6642 -0.270369 -0.521014 0.809596
11.4686 9.75911 9.39998 -0.856661 -0.494135 0.1482
10.5616 20.022 8.01598 0.615281 0.788033 -0.0208119
17.5813 15.2486 18.2212 -0.655983 -0.159334 -0.737767
20.8099 10.967 9.85726 -0.366662 0.688504 -0.625717
14.8352 21.5246 8.34533 0.972183 -0.0504241 -0.228731
21.1603 20.9275 8.60635 0.0514295 0.298506 -0.953021
13.1922 11.8723 12.1706 -0.418116 0.454759 0.786367
19.0744 22.6544 19.1687 -0.15872 0.738756 0.655017
23.8859 10.4733 19.1701 0.159195 -0.854623 0.494244
14.3354 19.0304 7.56777 -0.0942578 0.994876 -0.0365733
14.2771 10.7725 18.9794 0.274823 0.709902 0.648468
14.7677 13.1398 18.6431 0.846406 0.0404179 0.531002
10.8923 12.7327 18.9196 -0.821066 -0.498061 -0.278901
20.5054 11.2383 12.8168 -0.0980749 -0.994893 0.0238467
15.2048 18.1288 18.5916 -0.163792 0.065347 -0.984328
14.4101 22.4118 11.3271 -0.797383 -0.254185 -0.54733
16.5454 10.8668 17.3494 -0.322849 -0.923858 -0.20556
19.822 12.0255 16.3322 0.578701 -0.320313 0.750003
19.2541 21.3179 9.58504 0.293604 0.590629 -0.751634
10.927 21.0092 16.5191 0.144213 -0.454051 -0.879227
15.8078 20.3927 16.5347 -0.0783106 0.711587 -0.69822
16.9217 10.9437 8.29805 0.20913 0.481258 0.851267
12.8324 13.7386 16.8279 -0.717429 -0.696476 -0.014727
19.2484 20.6932 6.91967 -0.319076 -0.928637 -0.18927
16.2225 13.3802 13.2988 0.617347 0.615222 0.49029
13.6962 10.6049 15.7098 0.404734 0.350448 -0.844616
20.0557 14.0524 18.9077 0.0511507 0.746358 -0.663576
12.365 23.1541 19.5694 0.354659 0.933411 0.0544104
16.7392 15.6507 8.26722 -0.16976 -0.854702 0.490577
22.1958 18.0783 19.3707 -0.427734 0.90343 0.0292949
15.1792 12.6844 11.6167 -0.736071 -0.606202 0.301196
12.731 14.7615 8.52961 -0.230881 0.578283 -0.782485
12.3577 21.4435 15.0155 -0.937788 -0.341704 0.0615854
11.033 20.8859 9.37369 0.650074 0.174306 0.739609
17.8947 15.7586 8.34382 -0.497651 -0.660928 -0.561709
18.2814 12.7741 8.44722 0.972279 -0.0870872 0.217
14.6838 12.4869 19.5082 -0.679234 -0.40774 -0.610237
23.7644 13.4756 8.94502 -0.0820522 0.907926 -0.411021
19.5035 17.2096 14.0337 0.621223 0.783283 -0.0234318
18.8001 10.4283 8.22003 -0.0261127 -0.0239299 -0.999373
14.4126 9.88698 19.959 -0.714521 0.678447 -0.17079
13.8109 11.4972 10.1307 0.614073 -0.311146 -0.725329
23.7083 22.7588 17.7755 0.220564 -0.698091 -0.681191
13.6978 22.7947 10.0865 -0.243494 0.489558 0.837283
12.7988 9.74861 11.9026 -0.226476 0.384584 -0.894876
11.0961 10.5343 9.96387 0.0297213 0.106229 -0.993897
21.1426 15.7137 15.9805 0.910637 -0.106168 0.399336
20.2734 9.91658 7.21832 -0.795472 0.589407 -0.140794
22.8856 19.1218 19.7736 0.80259 0.228339 -0.5511
22.381 14.4188 11.3951 -0.0638526 -0.569061 0.819812
13.9474 13.9852 18.3917 -0.819082 -0.178168 -0.545308
17.9062 16.0862 11.586 -0.00127746 0.964719 0.26328
18.2706 17.2452 6.67565 0.282552 -0.0485172 0.958024
12.0909 20.7371 9.09773 0.136398 -0.339696 0.930592
13.7842 23.1494 14.305 0.108251 -0.824957 0.554733
16.5829 22.8005 19.0303 0.212101 -0.964132 -0.159568
11.9497 11.0919 9.54494 -0.214371 0.604747 -0.767024
21.5496 13.6493 11.2431 0.815323 -0.0210286 -0.578624
20.9588 10.7601 6.63557 0.184031 0.835565 0.517652
22.8651 10.6323 18.8305 0.12759 0.192274 -0.973012
23.2095 13.5857 11.0007 -0.0569438 -0.996139 0.0668149
11.093 9.95054 12.9929 0.472368 -0.645114 -0.60058
11.8665 15.6785 8.54218 -0.181122 0.631791 -0.753681
13.1974 9.84369 7.69749 0.553391 -0.372868 0.744801
15.9434 19.5944 8.28923 0.174776 -0.586654 -0.790753
11.5392 18.4077 16.6033 0.908158 -0.38057 -0.174403
15.3836 16.0797 6.86731 0.0765819 -0.830782 0.551304
12.6193 13.7667 10.5909 0.347884 -0.301116 0.887866
11.0337 13.8087 9.61925 0.849075 -0.247795 -0.46655
11.4476 11.1925 11.7362 -0.410718 0.649603 0.639786
16.8672 17.1812 18.4746 0.555697 0.82966 -0.0535231
18.6916 11.4316 11.5103 -0.997013 0.0750464 0.018261
16.7454 11.7017 19.2971 -0.234046 0.967991 0.0906463
20.177 14.4716 11.2873 0.690022 -0.472202 -0.548539
14.6292 19.064 8.79205 0.547528 0.0165466 -0.836624
18.2456 11.9132 7.58193 0.494733 -0.0903188 0.864339
11.3002 11.6776 7.84719 0.296084 -0.782213 0.548158
19.3524 14.6209 12.7065 0.805394 -0.379974 -0.45493
23.0287 12.4444 14.9253 -0.131257 -0.111722 0.985033
18.5417 11.7961 10.4021 -0.893488 -0.124381 -0.431519
19.7049 15.0634 7.81027 0.135909 -0.739083 0.659762
21.8337 14.9988 17.4256 -0.0781987 -0.105125 -0.99138
18.0177 17.2499 9.87398 0.338175 0.646061 0.684283
17.9811 12.3458 11.0889 0.919253 0.324713 0.222566
22.159 11.0965 11.6034 -0.118235 -0.512199 0.85069
17.6661 13.646 11.3637 -0.554924 -0.582055 0.594366
24.0433 14.7151 14.1356 0.238764 -0.723579 -0.64763
23.2851 20.8338 11.9095 0.660611 0.733523 0.159804
12.5145 14.9376 10.5848 0.482074 -0.50079 0.718898
22.9994 15.3078 11.5294 0.723743 -0.56953 0.389656
23.6582 13.1013 10.0901 -0.861007 0.404514 -0.308279
23.1907 17.5244 9.01311 0.584 -0.804532 -0.108038
14.6962 13.5758 10.3364 0.747022 0.647201 0.151951
22.7006 17.6741 8.05133 -0.712123 -0.701153 -0.0355624
16.1117 17.8201 6.64009 0.388612 0.773121 -0.501263
12.1467 17.8634 10.5181 0.897975 -0.103656 -0.427663
14.8995 12.049 9.91772 0.520928 0.252281 -0.815468
22.0527 14.5354 14.0822 -0.40146 -0.685891 0.606946
20.4861 12.1954 19.9146 0.280503 0.919489 -0.275424
23.755 18.5832 20.001 0.789942 0.613011 -0.0144434
19.0076 15.8592 19.8114 0.13559 -0.841595 0.522812
22.9697 20.3143 7.28236 0.206078 -0.12568 0.970431
11.9679 17.3955 15.9795 0.285636 -0.747177 0.600115
19.3077 11.4687 7.12917 0.18174 0.266999 -0.946405
13.3588 15.8713 7.50573 -0.893325 0.449271 0.0111856
20.0961 15.445 20.0216 0.0724779 -0.887567 0.454941
14.9583 20.2569 13.4847 -0.829353 -0.0788535 -0.553132
13.7531 17.9002 18.7227 0.0556471 0.150838 0.986991
22.0992 12.7558 7.58375 0.24143 0.840642 0.484802
17.8984 19.8722 9.24256 -0.160494 0.517181 -0.840694
19.1292 18.0014 20.1212 0.127052 0.481756 0.867046
22.0838 12.9394 10.2054 -0.829214 0.547695 -0.111508
21.2499 13.9956 7.49067 0.00194675 0.999998 0.00012936
19.1487 13.0239 19.4656 -0.497055 0.631911 -0.594664
20.5274 14.4077 17.1893 -0.467997 -0.458931 0.755223
16.593 18.2831 14.0994 0.00384005 0.145186 -0.989397
23.3953 16.5287 19.5946 0.353022 0.921076 0.164302
11.0783 13.8005 7.5111 0.111651 -0.239486 -0.964459
12.7388 17.4117 7.69835 -0.32518 0.662358 0.674936
18.7559 10.4848 15.2317 -0.184066 -0.933016 -0.309193
14.8282 17.8611 8.49234 0.700818 0.0308533 -0.712673
22.7489 16.399 8.5383 -0.335937 -0.0641955 -0.939694
16.414 11.3867 18.3992 0.235308 0.9692 -0.0726704
21.3301 17.2341 17.618 -0.0668972 0.994866 0.0759305
12.3044 11.6936 17.5921 -0.343478 -0.689823 -0.637313
12.645 21.0951 12.7482 0.874522 -0.130561 -0.467081
14.245 18.5 16.9192 0.0752941 -0.0953543 0.992592
14.0021 15.5133 12.8501 -0.999807 -0.0180863 -0.00765866
17.1427 20.5502 19.3329 -0.147481 0.230953 0.961722
13.4903 14.1638 10.4522 0.487675 -0.616712 0.617932
13.406 15.3914 10.4992 0.592877 -0.62323 0.509982
22.1558 19.9311 19.5003 0.112526 0.140156 -0.983714
22.9478 18.3641 17.4674 -0.978776 0.177552 0.102335
22.6088 12.4843 12.5477 0.661425 0.245945 -0.708539
20.242 18.388 7.109 -0.338418 -0.0613871 -0.938992
20.2041 9.73162 17.8329 -0.25617 0.677528 0.689443
18.7827 19.0705 10.8261 -0.144719 -0.612438 -0.777159
14.5944 15.6113 10.3865 0.276405 0.957401 0.0835715
21.4096 11.0268 13.6052 0.177404 -0.864331 -0.470595
22.3997 19.3131 8.12759 -0.342654 -0.185478 0.92097
15.7888 19.5515 15.6857 -0.751403 0.659292 0.0269609
12.7755 15.5249 17.0266 -0.299763 -0.870947 -0.389349
13.3258 18.5356 9.48986 -0.586052 0.0957041 0.804602
17.0463 15.6611 13.046 0.990651 -0.122394 0.0602555
19.2748 22.9612 8.93547 0.0168879 0.582529 0.812635
11.5167 16.4084 10.2397 -0.803764 0.485089 -0.344458
21.6977 21.6743 10.5056 -0.796251 0.428862 -0.426688
11.7132 9.74696 11.3789 0.223454 0.314533 0.922571
22.4017 22.4937 8.77048 0.668111 -0.740596 0.0717279
13.5427 18.2406 11.761 -0.642524 -0.679432 0.354309
23.802 19.9985 6.98305 0.451887 0.891956 -0.0145689
16.291 20.0166 7.23617 0.124898 -0.65771 -0.742845
18.1777 19.2699 18.5806 0.806355 0.190236 0.560002
20.2068 10.8758 17.558 0.153459 0.168878 0.973617
21.45 18.0511 7.8827 0.0558967 0.93906 0.339178
12.4474 11.8705 10.2257 -0.582255 0.64616 0.493412
21.8625 10.4604 19.6771 0.168093 0.69059 0.703442
15.4937 22.3246 18.2803 0.73078 -0.658157 0.18108
17.596 10.3179 8.98507 0.59611 0.738071 0.316077
14.4831 19.1764 18.1413 -0.412445 0.291813 -0.86298
12.6621 17.3894 17.202 -0.910861 0.139527 0.388412
23.8275 11.5562 7.78258 0.13022 -0.522928 0.842371
16.0743 17.277 12.8187 0.104227 0.256319 0.960956
15.9405 13.1027 8.64433 0.983317 -0.00852194 0.1817
14.7695 14.98 8.28439 0.0822502 0.939992 -0.331133
19.3597 17.6945 8.2284 0.119221 0.303229 0.94543
23.5378 22.322 12.5755 0.3667 0.917054 -0.156665
21.6469 18.3364 8.9746 -0.566065 0.811207 0.146678
15.0182 17.7193 16.1866 0.475074 -0.339802 0.811689
19.548 11.9819 8.20348 -0.225918 0.514366 -0.827278
23.4254 13.2507 19.2526 0.0066852 -0.96969 0.244247
23.3124 22.0452 11.1125 0.0630312 0.783975 0.617584
13.4007 12.0729 19.5553 0.105178 -0.963374 -0.246676
22.5789 9.91545 16.8137 -0.0350569 0.229244 0.972738
12.8393 17.7417 9.22996 -0.831622 0.535035 0.148801
16.237 11.0193 12.2771 0.977322 0.181306 -0.109406
11.4891 18.3322 6.75122 -0.495651 -0.782673 -0.3765
15.5734 22.6011 19.2825 -0.00759052 -0.835861 0.548889
13.2445 18.553 7.83875 -0.403033 0.0986876 0.909849
13.3895 22.9052 19.5814 0.300277 0.149728 0.942027
10.7437 14.863 18.531 0.663423 -0.136824 0.735628
15.1343 22.7314 10.4452 -0.559163 0.237077 -0.794437
22.778 14.3062 18.2846 0.74872 -0.217056 -0.626342
19.2844 20.2263 7.89098 -0.168649 -0.985586 -0.0133583
19.6496 22.1866 13.6503 -0.678834 0.29762 0.671272
15.4626 15.9891 11.2166 -0.701637 0.65442 0.281849
17.7027 21.3019 7.29611 -0.0857043 0.107994 -0.99045
16.8011 18.9725 10.2535 0.435209 0.880945 0.18582
15.2412 20.1187 7.74552 -0.0947003 -0.604018 -0.791324
20.3975 18.5441 9.32424 -0.158985 -0.649943 -0.743167
14.3438 17.2108 10.8655 -0.511247 -0.85788 0.0516491
15.6039 21.1528 7.28408 -0.925319 -0.189251 0.328586
14.9811 22.5477 17.1965 0.474491 0.872042 0.120001
19.2568 15.7813 12.6356 -0.375687 0.0403274 0.925869
22.2308 23.065 7.64164 0.135128 0.951115 -0.277705
13.068 11.9238 9.09975 0.682892 0.379668 0.624108
11.3816 11.8584 16.6431 -0.309947 0.833592 0.457228
10.634 11.7561 15.9085 -0.103694 0.994598 -0.00465545
21.3466 20.8208 19.2606 -0.162036 0.359271 0.919059
12.7209 21.1342 10.3051 -0.41473 0.458448 -0.786018
13.0419 11.0802 18.5807 -0.0532316 0.988164 0.143868
11.1506 18.4851 19.2756 0.864435 0.500144 0.0510724
11.2687 11.4428 14.1389 0.771856 -0.612549 0.17036
11.3715 10.1851 19.8832 -0.434783 -0.205615 0.876748
18.1409 19.6574 8.00214 0.27426 0.842957 -0.462822
11.405 14.9778 17.3542 -0.575916 -0.793083 0.198342
13.9559 15.1516 14.9556 -0.695813 -0.718149 0.0103571
18.8213 14.6323 16.1826 0.986197 0.114944 0.119181
16.5731 10.224 14.0547 0.105494 0.848044 0.519319
15.4653 10.7354 10.6168 0.122952 0.827601 -0.547685
20.6166 9.91967 11.0307 0.623784 0.187087 0.758876
17.0109 10.1653 11.3644 -0.937954 0.324058 0.123406
22.015 23.0177 14.9068 0.473151 -0.760663 0.444432
16.8054 23.0334 12.024 0.944131 0.0548983 0.324967
15.6647 9.92861 19.9714 0.574891 -0.817137 0.0422942
19.3798 20.6151 16.2342 0.728492 0.365081 -0.579669
19.2583 10.9112 16.5379 0.0847173 0.747529 0.658805
19.3917 9.86108 16.8493 0.993009 0.0133321 -0.117281
15.6404 21.2619 13.9036 0.965178 -0.214168 0.15021
18.3959 11.6421 16.7625 0.107349 0.293645 -0.949868
17.8669 20.6857 13.8705 -0.177492 -0.315061 -0.932327
20.9577 12.8054 13.6816 -0.430522 0.310123 0.847629
19.8253 18.5963 10.3619 -0.20889 0.833784 0.511046
11.2897 10.0042 16.6405 0.21136 0.335126 -0.91816
20.7677 22.8259 15.5999 0.221238 -0.560064 0.798362
20.7411 16.7276 16.0659 0.957806 -0.26 0.122504
14.7657 23.0517 7.53516 0.838392 0.504785 -0.205648
21.5774 19.4127 10.0297 -0.733797 0.540913 -0.411041
15.6767 9.84789 12.9453 0.844752 0.311026 -0.435496
15.8012 18.3023 15.5502 -0.187476 0.305186 -0.933656
21.3951 18.3788 11.6344 0.720743 -0.241937 -0.649612
13.0552 10.8519 14.5828 -0.185482 0.933843 -0.305833
12.6832 9.72952 10.1759 0.531666 0.738909 -0.413937
16.0662 13.2249 9.83273 0.975372 0.201523 0.0896501
12.6833 14.9681 14.6256 -0.439629 -0.537235 0.719795
22.896 14.0061 15.9627 -0.465461 0.883879 -0.0458738
13.4091 13.8073 12.6928 -0.68183 0.148047 -0.716373
15.7039 15.2293 14.8938 -0.33628 0.832533 -0.440233
17.4493 14.6998 12.2744 0.115856 -0.984772 0.129621
19.442 21.0699 19.5009 -0.0970021 0.962028 0.255131
13.8547 12.7198 11.7547 -0.0616266 0.261185 0.963319
11.5694 16.6273 9.11655 0.752142 -0.601849 0.268441
14.608 17.3576 18.3808 -0.132408 0.264397 -0.955281
10.9481 15.2094 8.23425 0.370209 0.471795 -0.800221
15.4182 16.5297 15.5167 0.735326 -0.361301 -0.573374
23.9152 22.7218 10.4294 0.858554 -0.491884 0.144692
20.6655 13.8362 6.69289 -0.643604 -0.730443 0.228531
14.5039 9.99634 8.54732 -0.627514 0.458629 -0.629195
18.6211 18.3854 15.4184 0.628012 -0.74147 0.236269
10.8345 12.5207 15.0604 -0.69115 -0.685887 -0.227751
21.4654 22.0564 11.4934 0.00188449 0.877081 -0.480339
19.9023 10.545 9.14871 0.128611 -0.0349066 0.991081
16.0644 21.2193 19.4124 -0.791713 -0.455231 -0.407376
22.9903 12.3911 8.49617 0.110319 0.120177 0.986604
13.5599 18.8145 18.1598 -0.291415 -0.437608 -0.850633
13.1302 10.8446 10.864 -0.738768 0.489191 0.463588
14.304 12.8562 9.11775 -0.419899 0.820109 0.388723
22.0531 16.006 19.4074 -0.274205 0.961225 0.0293095
12.5425 14.637 20.0976 0.304872 -0.134136 0.9429
15.7724 12.4239 10.4969 -0.896893 0.336815 0.286598
23.8982 13.2141 13.8832 -0.665199 0.674269 -0.320735
16.0245 15.0694 12.3847 0.798281 -0.429496 0.422233
13.3285 20.7361 15.0469 0.752031 0.587614 0.298595
22.65 18.8521 16.5564 0.182277 -0.755929 -0.628766
12.7436 12.603 7.14446 -0.304149 0.458171 -0.835208
11.6159 14.4304 10.5274 -0.263239 0.214652 -0.940548
11.0771 12.1059 11.1235 0.946725 -0.0839973 0.310897
10.7799 15.3312 16.3748 0.426899 0.510957 -0.74611
21.1178 21.9137 19.481 0.61589 0.237831 0.751076
18.7383 18.4818 11.6199 -0.635889 0.444666 0.630807
16.3274 14.2619 10.1988 -0.30791 0.537255 -0.785206
23.0769 9.97909 11.3123 -0.935831 0.0565873 0.347875
17.4671 9.97268 10.2317 -0.0316043 -0.921537 0.387002
18.4888 15.6543 15.9378 0.98008 -0.190032 -0.0577108
19.2165 14.8909 17.8316 0.324721 -0.544126 -0.773617
21.9334 11.3472 19.1026 0.899753 0.430868 -0.0692642
18.6246 10.3508 18.8131 0.893602 -0.448859 0.000905311
17.3954 20.6482 11.3054 0.0955251 -0.838195 0.53694
11.5504 19.8367 9.34754 -0.0355963 0.0982417 -0.994526
11.8572 16.743 14.953 -0.650299 0.0491972 0.758083
11.0372 16.7548 14.1758 0.394323 -0.263213 -0.88047
15.4769 11.0061 17.8156 0.548723 0.711438 -0.439044
16.0843 19.8711 9.77968 -0.823634 0.0676877 0.563068
21.2011 20.1355 14.4049 -0.00351195 0.895884 0.444275
19.8486 20.5768 12.4904 0.260633 0.532262 0.805461
11.572 22.1708 15.1637 -0.438502 -0.291862 0.85002
22.593 21.522 17.5884 -0.0154345 0.0667099 -0.997653
12.6986 19.7 10.5353 -0.556174 -0.683689 0.472483
11.6751 12.4802 12.7066 0.441369 -0.642447 -0.626462
14.7219 20.7543 11.7537 -0.0587313 0.150194 0.986911
23.3626 21.2712 7.47568 -0.295198 -0.0763528 -0.95238
21.9811 22.4561 13.6091 -0.130012 0.958188 0.254896
15.1304 16.6319 17.632 -0.520946 0.4749 -0.709285
16.5513 20.5579 10.5189 0.00394058 0.780147 -0.625584
14.6075 11.0604 11.2385 0.131009 0.2597 0.956762
17.0751 20.7931 8.86641 -0.130163 0.275061 -0.952575
14.2784 9.91575 11.2069 -0.471815 -0.192357 0.860459
17.127 19.0579 8.74854 -0.323192 0.118399 -0.938898
11.4497 20.5078 10.7624 -0.807981 -0.421688 -0.411516
16.0564 17.0684 10.3642 0.732951 -0.0713318 -0.676531
15.639 21.7804 14.7606 0.607427 0.692198 -0.389735
16.1403 14.185 8.04753 0.962757 0.269382 -0.0230623
20.6653 10.4371 13.8489 -0.518505 0.816642 -0.253472
16.7594 19.523 18.6488 -0.224131 0.0478123 -0.973385
17.5112 17.4802 10.9921 0.193789 0.66461 0.721623
13.6425 20.7895 13.2534 -0.635971 -0.763506 0.112246
23.0406 16.8841 7.36911 0.687486 -0.0950642 0.719948
15.7551 15.2948 16.9065 -0.887153 -0.461034 -0.0201957
16.7502 10.9819 13.4225 -0.90901 -0.272479 -0.315366
22.844 11.7637 13.8226 0.884295 -0.393713 -0.251025
18.3826 18.8335 9.17385 0.628448 0.723193 -0.286435
12.41 18.0878 11.4035 -0.61853 -0.66994 0.410611
20.0905 17.2862 6.98894 0.441059 0.305937 0.843724
20.5911 22.8165 8.37339 -0.820694 0.435036 -0.370412
22.2121 20.6596 7.97632 -0.517861 -0.838269 -0.170662
12.3841 14.3049 17.8815 0.429237 0.154243 0.889924
15.6585 20.5666 12.1165 -0.0258429 0.570972 -0.820563
23.8277 15.9134 10.6611 0.0186426 -0.269833 0.962727
22.9751 11.3754 6.99207 0.182905 -0.0948935 -0.97854
17.7451 10.7079 7.57766 0.407684 0.461383 0.787984
17.9375 16.6217 13.3108 -0.189443 0.644205 -0.74102
21.5384 16.472 18.5798 0.238384 0.96933 -0.0597702
15.5235 20.9433 10.1573 -0.172995 0.525006 -0.833332
15.945 14.1339 19.5016 -0.776739 -0.542436 0.320063
12.0697 10.0849 7.68835 0.25655 0.548454 0.795852
13.7155 17.6094 16.0159 0.445297 -0.741908 -0.501281
18.4732 17.6601 13.865 0.19796 0.830439 -0.520752
23.2816 18.3491 9.84822 0.712238 -0.683889 0.158152
18.1519 17.2464 8.60949 -0.505963 -0.597796 -0.621805
22.4855 17.6935 9.95544 -0.777966 0.62185 -0.0898442
19.5882 14.8495 13.7065 -0.776088 0.40511 0.483294
20.8461 20.2824 7.57309 0.735983 0.154597 -0.659112
14.4579 18.1832 14.1895 0.457107 0.562236 0.689162
22.6887 18.6807 12.5673 0.782446 -0.6155 0.094537
20.0316 16.7644 8.2179 -0.105558 -0.359499 -0.927156
16.7103 16.0339 10.0347 -0.381983 0.192638 0.903869
20.1021 19.0706 8.395 -0.901667 -0.403408 0.15575
23.6626 19.1607 10.2203 -0.844848 0.0403536 0.533483
11.4224 16.1731 16.5405 -0.822272 0.506904 0.258683
15.6892 15.736 19.4818 -0.432656 -0.855878 0.283338
13.6612 21.4934 17.6353 -0.17203 0.544557 -0.820892
22.2452 22.5145 12.0087 -0.425102 0.793909 0.434737
20.5685 9.72091 9.31583 0.576872 0.787532 -0.216824
22.6691 10.9787 14.3917 -0.981912 0.128719 0.138854
10.7261 10.2302 15.1799 0.159129 -0.900025 0.40575
10.9049 18.7554 14.8696 0.174155 0.896392 0.407617
15.6716 13.7006 12.2929 -0.675279 0.703932 0.220178
22.2576 21.0801 12.5196 0.260723 0.942591 0.208678
15.0828 21.1242 16.8511 -0.446051 -0.189879 -0.874634
12.1429 21.4646 17.2107 0.75194 0.0523654 -0.657148
12.1238 20.9717 18.326 0.865384 -0.117851 -0.487055
23.8709 10.1586 8.95806 -0.114825 -0.0144592 0.993281
12.8866 21.6818 7.84484 -0.943714 0.28694 0.164528
14.7729 19.2462 13.973 -0.392856 -0.542216 -0.742742
18.0349 19.645 13.809 0.297408 -0.260693 -0.91847
12.3137 22.1764 12.642 -0.0718288 0.625759 0.776702
10.6675 20.6413 19.6072 -0.845157 -0.514754 -0.144006
17.6287 16.3814 14.9773 0.395437 0.269292 0.878129
13.551 10.0422 9.13356 0.867231 0.245854 0.432973
17.803 10.8841 10.8159 0.796277 -0.505439 0.332377
18.7039 18.5679 19.4181 -0.574596 -0.62408 -0.529494
20.5394 20.3522 11.4945 0.206598 0.640239 0.739873
13.0576 11.0066 17.0855 0.60595 0.177729 0.775395
19.8286 17.6934 18.8846 -0.670538 0.155512 -0.725393
23.4084 22.8585 9.0177 0.758576 -0.24801 -0.602539
17.1589 22.6775 19.8769 0.466142 -0.559868 -0.685025
22.3611 20.1497 9.94425 -0.732639 0.613434 0.294854
15.3718 22.4951 8.36214 0.987374 0.0588887 -0.14705
16.8351 17.6366 9.00046 -0.264233 0.897495 0.353107
20.946 11.5951 10.8896 -0.465599 0.803164 -0.371678
16.698 20.4587 17.5123 0.122139 -0.450038 -0.884617
14.8978 18.5833 6.69183 -0.795814 0.0909613 -0.59867
11.9002 11.051 20.0684 0.356129 0.263729 -0.896448
10.8128 22.6908 11.5613 0.0889898 0.964729 0.247748
18.6017 21.1946 8.46721 0.0320155 -0.997353 0.0652874
11.0235 13.4024 10.9965 0.625204 0.123616 -0.770609
15.0499 23.0147 15.5384 -0.54967 -0.818218 -0.16847
19.4536 13.7937 11.5153 0.568171 -0.643563 0.512843
11.5822 18.9157 11.8708 0.184523 0.96004 -0.210415
22.9277 16.5718 11.5461 0.916721 -0.222541 0.331812
17.5847 14.2137 18.1961 -0.933664 0.087593 0.347275
16.6059 10.7262 16.2103 -0.353301 -0.88115 -0.314249
14.3995 16.285 19.7495 0.607277 -0.220099 -0.763395
13.8468 21.3923 9.56074 0.666921 -0.555015 -0.497167
16.4583 18.7305 17.0928 -0.642463 0.518248 -0.564501
19.7467 19.377 9.28061 0.518408 0.799175 -0.304256
16.8653 20.2573 14.1453 -0.46854 -0.309793 -0.827344
16.0061 16.6176 8.90103 0.177394 -0.945036 0.274659
10.7069 17.0301 7.03889 0.759211 -0.648897 -0.0503109
20.3107 11.9773 7.54922 -0.179143 -0.981463 0.0681041
14.8703 19.6499 16.841 -0.407616 0.6569 -0.634296
22.2279 12.3675 17.0029 0.610323 0.744989 -0.269252
17.3508 15.3943 6.9234 -0.242747 0.96596 0.0894171
11.3774 21.5859 14.1731 -0.840005 -0.295714 0.454913
22.2137 11.2358 8.94768 -0.118553 -0.889549 -0.44119
13.8506 21.2699 10.9776 -0.597034 0.20458 0.775692
11.781 18.8803 10.2141 -0.609257 -0.234944 0.757368
13.6266 22.1552 13.9066 0.918069 0.178989 -0.353712
17.7414 22.3529 13.0605 0.621984 -0.252343 -0.741255
12.7719 12.6706 11.3596 0.307964 -0.108209 -0.945224
15.7455 21.236 12.87 -0.823036 0.475144 -0.311207
18.801 13.6814 10.1667 0.107195 0.348677 -0.931093
15.0633 22.7573 14.2093 0.530755 -0.606771 -0.591716
13.7433 12.0699 17.4431 0.198073 -0.298098 -0.933758
18.5802 9.91189 11.9692 0.535247 -0.842788 -0.0567337
16.5398 22.396 16.2409 -0.221602 -0.877826 -0.424635
11.6764 15.164 12.5349 -0.296308 -0.789231 -0.537881
12.7221 20.1328 11.7021 -0.54265 0.781564 0.307716
11.3515 23.0721 13.8681 0.10358 -0.865949 -0.489289
12.0503 19.3798 13.9293 0.633405 0.773103 0.0333097
14.5117 14.6324 13.8115 0.401344 0.15129 0.903346
19.3266 21.0041 15.1159 -0.785391 0.118179 0.607614
18.6077 17.2792 12.3841 0.16804 -0.938996 -0.300081
21.1326 18.5781 18.4954 -0.997021 0.00954216 0.0765409
18.2398 21.3771 16.8584 0.729262 0.143755 -0.668963
19.8195 11.6114 10.1283 0.443499 -0.637847 0.629651
20.3544 11.2456 15.941 -0.711318 0.0709551 -0.69928
22.9147 15.5705 7.37164 -0.256709 0.627607 -0.734989
12.4345 12.9639 14.8047 0.709498 0.703136 0.0470346
20.609 14.1279 9.33951 0.943377 -0.331545 0.0108005
20.5541 21.7999 8.59582 -0.646125 0.143867 -0.749549
18.1903 9.7474 18.1779 0.0911978 -0.771633 0.629496
20.1051 19.035 15.3274 -0.763127 0.0515382 0.64419
21.166 18.1728 19.7428 0.0262495 -0.395822 -0.917952
23.7941 12.9195 7.60663 0.528644 0.164889 0.832675
10.6666 15.179 12.8232 0.416986 0.895866 -0.153449
19.7984 16.1588 17.703 0.144855 -0.643717 0.751429
11.7579 15.9131 14.2579 -0.805231 -0.00484907 0.592941
15.2748 22.2315 7.33816 -0.936583 -0.350144 0.0145482
12.8438 10.8208 12.0592 -0.923811 0.184818 0.335284
17.6832 20.2827 16.5712 5.19197e-05 -0.0157946 -0.999875
23.567 17.9586 13.5539 -0.594577 -0.730567 -0.335783
10.7257 17.8088 18.2824 0.863622 0.422913 0.274411
11.3732 17.6034 13.8859 0.491165 -0.0111253 0.870995
18.8461 14.8662 15.001 0.930892 -0.0662482 -0.359238
13.6034 22.5399 15.618 0.5265 0.82466 -0.206723
19.5183 10.7732 12.4816 0.000652982 0.999978 -0.00654947
20.2121 13.9982 15.8543 0.807797 -0.0699731 0.585293
16.5511 22.631 10.943 -0.42487 0.808045 -0.408104
20.0785 22.4024 18.5506 0.260167 0.369704 0.891982
16.3779 12.2461 8.14397 -0.640477 0.178084 -0.747044
14.4563 16.0233 16.2966 -0.567494 0.153095 -0.809019
20.0605 12.3034 13.4979 0.358943 -0.382038 0.851591
10.9275 13.7769 18.6501 0.884446 0.28035 0.37304
17.8696 12.3815 17.8829 -0.351272 -0.383371 -0.854187
21.2513 14.6152 11.566 -0.386833 -0.208667 0.89823
21.7344 14.4445 12.8391 -0.250831 -0.511129 0.82209
22.7563 19.1352 15.2265 0.166511 0.939148 0.300459
14.8006 11.8089 14.2411 -0.287526 -0.289467 0.912983
12.7623 22.0535 11.2679 0.75331 0.457467 0.472491
19.7054 18.3603 12.0807 0.75034 -0.41927 -0.511079
10.5775 14.7432 10.6618 0.238829 -0.554546 0.797145
13.8595 19.6713 15.9692 0.35117 0.6152 -0.705839
18.9717 16.2635 7.64328 -0.0644292 -0.478531 0.875704
12.4316 13.3977 18.569 0.351109 0.529691 0.772107
10.9554 17.552 16.2725 -0.0645511 0.0586198 -0.996191
10.7212 12.7392 19.9024 -0.442422 0.875006 0.196537
12.7545 21.6081 18.8943 -0.540106 -0.592933 0.597257
17.7307 12.4425 12.2837 0.596241 0.710716 -0.373335
13.5971 16.3504 9.40863 -0.899736 0.400603 -0.173183
17.207 15.1546 16.4308 -0.44497 -0.406526 -0.797959
21.5219 14.6797 8.46544 0.976265 -0.106697 -0.188475
21.9158 18.8164 15.8491 -0.29217 -0.948888 -0.119367
16.5447 16.968 14.7941 -0.571788 -0.118324 -0.811824
10.7223 11.7012 9.09946 -0.335158 -0.634758 0.69624
16.9442 13.8421 15.976 -0.278358 0.0335476 -0.959891
15.4644 13.9876 9.25252 -0.935033 6.07577e-05 0.35456
14.5557 21.7359 18.0746 -0.427599 0.883482 -0.191359
12.5196 15.0088 11.8126 -0.807181 0.194357 -0.557391
15.9678 22.4018 17.3619 0.197495 0.710136 0.675798
11.8657 12.0665 19.0346 -0.718775 -0.653346 -0.237701
13.6601 16.6928 8.05718 -0.847645 0.215286 0.484923
15.8008 11.3507 14.6887 0.237605 -0.89499 0.377541
16.7595 15.3706 15.0048 -0.160885 -0.849289 -0.502816
21.4157 23.1331 9.94162 0.666839 0.445384 -0.59746
21.8805 13.0686 13.9099 -0.185404 -0.134089 0.973471
20.4365 11.874 18.5222 0.501452 -0.181959 0.845835
22.2836 13.2861 15.4892 -0.206942 -0.811832 0.545989
19.3936 12.2817 14.6345 0.799924 -0.217402 0.559338
21.5597 21.4166 18.2096 -0.414768 -0.302976 -0.858005
13.9739 13.5586 19.3117 -0.631566 -0.564131 -0.531865
22.6904 17.5683 14.1566 -0.148287 -0.965262 0.215128
16.1594 11.9488 13.2508 0.576807 0.613206 -0.539696
20.4069 20.1659 19.6741 0.316407 -0.06152 -0.946627
23.8653 14.1794 14.9778 0.616512 -0.597352 -0.512917
22.1012 21.2449 20.0772 0.260848 -0.24277 -0.934356
18.8021 20.6403 18.6991 0.772616 0.575572 -0.267922
24.0257 13.2217 12.7768 -0.210121 -0.815881 0.53869
22.1254 17.9243 7.0454 0.608941 0.661113 0.438316
14.872 18.9645 10.3014 0.919409 -0.00935195 -0.393191
14.0637 20.0708 18.4494 -0.929429 0.0621094 -0.363737
14.7724 18.0306 11.7314 -0.238615 -0.881671 0.407087
20.2697 16.2849 11.6108 0.248482 -0.118359 0.961378
19.205 17.2159 9.53964 0.140131 -0.657234 -0.740545
17.1953 11.3337 6.7857 0.690996 -0.176237 -0.701046
16.801 21.725 17.8213 -0.62703 -0.484768 -0.609782
16.4496 17.848 7.95018 -0.130653 0.777304 0.615409
14.9283 15.9307 13.6993 -0.811709 -0.471396 0.34484
19.5268 14.3524 19.742 -0.20548 -0.802549 0.560083
18.6828 16.2664 9.93669 0.51906 -0.390496 -0.760322
22.5148 16.023 12.3625 0.698152 0.390395 0.600146
23.8191 12.1029 11.8362 0.64154 0.668393 0.3764
20.6895 21.3288 10.8712 0.0841152 -0.88509 -0.457756
15.4531 17.9757 14.0723 -0.259141 0.564965 -0.783365
21.4252 12.5968 19.1281 0.27982 -0.679358 0.678361
15.4902 14.139 11.3835 -0.733008 -0.669266 -0.121584
18.5444 13.9123 12.6402 0.594806 -0.697635 -0.399387
20.3477 16.8888 13.72 -0.428919 -0.424581 -0.797345
22.9369 15.2773 14.7919 -0.0480956 0.687512 0.724578
20.516 19.1457 19.5717 0.892834 0.130669 0.431013
23.8136 14.2186 16.4065 -0.761587 -0.129949 0.6349
23.9624 18.5559 12.0343 0.376846 0.883065 0.279612
11.6527 17.5353 9.75191 -0.689611 0.720521 -0.0727086
16.3753 15.9536 11.8766 0.63217 -0.409589 -0.657722
18.5274 16.2673 16.6954 -0.961096 0.0376727 0.273632
24.055 19.2797 13.2669 0.947555 0.318553 -0.025766
11.1255 15.6879 9.57673 -0.188559 0.372852 -0.90853
17.8249 16.6668 18.0904 0.626646 0.622255 0.469162
14.0111 10.2603 17.4138 0.955134 0.221546 -0.196564
20.3802 19.3551 7.22916 0.999328 0.031748 0.0183104
14.8329 17.4092 6.90784 -0.226029 0.44361 -0.867249
20.9415 14.3851 14.3395 -0.379234 -0.590926 0.712031
12.0806 15.6448 18.0777 0.410321 0.89596 -0.169978
19.362 19.1612 17.3041 0.0799124 -0.497405 0.86383
13.0151 16.4125 16.0438 0.846053 0.247778 0.472018
20.0824 19.7876 17.5078 0.707314 -0.681456 0.187949
18.1794 21.1515 11.6814 -0.616653 0.700211 0.359782
16.8537 15.9056 19.483 0.485155 0.803606 -0.344735
17.6348 18.5429 10.7012 -0.36838 -0.616663 -0.695718
20.9421 16.2368 14.9406 0.248402 0.916147 0.314597
18.7382 17.1238 17.4205 -0.746935 0.0560623 -0.662529
20.3683 10.6678 11.8144 -0.877525 -0.367733 -0.307769
13.1261 20.9084 9.00909 -0.60445 0.759518 -0.240362
20.4856 17.0796 18.2254 0.0625213 -0.954673 0.291017
21.6409 17.0823 14.4434 0.383202 0.697841 0.605124
22.8959 15.4541 9.48521 0.295905 -0.0304107 0.954733
11.1113 21.9476 9.48873 0.767398 -0.00300217 0.641164
19.2956 15.9942 14.6667 -0.91518 -0.242067 0.322255
18.1003 13.818 8.36674 0.994758 0.102261 -0.00037903
18.3522 19.4009 16.6996 -0.161437 0.229723 -0.959774
11.6656 20.1795 12.5318 0.741061 -0.651244 -0.163433
23.7842 20.1336 15.2324 0.17615 0.972558 0.151996
14.1971 16.5134 13.2488 -0.786306 -0.049851 0.615823
13.185 16.1199 18.2944 -0.0215993 0.963573 0.266573
18.3796 15.022 12.1214 0.0785297 -0.88753 -0.454009
22.1773 17.5637 16.4296 0.32317 -0.867297 -0.378625
13.9148 18.0226 10.3139 0.650026 0.310192 -0.69372
18.8903 19.3392 14.6185 0.0125317 0.191847 0.981345
16.848 14.9624 13.7515 -0.785279 -0.49198 -0.375888
18.0743 13.9495 15.1473 -0.833502 0.117118 -0.539961
18.8652 16.9232 15.2665 -0.602109 0.714454 -0.356399
19.2371 11.1167 19.0378 -0.332118 -0.313326 0.889677
18.629 15.1125 7.87012 -0.388342 0.371801 -0.843181
23.8991 21.3341 9.99634 -0.716381 -0.135546 -0.684416
18.6424 13.6556 16.7272 0.726917 0.0377991 0.685684
20.4413 10.9106 14.6945 -0.73945 0.546027 -0.393786
11.5428 16.0883 11.9211 -0.561478 -0.781357 -0.27244
17.44 17.6556 7.72643 0.000982258 0.483909 0.875118
23.8002 20.6175 17.4681 -0.344944 0.931047 0.119014
13.7729 21.8812 12.4242 0.600415 -0.324467 -0.730905
19.7034 22.8566 15.4444 0.324174 -0.198278 0.924985
19.6381 19.8855 13.216 0.593756 0.378068 0.710295
21.8397 15.7279 9.76047 0.0320644 0.198756 -0.979524
22.4472 13.9505 7.20551 -0.169394 0.903631 0.393391
20.2338 21.1758 17.6372 -0.11074 -0.66339 0.740034
17.5714 22.1839 16.3378 0.0412722 -0.812765 -0.581128
13.7424 17.1856 12.486 -0.30078 -0.944017 -0.135512
21.6574 12.9545 11.9528 -0.933671 -0.307297 0.183923
14.2036 20.3054 14.2209 -0.84486 -0.482527 -0.23104
14.4163 12.4164 15.993 -0.497894 -0.522291 -0.692325
17.8375 13.5333 9.30494 -0.827212 0.561042 -0.0308642
13.9772 11.8684 7.56542 -0.101179 0.0105834 0.994812
14.2601 9.79391 16.519 -0.299056 -0.709231 0.638402
13.7319 18.8464 14.3262 -0.449303 -0.779754 -0.436017
20.0813 19.4029 14.2609 0.509318 -0.622193 -0.594534
13.1659 13.9164 15.7548 0.503874 -0.836381 -0.215817
22.8507 23.0125 19.1373 -0.589457 0.37308 -0.716485
12.6496 10.1178 15.646 -0.431417 0.707912 -0.559231
16.3922 21.0074 14.9724 -0.881586 -0.468086 -0.0608339
15.9462 22.3288 12.7036 0.978733 -0.0907554 -0.18397
19.7811 21.875 14.7771 0.580839 -0.23567 -0.779157
23.1537 22.4501 16.1488 -0.0909194 -0.243846 0.965543
17.9473 22.5606 14.4037 -0.538352 -0.207149 0.816864
19.9434 12.984 17.6799 -0.483036 -0.332828 -0.809878
18.1262 20.3985 10.2544 0.0221705 -0.414677 0.909699
18.6802 22.1712 9.585 0.716485 0.486005 0.500447
20.1115 17.2256 10.671 -0.449934 0.227324 0.863645
13.0256 16.6833 11.4984 0.716024 0.697129 0.0363452
18.3477 22.2515 11.3555 0.899232 -0.435897 -0.0370801
12.9496 14.579 13.1751 -0.684954 -0.206671 -0.698659
21.0344 22.4079 18.187 0.0442635 0.377821 0.92482
20.7176 16.0753 7.19002 -0.182373 -0.910133 0.37202
22.2206 11.0044 16.98 -0.724025 -0.616545 -0.309288
16.4205 12.8674 15.7468 0.634597 -0.033091 0.772134
21.6608 13.3224 20.0357 0.406918 0.830777 -0.379773
15.9314 21.8469 10.3595 0.460152 -0.498054 0.734985
17.8987 19.2191 19.7282 -0.642522 -0.745482 0.177265
22.3995 11.1556 13.1386 -0.786919 0.483351 -0.383575
20.0779 22.0257 12.1354 -0.0527738 -0.817912 -0.572917
23.0276 21.235 14.0172 0.0478314 -0.797074 0.601984
23.8394 12.1414 17.8264 -0.204241 -0.977697 0.0489388
15.033 13.6896 17.6584 0.972977 -0.144512 0.180088
12.7244 22.4644 7.10174 -0.349492 0.345067 0.871082
21.448 18.3686 14.7653 0.691969 0.427719 -0.581579
22.4979 14.3495 9.94546 -0.928166 -0.251585 0.274249
11.3742 11.9326 17.9233 0.0450873 -0.979313 -0.197266
20.3423 21.1219 6.9596 0.00975168 0.0207026 -0.999738
15.6129 15.654 15.8919 -0.921284 -0.336475 -0.194986
11.5301 11.0131 13.31 0.472054 -0.863811 0.176057
17.2676 19.963 7.40753 -0.160785 0.0332589 0.986429
18.4082 12.8359 15.3617 0.42657 0.0867278 0.900287
15.8544 14.5941 16.2211 0.787754 -0.0351319 0.614987
23.0951 11.5759 9.66927 -0.0929287 0.0690892 0.993273
16.4758 16.5486 17.587 0.329386 0.906891 -0.26278
18.4716 11.8132 12.3561 -0.688571 -0.610717 0.391017
20.5923 20.0437 15.5566 -0.998804 -0.0386068 0.0299849
21.2079 12.1347 9.0805 -0.186494 0.89854 0.397299
16.0574 10.7042 8.6085 -0.259307 0.964077 -0.0575721
23.4515 21.3497 16.2676 -0.542152 -0.697973 0.467873
20.6199 22.0614 7.08694 0.545542 -0.0729262 0.834904
12.5417 11.2804 7.66048 -0.635735 0.611714 -0.470794
20.0659 20.7168 9.87214 -0.302885 -0.940433 0.154424
11.1995 15.2462 13.6065 -0.558835 0.745077 0.364093
15.9898 19.4513 12.0625 0.436436 -0.227342 0.87054
23.8149 15.9112 17.2125 -0.596806 0.336981 -0.728194
16.1843 18.1472 12.1953 -0.867536 0.473184 0.153228
23.0721 13.474 14.5577 -0.604519 0.316077 -0.731199
10.8111 17.6666 8.05623 -0.189118 0.965587 0.17854
14.9436 13.2874 13.1673 0.275402 0.877481 0.392659
11.9505 12.2816 13.6275 -0.284158 0.782764 0.553657
17.0396 14.5042 11.31 0.458696 0.403941 -0.791473
13.3801 18.5801 13.1194 -0.379538 -0.886755 -0.263848
17.5121 23.14 7.93172 -0.986839 -0.0359746 -0.157655
15.2847 14.1477 7.16509 -0.790483 0.548586 0.272379
17.3547 14.8965 9.25672 -0.547222 0.227283 0.805538
12.1271 12.6486 9.21137 0.121462 0.335716 0.934099
23.3066 15.8015 13.679 -0.00464098 0.977431 0.211204
15.8467 15.4149 13.71 -0.656874 -0.588856 -0.470919
23.6672 10.8536 16.7303 -0.932089 -0.175539 -0.316854
12.606 20.4891 16.8442 -0.287715 -0.397535 0.871313
21.2271 11.8773 11.8641 0.990608 0.136326 0.0104891
12.4049 17.8346 13.6044 0.250467 0.961608 0.112147
19.9177 13.8758 14.1198 -0.870092 0.210726 0.445573
20.1992 13.3715 16.7741 -0.738821 -0.00480098 -0.673885
23.6021 22.8617 13.4983 -0.0887945 0.868329 -0.487975
12.8219 11.5103 15.5325 0.64624 -0.194321 0.737979
13.8159 15.7909 11.6768 -0.863171 -0.228517 -0.450239
12.7694 20.0986 19.5166 -0.255071 -0.667089 0.699951
22.0449 13.8288 16.4245 0.418827 -0.226266 0.879424
15.5629 16.3468 9.80239 0.280725 -0.900628 0.331757
12.815 22.5872 17.0917 -0.568416 -0.312448 -0.761105
21.2325 14.8091 9.80997 0.828919 0.0712745 -0.554809
12.2466 13.4548 13.3316 0.708426 -0.472322 -0.524446
14.8895 14.9062 11.3753 0.54066 0.0419831 -0.840193
18.727 13.3208 13.9171 -0.95825 0.201579 0.20279
19.974 15.2983 9.53284 0.909833 0.00899976 -0.414877
16.9543 12.9205 10.8885 0.76906 0.456786 -0.447094
15.6762 12.2113 18.984 0.333212 0.618341 -0.711776
18.5488 11.8441 19.4439 0.238585 0.476464 0.846203
13.5971 19.2993 20.0066 0.801209 0.559834 0.211305
15.4016 11.3937 7.31427 0.544796 -0.749578 0.37594
14.7404 19.9163 9.63927 0.72343 -0.582958 -0.369877
14.2725 16.2963 18.3975 -0.384053 0.598134 0.703377
16.5453 21.3922 12.0654 0.853375 -0.505843 0.125993
15.8379 13.6234 14.1945 -0.271648 0.96182 0.0333278
12.5345 15.8824 19.0807 -0.588261 0.797667 0.132952
21.1277 20.0111 17.0493 -0.18383 0.442603 0.877673
18.0913 17.8736 17.8564 -0.585318 -0.694362 -0.418645
19.9024 10.3102 19.6646 -0.179127 -0.946107 0.269806
14.9101 19.6268 12.1172 0.220398 -0.204229 0.95379
15.732 15.9374 8.14292 -0.0177415 -0.95486 0.296525
21.3152 13.1225 16.1828 -0.266165 0.0302272 -0.963453
13.7726 14.647 8.39128 0.209475 -0.205347 0.956009
22.001 15.8354 13.9904 0.547074 0.625836 -0.555913
22.8717 19.9984 12.8244 0.315783 -0.755929 -0.573457
12.934 17.4039 15.3503 0.367009 -0.833495 -0.413027
20.9813 18.0918 16.3469 -0.326139 0.876757 -0.353455
11.7678 16.8612 11.0897 0.924468 0.325749 -0.198105
18.6704 13.0428 7.5537 0.816353 0.259388 0.516029
15.0849 11.4315 18.633 -0.555279 0.712069 -0.429677
16.3086 18.0071 18.7978 0.347874 0.669224 -0.656599
23.7762 19.4633 11.2792 -0.963235 -0.0405087 0.26559
22.2917 16.6248 9.81174 -0.460965 0.37803 -0.802872
18.7857 14.1241 7.5095 -0.976429 0.215674 0.00839583
19.1948 20.3018 9.34573 -0.485102 -0.556538 0.674493
21.6495 12.0386 14.9609 -0.907796 0.41934 -0.00779468
17.32 17.4098 14.043 0.329959 -0.0971661 0.938981
12.0742 13.9421 14.5525 -0.746245 -0.0461776 0.664067
13.7534 14.1891 6.84205 -0.43938 0.345242 -0.829309
12.7482 22.7973 14.6698 0.163663 0.443115 -0.881399
20.113 15.532 10.4654 -0.753493 -0.396691 0.524294
18.3155 20.9133 19.6771 0.180047 0.703777 -0.687227
13.6894 19.4554 12.402 0.77005 -0.623407 -0.1356
23.39 23.0719 7.71513 0.645915 -0.233285 -0.726892
15.6552 10.9998 16.4946 -0.431366 -0.901566 -0.0332013
20.5118 15.341 11.7713 -0.494013 -0.103499 0.863273
23.9198 10.9619 11.2221 0.179299 0.512325 -0.839866
12.2511 16.7863 20.0113 0.266051 -0.923013 0.277964
18.6821 20.4943 12.6471 0.510023 0.713684 0.480137
21.8736 17.9217 12.3592 -0.809018 0.0584449 0.584871
21.6566 19.8574 13.1737 0.756454 -0.489649 0.433614
18.888 15.9682 11.1081 0.545468 0.695231 0.468102
11.9524 20.8314 15.8434 -0.123912 0.832748 0.539608
11.3995 14.9007 14.7531 -0.678528 0.0181789 0.734349
18.2327 13.5608 19.8864 0.19111 0.935491 0.297208
20.2933 20.1156 16.5495 0.173937 0.984649 0.0145902
20.6954 14.845 15.4909 0.993323 -0.111428 -0.0298955
22.2003 20.6947 14.7092 -0.233748 -0.0464758 -0.971186
12.8353 19.4798 15.3036 -0.149337 0.229136 0.961871
22.8806 9.97572 14.1241 -0.390884 -0.00491014 -0.920427
12.3703 20.9044 14.1161 0.676685 0.486193 -0.552914
14.3954 16.7936 14.6431 0.541103 0.798569 0.263619
13.8118 10.4842 12.7774 0.182118 0.878863 -0.440946
22.8353 22.1709 7.13865 -0.456861 0.024261 -0.889207
11.6773 15.5181 19.6581 0.28845 -0.177837 0.940835
18.0751 10.5472 14.321 -0.650527 0.605857 0.457986
21.3445 21.2509 13.9768 0.631356 0.583641 0.51064
15.7715 17.3112 18.2608 -0.357472 -0.497164 0.790596
23.5214 17.0079 16.104 0.53271 -0.668571 -0.518877
13.1877 15.5358 15.5219 0.22435 -0.421609 0.878586
22.0792 19.6121 14.6403 -0.666719 -0.374761 0.644236
11.529 20.3533 17.0163 0.412574 -0.468749 -0.781062
16.8535 20.0415 12.4813 0.373478 -0.473182 0.79788
19.8992 13.9504 10.2505 -0.669845 0.735446 0.102108
18.4058 15.0475 17.1766 0.478691 0.854841 0.200256
18.8837 21.4189 14.3543 0.549012 -0.514601 -0.658614
13.7079 16.9956 10.0867 -0.818756 -0.392635 0.418899
13.2704 13.6606 7.9178 -0.148475 -0.179953 -0.972405
23.1525 16.7972 15.0501 -0.64858 0.6329 0.422826
18.0235 21.4058 10.2519 -0.73979 0.0737437 -0.668784
11.4203 20.4666 13.7502 -0.827786 0.138665 0.543639
22.1972 9.72267 10.6659 0.301901 -0.952001 0.0504999
17.1316 13.0263 14.5783 0.33323 0.153141 0.930326
11.3024 12.0908 9.85545 -0.153372 0.769238 -0.620282
22.1263 22.513 18.0312 0.227284 0.00681281 -0.973805
10.8991 22.2896 18.2753 -0.414958 0.175376 0.892778
14.8551 17.4419 13.3352 -0.0645882 0.718289 -0.69274
23.945 19.488 14.2944 -0.951771 -0.306286 -0.017932
13.8664 20.7487 6.98134 -0.79436 -0.573566 0.200037
23.285 20.3633 10.9349 0.858849 0.502088 0.101419
14.7819 10.5158 14.3443 0.258672 0.281013 0.924187
21.9776 20.5518 16.9509 -0.177163 0.00473144 -0.98417
11.3504 13.492 16.9197 0.277829 0.0984352 0.955574
15.3316 14.6027 17.7677 -0.995736 0.0389284 0.0836376
17.7141 10.9909 15.6946 -0.132791 0.871143 0.472732
11.5812 22.312 7.17245 0.595314 -0.548032 -0.58759
18.6391 20.2655 14.6736 0.198209 -0.0478829 -0.978989
20.9823 12.3655 17.0493 -0.153006 0.311772 0.937756
17.8 21.6792 13.8898 0.899609 0.00320836 -0.436685
19.9495 23.2241 13.9604 -0.419111 0.693484 -0.586026
18.5529 11.4337 14.5867 -0.547923 0.461202 0.697906
15.5481 18.2413 9.38722 -0.0627753 -0.374537 0.925085
15.0564 18.8484 16.2144 -0.35921 0.491071 -0.79361
16.8581 17.4763 16.4039 -0.0539272 0.986507 -0.154584
20.6117 15.4205 13.3383 0.475004 0.0215753 -0.879719
15.7406 19.096 18.9243 0.0710624 -0.00222245 -0.997469
17.0418 9.7654 17.8552 0.0615342 0.812934 0.579096
11.9802 17.0105 18.4042 0.727174 0.679354 -0.0984688
14.4038 20.3792 17.4468 0.697026 -0.499947 0.514012
10.8167 19.0633 7.4478 -0.73783 -0.674392 -0.0283195
11.9505 21.972 18.4319 -0.654503 0.0190919 0.755818
20.5047 13.5076 12.7809 -0.972879 -0.0941239 0.211299
21.4265 18.8319 13.1264 0.805718 -0.548082 0.224555
10.6526 19.9896 18.413 0.936363 0.207172 -0.28338
13.8446 12.8902 7.45072 -0.188303 -0.0154463 0.981989
23.6267 12.6646 16.7855 -0.407756 -0.886578 -0.218438
12.9098 10.971 13.2913 0.356528 0.869894 0.340842
23.3665 18.4142 11.0447 0.847884 -0.126824 -0.514789
