10.2999 12.9499 4.7274 -0.906066 -0.157635 0.392678
5.89306 0.856204 9.48589 -0.384692 0.761391 -0.52182
9.65012 13.4298 5.81682 -0.776475 -0.445093 0.44607
7.90836 13.7594 5.42466 0.968767 -0.111444 -0.221519
10.4881 0.789806 5.82196 0.498755 0.645252 -0.5787
7.56124 0.0310324 7.76867 -0.138034 0.942568 0.304158
8.9052 13.6002 3.26032 0.684411 0.7256 -0.0713133
10.2389 13.0084 2.88224 0.454245 -0.40429 0.793859
8.92885 11.4561 4.12505 0.618632 -0.300738 -0.725845
8.72071 1.03193 2.41905 0.334075 0.726864 -0.600052
12.7668 1.11756 0.616454 -0.682393 0.601091 0.415968
11.7886 3.1768 1.49481 0.444886 -0.692395 -0.568037
12.6491 0.122867 13.2028 0.339463 -0.434224 -0.834394
10.4753 3.26621 2.0079 0.600799 -0.688932 -0.405479
13.2911 2.0679 0.867744 0.405122 -0.603467 -0.686806
13.2749 2.15787 4.76377 0.820005 -0.139542 -0.555085
12.8492 0.415391 7.36156 -0.0598045 -0.0110943 0.998148
12.3611 1.3713 5.66775 0.780523 -0.42276 -0.460498
3.45051 5.63066 1.70309 0.862303 0.506044 -0.0187752
10.68 2.24953 5.47621 -0.158233 -0.456277 0.875656
3.54439 10.8327 1.37977 0.646589 -0.63962 -0.415703
12.5208 3.1246 5.84366 -0.640368 -0.0542086 0.766153
3.30754 5.9697 2.75377 -0.307267 -0.945131 -0.110968
1.67429 6.20621 0.921189 0.692468 0.0514001 -0.719616
3.17439 6.41137 0.754468 -0.656625 -0.374692 0.654561
3.07232 3.59132 4.0661 0.060184 -0.820901 0.567891
2.60593 2.25606 5.56146 -0.374117 0.290549 -0.880692
8.18468 11.4161 3.45164 -0.217388 0.859906 0.461848
8.899 12.1923 3.23798 -0.0846126 -0.309315 -0.947188
6.56461 4.01271 4.43694 0.610465 -0.138344 -0.779868
8.00033 0.615972 4.60073 0.583314 -0.0976139 -0.80636
7.2951 12.4 2.79227 0.00533612 0.902665 -0.430312
9.43979 13.5661 4.16664 -0.360422 0.864087 0.351354
7.36544 1.80013 2.89872 0.686289 -0.634785 0.355043
7.5792 2.12426 7.75053 0.306426 -0.0877478 0.947841
7.81351 5.70031 2.84471 -0.181349 0.98176 0.0571021
8.24956 3.49142 2.1401 0.550979 -0.834255 -0.0209942
8.92364 5.13352 2.63509 0.115046 -0.941136 -0.317848
9.87916 3.2558 4.57061 -0.813574 -0.547683 0.195296
11.8354 3.3505 2.99613 -0.585604 -0.0688523 0.807668
11.4125 1.87413 0.443248 -0.236888 0.886694 0.39706
10.2011 13.8904 9.65944 0.743486 0.170325 -0.646697
11.9143 0.427551 9.21621 -0.460934 -0.765773 0.448477
10.0826 5.04697 6.51913 -0.83832 0.528469 0.13394
11.4458 0.87641 6.80866 0.941133 0.296059 -0.163151
1.405 4.75329 4.43334 0.217896 0.93847 -0.267948
13.5339 2.81335 6.49525 -0.227977 -0.44948 0.86371
1.8589 5.3294 2.58887 0.693132 0.612244 -0.380429
1.21148 2.0437 7.35041 -0.138192 -0.0470542 0.989287
2.2105 5.05093 3.5695 0.595504 0.80328 0.0108256
13.7762 7.77782 2.68022 -0.562761 -0.00133259 0.826618
0.741337 5.92762 4.04975 0.305681 0.65906 -0.687168
13.8816 8.52373 0.906622 0.891603 -0.169234 0.420005
5.23823 3.16041 5.35184 -0.644985 0.492337 0.584465
5.84195 3.81194 3.61134 -0.511545 0.624703 0.589973
5.18562 10.5325 1.70603 0.937479 0.308417 -0.161284
8.23995 12.7334 2.00209 0.775415 0.258554 0.576092
5.61403 5.1578 3.01063 0.193877 -0.940039 -0.280604
7.20184 2.38469 4.93084 -0.915088 -0.179075 0.361311
4.98038 7.14921 2.68627 -0.812877 0.581238 0.0373302
7.24943 0.633497 2.41669 0.501345 -0.800759 0.327779
6.44068 3.90368 6.83368 0.186361 -0.440313 0.878291
10.0187 3.63194 3.39573 0.842769 0.143026 -0.518926
8.32345 4.3959 3.59417 -0.861463 0.234222 0.450579
4.44824 7.41239 4.49464 0.528684 0.842839 -0.100575
10.9254 3.48974 5.75573 0.653136 -0.756781 -0.0263741
8.06867 5.85078 8.35948 -0.899693 0.261762 -0.349333
8.84702 7.22018 5.07857 0.532265 0.662858 0.526606
10.3326 3.57117 1.07484 0.021369 0.968112 0.249605
10.9153 5.46979 5.74415 0.771783 -0.537803 -0.339292
13.7993 3.87107 3.60248 -0.658515 -0.285887 0.696151
10.5934 7.07445 4.2056 -0.141589 -0.106099 -0.984223
4.86137 9.45339 2.24473 0.964664 0.26343 0.00521318
2.82258 8.28445 2.87219 0.790359 0.611469 0.0379308
0.108444 3.66787 6.68977 -0.293158 0.453572 -0.841624
2.00391 10.3283 2.82681 0.872352 0.259518 -0.41431
1.73603 6.26703 4.97503 0.136914 -0.960574 0.241975
1.1095 7.47893 3.77632 -0.311857 -0.601 0.735897
13.392 3.44553 7.51987 0.552783 -0.192186 0.810861
3.11655 10.1981 4.23416 -0.56724 -0.708319 0.420146
3.29572 12.9145 1.96351 0.0366786 0.945929 -0.322294
3.92807 3.40334 6.67287 0.866737 -0.490545 0.0901775
0.827406 4.0367 7.85387 0.438823 0.237645 -0.866579
3.93889 8.4618 3.98729 -0.344476 -0.664793 -0.662862
7.20453 3.47448 2.68631 0.581645 -0.783996 0.216887
4.01324 11.5579 2.83918 -0.688252 -0.708436 0.156293
6.60856 4.96459 3.25064 -0.48116 -0.193159 0.855087
6.76019 10.045 4.5686 0.797286 0.0162356 0.603383
7.78396 1.6853 1.8503 -0.124839 0.982181 0.140482
7.30528 8.18027 4.04196 -0.0564558 0.627489 0.776576
7.3817 4.87753 4.9622 -0.494564 -0.698279 0.517507
6.85882 10.4278 3.26518 -0.889638 0.330853 0.314772
6.31547 8.04514 3.84817 0.193661 -0.980658 0.0283799
8.90876 8.50832 8.2291 -0.992861 0.117118 0.0226085
9.11221 6.16828 4.14093 0.562001 0.695085 0.448343
9.96305 6.81176 5.57633 -0.165194 -0.824774 -0.540794
10.3326 4.91351 5.03483 0.775989 -0.37834 -0.504678
10.0471 9.35563 6.54979 0.277442 0.93573 0.217798
10.9586 6.83288 7.29288 -0.11019 0.517117 -0.848792
0.515717 13.7084 1.81702 -0.702868 0.685867 0.188582
10.1629 6.06043 3.90681 0.444179 0.0419165 0.894957
10.3739 5.79857 7.14912 0.79018 0.239722 -0.564047
3.58305 9.9489 2.73226 0.815666 0.574178 -0.0707708
0.880885 8.9567 3.1503 0.892427 0.379065 -0.244712
3.5138 8.33838 1.89204 -0.942149 0.334355 -0.0236856
12.0405 6.64643 3.83528 -0.835095 -0.512795 -0.199144
0.893328 7.75629 5.17441 0.0768036 0.495848 -0.865007
1.53517 8.96398 4.70319 -0.211382 0.740573 -0.637863
4.25435 9.76318 3.67994 0.844081 0.534001 0.0486958
2.35918 7.51012 3.8764 0.567055 0.818581 -0.0915115
3.35075 7.12526 5.59087 -0.0968592 -0.907948 -0.407736
11.4635 8.54511 3.8028 0.746247 -0.632809 -0.206563
10.9777 9.80421 5.40258 0.960488 0.0301203 -0.276686
6.43996 0.572129 5.30445 -0.556086 0.18213 0.810924
6.32723 8.58663 4.91877 -0.357297 0.930955 0.0752411
10.7753 11.061 5.13338 0.998205 -0.0583821 -0.0133705
9.82668 9.24399 4.68355 0.933671 -0.257522 0.24888
7.87312 10.5893 4.05344 -0.888423 0.456359 0.0493975
8.32699 5.90166 6.14031 -0.417662 0.906546 0.0610879
11.4247 12.2576 4.81846 0.794269 0.3128 -0.520859
10.5638 8.69939 7.33691 -0.191714 0.542489 0.817895
5.95574 10.3135 7.63239 -0.599904 0.529304 -0.59996
8.91634 9.10757 10.6314 -0.771336 0.0628479 0.633318
9.76588 10.5655 7.76843 0.0892646 -0.952448 -0.291334
10.6324 5.45744 8.30984 0.891368 -0.406527 -0.200497
11.657 8.10129 7.06351 0.016343 -0.802781 0.596051
0.133834 6.87596 6.91612 -0.629366 -0.367312 -0.684821
13.7493 11.6069 6.41839 -0.397015 -0.916603 0.0470936
13.1601 10.9474 4.23909 0.799145 0.37425 -0.470429
0.264977 12.3999 5.33961 -0.823052 -0.528667 0.207595
1.50034 4.7414 8.3157 0.33324 -0.45866 0.823761
12.906 5.94766 4.56165 -0.448442 -0.0826634 -0.889981
2.53055 8.51259 7.20866 0.05705 -0.991958 -0.112983
12.9523 8.3373 5.46259 0.621537 0.744926 -0.242439
3.27468 9.84342 6.91933 -0.0648529 -0.889513 -0.452285
0.102485 9.22205 4.38484 -0.643948 -0.719066 -0.261296
5.05632 11.5188 3.62108 -0.689902 -0.69906 -0.188016
11.8339 8.57353 5.6522 -0.569222 -0.814185 0.114408
5.05047 13.2 4.21596 0.317731 0.770504 -0.552603
5.68491 1.52692 2.70017 -0.326444 -0.717566 0.61525
4.34814 10.5534 6.9486 -0.522206 0.375521 -0.765692
4.76456 4.43743 3.38488 -0.113549 0.974042 0.19583
6.04376 8.54969 8.01873 -0.875155 -0.2443 -0.417637
5.21775 0.372676 5.50783 0.0612397 0.638482 -0.767196
5.10089 9.35964 6.88924 0.883863 -0.304149 0.355358
4.92925 2.17569 4.91713 0.826521 -0.557455 0.0781472
11.1786 7.16693 8.5614 -0.591332 0.615411 -0.521149
5.29108 11.7099 7.61613 0.0260646 0.801569 -0.597334
8.77391 10.3377 7.79547 0.188054 -0.972505 -0.137371
10.9217 9.95809 7.70288 -0.538155 0.318543 0.780333
13.9908 7.53921 9.27907 -0.946908 0.317079 -0.0531655
9.81376 7.79178 7.06546 -0.221201 0.922925 0.315085
11.6783 0.892432 4.95459 0.355236 0.771543 -0.527758
10.3142 11.1434 12.2503 0.207573 0.0549309 0.976676
12.6568 8.91039 6.4738 0.103182 0.99462 -0.00917118
12.5374 11.8333 5.15379 -0.800931 -0.181242 0.570666
1.33628 0.571146 4.41237 0.168305 0.191279 -0.966998
12.9778 10.8955 8.88096 0.311581 0.75229 0.580497
0.654762 9.97325 7.94166 0.00324674 0.269106 -0.963105
13.9301 13.5669 5.78732 0.881518 0.168179 -0.441182
3.02262 12.7201 3.84547 0.870022 0.484218 0.0927028
1.83667 12.1621 6.69184 0.327678 -0.491134 -0.807103
3.91674 12.028 5.63366 0.342242 -0.910738 -0.231141
3.57119 12.6345 4.7998 0.43084 0.860082 0.273195
1.77238 11.3417 4.40755 0.621714 0.760967 0.185476
0.646076 11.8507 4.48124 -0.791177 -0.509884 0.337724
3.90298 9.42712 5.56712 0.380873 0.909411 0.167055
8.10995 12.6365 5.42447 0.208277 0.198822 -0.957648
4.42633 12.3706 3.66363 -0.530212 -0.736924 0.419306
3.9293 0.860158 9.42478 -0.552919 0.00356689 -0.833227
6.95956 6.88735 9.2759 -0.837859 0.531746 0.123445
10.2447 0.621947 4.78049 0.790333 0.382226 -0.478829
6.36188 13.7712 7.97968 -0.348876 -0.685676 0.638854
8.81497 0.555857 7.00052 0.491168 -0.222124 -0.842268
7.25414 8.61001 9.64365 -0.298635 0.795321 -0.527525
11.473 2.10834 3.81425 0.621395 0.35054 -0.700707
9.66306 1.42085 5.08269 -0.382105 -0.193966 0.903533
9.0936 0.726659 10.0675 -0.305539 -0.400435 0.863885
11.7142 10.2028 8.49177 -0.137036 -0.324586 0.935877
9.74759 2.58972 1.65345 0.504181 -0.86177 -0.0561678
12.8789 11.7711 3.5991 -0.721148 -0.166013 0.672596
11.1454 10.9993 7.03676 -0.44762 0.0335924 0.893592
11.7303 11.3879 8.54749 -0.36524 0.63533 -0.680408
10.7645 13.1561 7.84663 0.394122 -0.65255 0.647183
1.05396 13.1734 6.26245 -0.136164 -0.978354 -0.155826
13.4406 11.7945 8.39743 -0.906954 0.0992029 -0.409381
1.14334 13.6116 7.58754 0.583001 0.699475 0.413332
2.54767 12.9639 6.66916 -0.689521 0.689064 0.223051
2.70558 12.7213 5.54346 -0.107173 0.961288 0.253848
0.795002 0.688251 7.99931 0.0257708 0.509339 -0.86018
2.53037 1.52014 9.00865 0.891356 0.153244 0.426615
2.17923 0.10234 4.91455 0.424751 0.729987 -0.535449
1.92078 0.750771 7.01361 0.09434 -0.639219 -0.763216
4.69459 1.20035 5.74986 -0.304773 0.196421 -0.931951
2.70392 1.00641 6.30751 -0.471203 -0.0266845 -0.881621
3.73253 1.32691 6.11431 -0.337783 0.434905 -0.834722
7.06351 12.0936 6.66175 -0.0842273 -0.469031 -0.879156
4.89406 13.8612 7.61254 -0.354878 -0.495693 0.792685
9.66284 1.1002 7.36718 0.270101 0.196454 -0.942577
5.92662 2.15487 10.5678 0.469731 -0.75576 -0.456266
7.52066 13.3511 6.53466 -0.932761 -0.317808 0.170163
7.74189 1.40978 6.35565 0.161505 -0.115668 0.98007
10.3397 9.34019 10.6554 -0.696139 0.00782436 0.717865
8.66248 1.57047 8.15955 -0.0474507 -0.14876 0.987734
8.25387 3.01693 5.34932 0.442085 0.563074 -0.698219
10.1361 3.91926 6.75564 -0.886581 0.344038 -0.309213
11.866 11.8473 6.86925 -0.233693 0.590701 -0.772308
13.9989 3.36245 1.09384 -0.0835578 -0.840922 0.534667
10.8372 1.14893 2.19852 0.886872 0.166761 -0.430871
10.6926 13.6733 10.74 -0.0555325 -0.788419 -0.612627
12.0615 13.3955 10.3597 0.509026 -0.353696 -0.784724
12.818 2.8694 3.51963 -0.0687522 -0.88309 0.46414
12.785 12.8352 7.10551 0.9277 0.194631 -0.318577
11.9241 13.4702 8.26183 -0.630201 -0.159491 0.759875
1.26807 1.34019 5.67271 0.535305 0.414527 -0.735946
12.5628 2.10454 6.52372 0.707858 -0.0362805 -0.705422
3.50605 7.23531 1.98358 -0.923188 0.380173 0.056507
1.84332 2.34891 11.4581 -0.0978527 0.952856 0.287211
13.9142 13.2106 8.39093 0.465048 0.681429 -0.565142
2.31271 3.55718 3.19964 0.0814709 0.829331 -0.552787
2.97334 2.16156 3.94688 -0.412039 -0.559845 0.718887
1.19308 2.56147 4.67602 0.252391 0.337699 -0.906785
5.68008 0.672213 7.89799 0.344756 0.160347 -0.924896
4.78853 1.63511 9.66558 0.646018 -0.375299 0.664689
7.42104 1.54619 9.4892 -0.416853 0.50712 0.754362
3.3796 2.57215 7.26966 0.537211 -0.296137 0.789751
8.46627 0.487215 9.09594 0.382969 -0.23396 -0.893643
9.63935 2.50843 3.79364 -0.96732 -0.186032 0.172291
8.14716 0.519902 5.99092 0.655902 0.212738 -0.724248
6.74662 1.43369 6.50438 0.186819 -0.0651629 0.980231
7.88535 2.54464 10.2216 -0.154537 0.0642763 -0.985894
8.90043 1.57944 3.32996 -0.411368 0.552784 -0.724711
9.78845 2.7945 2.6829 -0.717246 0.69476 0.0535417
7.57287 7.10033 5.31881 -0.278891 0.954976 0.101192
11.0012 3.19532 10.5986 -0.132786 -0.443635 -0.886316
12.6647 4.60916 7.62186 0.11038 -0.839911 0.531381
0.413262 2.0853 13.3663 0.611709 0.465246 0.639811
12.1585 2.73747 7.88882 -0.0421078 -0.739287 0.672073
11.5309 0.5626 10.7869 0.456105 -0.0165267 0.889772
13.7645 4.43633 8.51822 -0.000175405 0.0975914 0.995227
11.9667 1.05524 7.92623 0.564516 0.772476 -0.290867
10.9255 1.30888 7.88708 -0.132091 -0.441355 0.887557
13.9321 13.9793 6.90521 -0.595915 -0.308399 0.741468
0.609702 3.31602 5.81671 0.036741 0.788691 -0.61369
0.321315 3.19261 4.51071 0.464458 0.556046 -0.689269
1.80886 2.89636 6.26494 0.341335 -0.244125 0.907686
1.3028 2.34703 2.99724 0.744968 0.541147 -0.390107
1.69295 4.21813 5.83406 -0.638812 0.578496 -0.50721
3.77342 5.88689 3.67342 -0.0535296 -0.997429 -0.0476397
2.65105 4.7753 6.9634 0.6853 0.431348 -0.586773
5.47297 4.98165 5.46316 0.0555279 0.185861 -0.981006
6.96464 2.76776 3.96199 0.852985 -0.444892 -0.272924
6.22918 3.17616 5.74722 0.587319 0.105738 -0.802419
2.79637 2.95327 8.5288 -0.583428 -0.709618 -0.395036
6.55913 1.85213 3.94952 -0.396995 0.473035 -0.786533
5.20171 3.80617 7.03632 -0.227645 -0.17317 0.958222
8.11962 3.23551 3.84988 0.535613 -0.407158 -0.739824
4.73652 5.82906 4.69823 -0.176958 -0.923953 -0.33911
7.1355 3.25156 6.18806 -0.487379 -0.436174 0.756449
9.78842 5.04077 3.32627 -0.246877 0.274105 0.929472
9.54624 2.23859 6.22766 0.169827 0.0744687 -0.982656
8.48644 4.47419 7.02899 0.66168 -0.555581 0.503497
11.9277 4.30381 11.7417 -0.386051 -0.13262 -0.912895
10.3955 4.44291 7.859 -0.786332 0.239621 -0.569442
11.2741 3.35924 8.81953 0.295888 0.0985341 0.950127
11.1424 4.99421 10.4622 0.66263 0.22369 0.714762
12.3629 3.88155 8.99509 0.180331 -0.910665 0.371712
11.7846 4.35683 9.74787 0.677019 -0.292585 0.675307
12.6308 4.63862 3.93965 -0.740182 0.0427052 0.671049
11.8016 3.96609 5.48431 0.27651 0.152649 0.94881
0.398458 4.82476 6.68583 0.02509 0.0256696 0.999356
11.5605 6.65366 5.51962 0.78819 0.0616455 -0.612336
0.193733 4.42059 4.34281 0.561143 0.497855 -0.661256
2.24372 6.54364 3.10673 0.679781 0.695116 -0.233906
2.9049 3.50609 7.50814 -0.888552 0.117272 -0.443535
3.35088 4.04509 5.62768 -0.741513 0.576032 0.344014
5.11422 2.93048 4.09706 0.408147 -0.906949 -0.104214
1.64273 6.63698 6.25009 -0.124963 -0.687779 0.715084
4.21507 4.2528 7.5742 -0.146714 -0.0361908 0.988517
2.63978 6.2609 6.33937 -0.447319 -0.853938 -0.265887
4.56229 4.44093 5.22031 0.742888 -0.507344 -0.436714
4.24696 6.13849 8.02819 -0.205813 -0.633704 0.745694
3.73222 4.60914 4.5506 0.222362 -0.974576 -0.0274967
5.51622 8.34382 5.53696 0.455158 -0.585276 0.671031
5.62172 10.718 4.56572 -0.559608 -0.828232 0.0295133
7.13644 10.134 6.06449 -0.190892 -0.877467 -0.440013
8.76004 2.78389 7.5315 -0.49023 -0.448078 -0.747597
7.32615 6.35245 4.0446 -0.0449777 0.920213 0.388825
8.63931 5.2478 5.04861 0.359355 0.913501 0.190734
8.95376 7.69345 7.64354 0.812967 -0.240685 0.530241
12.8589 7.08364 8.59508 -0.842531 0.455142 -0.288075
7.83567 9.85558 7.92113 0.0226144 0.577077 -0.816377
9.96983 6.71675 9.09837 0.209333 -0.103733 -0.972327
12.6771 7.10567 9.66158 -0.756222 0.476221 -0.448711
12.6783 5.22777 9.737 -0.30188 0.935895 0.181573
12.3747 8.82842 7.46106 0.200121 -0.961426 0.188711
9.23653 6.5181 7.7712 -0.271744 0.25581 0.927748
0.441549 6.62906 8.27543 -0.83995 -0.280494 -0.464551
13.0516 5.48934 6.16846 -0.440484 -0.438451 -0.783412
13.8091 6.85007 5.36314 0.788741 -0.349942 0.505399
2.68014 11.1522 3.66906 -0.645591 -0.745599 0.165207
12.6916 5.10818 2.75713 0.841144 -0.179441 -0.510174
1.11914 5.51157 5.98173 0.336196 -0.51641 0.787587
2.23038 9.10917 3.73465 0.43181 0.851681 -0.29695
2.56074 8.28948 5.84873 -0.212108 -0.855042 0.473195
2.83673 8.19629 4.78843 -0.412673 -0.844528 0.341281
3.18424 6.79527 7.55237 -0.122518 0.932854 0.338782
5.81192 12.6321 6.15044 0.068249 0.930766 -0.359188
2.70879 4.94043 4.98118 -0.364756 -0.627682 -0.687728
3.65071 8.45268 7.14531 -0.305445 0.744635 0.593484
4.54159 8.1838 5.89106 -0.573514 -0.203625 -0.793485
6.33457 9.8711 6.58793 0.473771 -0.86468 0.166944
6.17656 11.0458 5.51676 -0.0403698 0.997799 -0.0525996
6.96194 8.10659 7.45773 -0.859461 0.200429 -0.47027
8.32672 3.95411 6.01572 -0.356467 0.871347 -0.337172
10.8066 8.58852 8.73441 -0.864438 0.303006 0.401166
10.655 7.54763 9.37491 -0.822727 0.248378 -0.511302
9.09586 7.57785 9.72939 0.285756 -0.0530484 0.956833
1.23583 7.68522 12.1329 0.0503816 -0.181592 -0.982083
13.8735 8.84996 8.6551 -0.828008 -0.142957 0.542186
0.372494 5.31606 9.85452 0.319442 -0.640354 -0.698501
13.508 9.32947 10.0759 0.741966 -0.126734 -0.658351
13.1794 7.44283 7.04587 -0.287427 -0.956736 -0.0451835
13.7287 10.4362 5.64672 -0.550878 -0.831311 0.0738577
12.4843 6.44074 6.10374 -0.530392 -0.845087 0.0671664
12.3467 9.14533 8.5501 0.848877 -0.0227458 -0.528101
3.95467 12.1836 9.34585 -0.0667581 0.638716 -0.766541
1.20046 8.70287 6.04094 -0.916498 -0.227372 -0.329141
0.883448 7.32089 2.47058 -0.705319 -0.613428 0.355292
2.39662 11.2965 12.6132 0.524841 -0.494407 -0.692895
5.10347 11.0666 9.98334 -0.327477 0.866388 0.377003
11.8605 6.53167 6.93627 0.0421634 0.869347 -0.4924
3.23808 10.4324 5.38975 -0.351069 -0.769239 0.533875
4.24747 13.686 12.1751 0.462272 0.465866 0.754502
3.62256 10.7542 11.0018 0.149727 -0.838498 -0.523931
5.13552 11.6025 5.7627 -0.151759 -0.874261 0.461125
7.71133 8.97479 7.39903 0.932565 -0.266311 -0.243722
5.18017 6.67554 8.91034 0.109792 0.960173 0.256932
6.06041 8.87681 9.45421 0.00427369 -0.840327 -0.542063
4.963 7.43223 7.95586 -0.925615 0.180055 -0.332894
5.37657 9.71708 5.80236 0.380201 -0.809633 0.447149
6.96466 10.6229 8.53339 -0.632502 0.59145 -0.500129
7.23897 7.74435 12.2417 0.917609 0.191657 -0.348225
8.63034 6.45711 9.69821 -0.773724 0.468268 0.426703
8.49663 10.4651 11.3836 0.195223 -0.477106 -0.856888
8.84473 12.3858 11.3259 0.162502 0.214168 0.963185
10.5285 8.43827 11.9621 0.926103 -0.233005 -0.296719
10.7923 10.7074 9.70689 0.20471 0.0114441 -0.978756
7.74648 10.6174 10.5562 -0.284158 0.412988 0.865272
9.14137 11.4343 11.9799 -0.250603 -0.132422 0.95899
13.429 8.03832 8.18062 0.904105 -0.183965 -0.385683
12.2377 11.5822 9.85477 0.579436 0.7624 -0.288098
12.9371 12.9889 5.23313 0.891479 -0.0659199 -0.448241
12.2779 10.2532 10.8273 0.406482 0.0796877 -0.910177
3.17429 11.2629 9.38761 -0.22835 -0.426209 0.87533
1.62555 10.0597 7.3154 -0.0141133 0.855812 -0.517094
1.82863 10.0076 8.69371 -0.499367 0.613126 -0.612135
0.580237 11.2566 9.69787 0.920187 0.384029 -0.0760132
2.01963 10.6804 5.4571 -0.62733 -0.259468 0.734257
1.55698 1.66636 3.97799 0.853036 -0.0247449 -0.521266
2.40577 13.7877 10.8956 -0.588493 0.774602 -0.231661
2.23676 10.8831 7.78781 0.602856 -0.787723 0.126714
3.36624 13.2315 10.0398 -0.28387 -0.498606 -0.81903
7.01666 1.05667 12.8987 -0.547803 -0.575844 -0.606889
6.36052 7.20784 7.48958 0.744339 -0.335813 0.577225
4.50859 13.5518 10.3311 0.241788 0.204498 0.948535
4.86321 9.84236 10.3458 -0.290666 0.734192 0.613576
5.66439 12.3338 10.3908 -0.271939 -0.124045 0.954286
7.52336 8.00755 8.8223 0.85947 0.242706 0.449895
6.06565 12.155 8.25359 -0.267442 -0.678475 0.684212
7.82806 8.18577 11.0483 0.625856 -0.693909 -0.356083
10.2648 9.79152 9.47717 0.659615 -0.2213 -0.718285
8.22035 1.24691 12.8069 -0.110111 0.547725 -0.829381
7.74241 3.71534 10.4764 0.324395 -0.439651 0.837541
9.7256 1.06802 13.4248 -0.184596 -0.846032 0.500155
10.8833 13.0624 6.69447 -0.109977 -0.89694 0.428256
9.47366 10.3558 11.7409 0.467888 -0.0965986 -0.878493
10.3469 11.8587 10.3496 0.395425 -0.207146 0.894835
11.2694 10.8481 11.9855 0.0135309 -0.14335 0.98958
12.4047 12.5983 8.60895 0.692064 0.349361 -0.631659
9.92145 13.058 9.11046 -0.876104 0.45824 -0.149863
12.9948 13.8858 9.61402 -0.0435827 -0.202188 -0.978377
13.9136 11.6867 7.43402 -0.0217536 0.996499 0.0807206
1.09754 13.2442 9.21682 -0.423931 0.0948665 0.900712
1.51441 11.3762 8.64552 -0.736566 0.512141 -0.441794
12.4473 13.6404 11.5718 0.634186 -0.319748 -0.703967
0.721398 11.4819 6.77463 0.060303 0.76209 0.644656
4.26188 1.32102 8.12146 -0.537595 0.249597 -0.805415
1.22744 11.5768 5.31524 -0.433246 -0.874777 -0.21694
1.62681 0.338132 13.6109 -0.180705 0.431974 0.883597
2.73152 0.188217 11.7681 0.996491 0.049244 -0.0676804
5.31001 2.0672 7.49568 0.375396 0.925747 -0.0454941
6.23065 1.08289 11.5196 0.945337 0.0509405 0.322093
4.1975 0.259447 8.43248 -0.463232 0.2051 -0.862178
5.58794 12.7147 13.3424 -0.22623 -0.365932 -0.902726
7.84812 0.327253 11.4417 0.118627 -0.204032 -0.97175
8.5213 1.69455 5.14708 -0.154361 -0.234971 -0.959667
5.42561 0.229699 10.7443 0.358725 -0.246574 0.900288
8.4295 11.213 9.87126 0.107724 0.149364 0.982897
7.29723 1.22189 10.7068 -0.233824 -0.686396 -0.688613
9.38316 4.1317 5.00786 -0.276925 0.474747 -0.83542
10.1 2.58072 10.9331 -0.184013 -0.429749 -0.884
8.70673 2.59692 12.7409 0.77422 -0.203328 0.599368
11.1295 0.99913 12.7208 -0.073004 0.674455 0.734698
9.65649 10.9542 9.76595 0.36964 0.0700557 -0.92653
10.1028 1.88806 8.16728 -0.102162 -0.164872 0.98101
11.8333 12.0912 11.8089 -0.742734 0.309202 -0.593919
12.481 1.28127 9.85436 0.0582439 0.7714 -0.63368
11.6465 12.099 10.452 -0.288203 0.715705 -0.636164
0.103175 1.71778 6.29366 0.0942218 0.183908 -0.978417
13.8223 0.415476 8.2649 0.00463352 0.357747 -0.933807
1.28426 1.69446 0.267314 -0.457346 -0.576503 -0.67711
1.62794 14.0074 9.60473 0.0412671 -0.573512 0.818157
0.902362 2.13657 10.3152 -0.0321793 0.0200562 -0.999281
0.505321 0.303068 0.124796 0.253724 -0.844524 -0.471597
2.80696 1.76394 7.65882 0.584396 -0.0877759 0.806707
4.11024 0.000795829 6.4645 -0.148798 -0.305137 0.940612
2.9393 1.34896 11.4999 -0.217986 -0.552353 -0.804604
6.63247 3.08634 12.6897 0.671724 0.252925 -0.696288
5.43566 2.12145 6.28603 -0.841332 0.000928146 -0.540518
3.85066 2.44234 6.18447 -0.432081 0.50593 -0.746553
6.00761 1.76128 12.6164 0.679132 0.366715 0.635846
6.51012 1.77819 9.05756 0.161352 -0.697833 -0.69785
4.92163 2.69768 8.59857 0.450697 -0.0924242 0.88788
7.63873 13.9865 8.83621 0.626933 -0.718112 -0.302108
8.23938 3.56861 13.1337 0.779081 0.625323 -0.0447601
8.14786 13.073 10.5253 0.602303 0.442631 0.664311
9.91321 3.02834 7.5146 0.422061 -0.136455 0.896239
9.80586 2.93675 9.40143 -0.268045 -0.41047 -0.871589
9.79822 3.98077 11.8642 -0.0939522 -0.522265 -0.847592
9.99026 3.69537 13.2191 -0.0770983 -0.762685 -0.642158
10.6269 2.77447 6.62859 -0.553382 0.231681 -0.800058
10.4104 3.8506 9.18485 0.490955 0.083185 0.867205
12.0403 5.48929 13.0079 -0.319334 -0.27771 -0.906037
11.5512 1.52221 11.9611 -0.568228 -0.372078 -0.733944
11.6584 4.43699 7.41037 0.205402 -0.694629 0.689421
13.3841 2.22155 13.5439 0.525886 0.474314 0.706024
12.3614 3.40623 11.4366 -0.21705 -0.0933143 -0.97169
2.09218 3.07622 13.769 -0.879963 -0.0879679 -0.466827
1.57862 2.6591 9.0125 0.778495 -0.302079 0.550176
13.9549 0.893013 11.8801 -0.562442 -0.102844 -0.820416
2.41584 3.45516 12.469 -0.324487 0.785939 0.526316
0.778848 2.66127 0.994408 0.397247 0.727098 0.559932
2.47613 1.81887 10.4246 0.378996 0.634491 0.673635
2.26854 3.43984 4.88656 -0.530943 0.105505 -0.840814
4.23545 8.4263 0.828276 0.441328 0.761558 0.474615
4.20995 3.45389 10.8084 0.325736 -0.272067 0.90547
5.22138 5.12202 9.45579 0.823471 0.273359 0.497162
6.6043 2.27215 8.11664 -0.492441 -0.553002 -0.67208
5.00248 3.20209 10.2311 0.63006 0.718681 0.294145
4.53333 4.43649 10.656 0.494209 -0.217314 0.841744
4.17797 5.27918 6.8618 0.390521 0.0464116 -0.919424
5.94266 3.44082 8.97011 -0.0618271 0.174048 -0.982794
6.35083 5.6766 4.27034 -0.0892591 0.549458 -0.83074
10.6676 4.4249 11.2825 -0.422251 -0.340483 -0.840104
7.5645 3.7984 6.91738 -0.265605 0.671105 -0.69215
8.72069 2.4332 9.14332 0.444361 -0.569376 0.691632
7.89179 8.37359 6.20931 0.364815 -0.871475 -0.327781
12.0821 4.58062 0.0846409 -0.303378 -0.0616438 -0.950874
9.31986 4.79524 8.36898 -0.873725 0.0264745 -0.4857
11.8514 2.49735 10.1074 -0.0937162 0.100132 -0.990551
1.71887 6.16853 8.28702 -0.52715 0.247715 -0.812866
13.3425 1.56333 8.40937 0.099276 0.268667 0.958104
11.1222 5.52978 9.2109 0.983031 0.00177631 -0.183431
12.9834 4.27349 5.81604 0.263462 0.232946 0.936122
0.316559 4.12147 10.6387 -0.0159619 0.016881 0.99973
2.28982 3.20643 10.8783 0.51111 0.494847 0.702775
13.024 4.78806 10.9655 -0.398111 0.552517 0.732279
0.691988 5.74562 2.79358 -0.610766 -0.662437 0.433755
1.87084 5.56182 11.475 0.649207 0.759983 -0.0309303
3.08187 4.97085 11.6882 0.34593 0.642305 0.683942
1.72498 3.39528 7.92587 0.615998 0.455255 0.642876
3.16054 4.6286 8.64266 -0.0979922 0.206044 0.973624
1.21679 3.51589 9.74218 0.766198 0.378582 0.519246
4.49871 3.62369 9.20344 0.552939 0.621952 0.554468
2.31456 5.78217 7.60657 -0.0561007 0.870791 -0.488443
5.28673 4.55443 8.19517 0.267231 -0.280385 0.921939
2.92827 3.94399 9.94824 -0.589483 -0.452451 -0.669178
4.89199 6.93029 6.21701 -0.612867 0.273027 -0.741518
8.15844 7.05038 8.17454 0.139441 -0.201527 -0.969507
6.32757 5.3905 6.07949 0.48611 -0.561121 0.669955
9.84353 5.95419 10.3419 0.970034 -0.133282 -0.203149
10.8348 4.3821 12.9525 -0.0727464 -0.692276 -0.717957
6.93769 6.67895 6.0938 0.394964 -0.834549 0.384099
6.94658 8.03688 6.34332 0.523743 -0.728822 0.441035
12.1769 7.07183 11.5415 0.793322 -0.529763 0.299985
0.577017 6.13347 11.3693 -0.736069 0.343971 0.582998
12.5274 8.13025 10.1346 -0.938704 -0.23761 0.249753
13.7507 5.50375 8.15919 0.16741 0.322423 0.931675
0.597492 6.60074 10.139 -0.0895736 -0.384707 -0.918682
13.383 2.92377 9.01524 0.322532 0.506027 0.799944
11.5778 5.56485 4.55437 -0.69365 -0.240994 -0.678801
12.9772 2.50962 10.3346 0.0606995 -0.970854 0.231859
0.0214909 7.82857 4.39333 0.276439 -0.0760391 -0.958018
0.673926 3.69691 12.6553 -0.600142 -0.431441 0.673564
13.6845 5.89083 2.35587 -0.687691 0.239694 0.685294
13.5804 5.14549 4.61462 0.0809616 -0.190822 0.97828
3.63642 10.743 8.30241 0.709096 0.387822 -0.588878
2.26279 5.07057 12.2797 -0.135774 -0.883806 -0.44772
0.315965 5.82424 6.65978 -0.314159 -0.078583 -0.946113
13.6912 6.51339 4.02543 0.391348 -0.36931 0.842886
2.54191 6.82127 9.31468 -0.0785681 0.243352 -0.966751
4.35405 6.09391 10.7587 0.759916 -0.183624 0.623546
4.32354 10.712 4.56699 -0.431032 -0.899146 0.0758213
3.9238 6.33493 6.12764 0.105128 -0.661939 -0.742149
4.11662 9.60577 11.4655 0.758237 -0.451023 -0.470802
4.80134 8.19527 11.217 0.886904 -0.439649 -0.141812
6.21396 9.36314 10.8359 0.848919 -0.415058 -0.327205
8.11678 5.91051 7.25539 0.790985 -0.600437 0.117547
5.84203 7.05984 11.8781 0.927555 -0.353778 0.120345
6.55783 6.57016 10.8704 0.801106 -0.54232 0.253215
8.26884 9.22428 9.80658 0.723868 -0.303515 -0.619591
7.24192 7.26386 11.1697 0.8214 -0.489093 -0.29341
6.75022 10.5544 13.4784 0.35326 0.928624 0.113428
10.5951 7.17469 10.7795 -0.524704 0.516905 -0.676383
11.9709 9.0672 10.1725 0.656766 0.233731 -0.716958
0.432126 8.34985 0.0326754 -0.33815 0.939807 0.0491701
8.78641 9.2497 0.219499 0.930551 0.365399 -0.0236411
1.01631 8.54971 10.9743 -0.337048 0.238234 0.910848
12.6025 6.03135 8.03794 -0.225579 0.894547 -0.385876
0.488211 8.01026 6.74452 0.687822 0.446899 0.571998
1.63477 7.48706 7.09811 0.137603 -0.33817 0.930971
0.186849 12.3208 12.6872 0.226057 0.908128 0.352423
3.31441 8.90442 9.75133 0.252882 -0.907028 -0.336676
3.52331 12.2082 10.6471 -0.806222 -0.517972 -0.285851
2.91306 7.72602 10.0158 -0.734436 0.67848 0.0163868
3.91397 6.55158 9.14534 0.602131 -0.636157 0.482434
3.66559 13.0584 12.7318 -0.209342 -0.576994 -0.789464
4.63316 10.5364 8.9417 0.0444437 0.98808 0.147384
2.11301 1.10576 2.13512 -0.849793 0.446327 0.280436
2.05423 10.2567 10.248 -0.277567 0.960611 -0.0135044
4.49186 12.1146 11.6364 0.105266 0.700181 0.706162
3.61533 10.1444 12.8418 -0.895183 0.385274 0.224079
5.3785 10.1757 13.3228 0.179386 -0.846341 -0.501525
4.77726 8.31216 10.1932 -0.638771 0.722228 0.265251
6.6371 10.3502 10.8514 -0.354881 0.372982 0.857288
6.31487 7.95457 10.343 -0.660688 0.742887 0.107749
5.34721 11.0266 11.3928 0.302114 -0.59942 -0.74123
7.67726 7.97687 13.7108 0.921082 0.292561 0.256936
7.43828 10.2864 12.0316 0.0470275 0.677669 0.733862
7.50394 9.07944 12.3173 -0.884666 0.376091 0.275539
7.80465 10.7784 1.10231 0.851206 0.202658 -0.484126
10.131 8.82255 13.1542 0.947588 0.107229 -0.300962
9.79236 8.30049 11.0787 -0.955563 0.0463064 0.291127
0.77885 8.24264 8.97311 -0.238385 0.292065 0.926213
9.47199 9.58447 12.7014 -0.682161 0.140822 0.717514
1.8773 7.88163 8.72443 -0.0519458 0.36819 -0.928298
10.9533 10.0355 11.1786 -0.596216 0.156627 0.787397
0.187691 7.91692 10.4975 0.808316 -0.379718 -0.449932
13.004 11.0704 11.8562 -0.303757 0.0538327 -0.951228
2.90782 9.73875 11.0715 -0.522272 0.798408 0.299629
0.478963 10.7075 8.74846 0.826477 -0.158966 0.54006
2.06007 12.4019 10.6217 -0.362376 -0.785601 0.501513
3.65184 1.4898 0.165928 0.850185 0.458721 0.258381
4.16035 11.5788 12.4314 -0.0409965 0.757541 0.651499
3.69179 11.7138 7.07534 -0.957639 0.120825 0.261397
3.56437 12.7609 7.4115 -0.346697 -0.333567 0.876661
4.53328 0.808627 13.8424 -0.619278 -0.514176 -0.593396
5.6588 10.0338 12.0349 0.872952 -0.404117 -0.273209
2.42807 13.0284 8.42864 -0.0121628 0.47929 0.877572
4.3824 8.2466 9.11369 0.029421 -0.921178 -0.388028
6.40696 13.7755 13.4207 -0.00149596 -0.0324332 0.999473
6.01223 11.5199 12.6473 -0.00515956 -0.258442 0.966013
6.92465 12.3781 8.77968 0.118821 0.945911 -0.301885
6.63432 12.3466 10.8898 -0.154378 0.884662 -0.439933
5.80341 13.2018 2.11237 -0.902636 0.204195 0.378884
8.23518 9.85829 12.5651 0.542775 -0.256966 -0.799602
9.09283 12.8 9.89248 -0.809513 0.124453 -0.57376
9.20731 9.81295 9.01309 -0.347646 0.493155 0.797459
9.75911 11.7801 13.3422 0.0886567 -0.309418 0.946784
10.0446 12.9297 12.6172 0.656849 -0.347434 0.669208
9.6569 13.7512 13.1067 0.864254 0.498714 0.0659479
13.6192 9.92003 8.68547 0.213062 -0.214904 -0.953111
10.5367 1.16135 14.0492 0.436131 -0.888428 -0.143129
11.7114 11.5844 13.9999 -0.814125 0.229841 -0.533267
13.2823 12.8407 12.055 0.982343 0.0332585 -0.184111
0.143074 12.5954 9.61117 0.824252 -0.385592 -0.414641
12.824 12.4129 10.7129 -0.825896 0.38525 0.411677
1.46049 12.5294 12.5286 0.250985 -0.833776 -0.491756
14.0484 11.9514 11.4934 -0.99927 -0.00633494 -0.0376698
2.26303 12.1328 8.85161 -0.469476 0.523095 0.711311
13.6402 0.711807 9.9058 0.520425 -0.120756 0.845326
1.80448 13.1585 13.8211 0.401369 -0.642004 -0.653249
1.67776 4.35521 1.22871 -0.954885 -0.240553 0.17415
0.859346 0.112436 10.3976 0.411927 -0.291213 0.86343
3.9586 0.820896 11.0466 -0.51824 -0.48126 -0.706977
4.73875 0.83489 2.12775 0.168044 -0.62636 -0.761206
4.72129 1.33153 12.8255 0.624164 0.666027 0.408444
7.2497 12.3175 12.984 0.117365 0.790252 0.601437
6.21016 0.563604 0.417452 -0.74186 -0.104089 -0.662427
7.58513 0.104324 13.4707 0.410296 -0.716036 -0.564757
4.36915 1.7734 10.7244 0.855875 0.0671298 0.512807
5.49781 13.5134 9.64366 0.0485689 -0.245843 0.968092
5.90887 0.229172 1.51927 0.232985 0.483745 0.843628
8.20789 12.0267 12.4597 -0.0915387 -0.446851 -0.889913
8.48998 3.65137 12.0495 -0.806476 0.590958 0.0191294
10.9157 11.9571 12.3554 -0.706767 0.418891 -0.570097
10.1057 1.21667 10.4025 0.161198 -0.414574 -0.895625
11.1882 13.061 13.9565 -0.800795 0.598476 0.0235385
11.2609 1.81059 8.91723 0.340225 -0.576872 0.742608
10.7063 11.7559 8.76831 -0.328423 0.148404 -0.932799
9.21469 2.53795 0.772315 -0.370705 0.925785 0.0741649
1.38439 12.0584 0.971802 0.790282 -0.598184 -0.132783
10.5011 1.7936 12.1786 0.201482 0.94502 0.257571
0.485423 12.557 10.5787 0.836471 -0.273632 -0.474806
11.8589 2.92327 0.0373764 -0.129154 -0.756608 -0.640986
10.7569 13.5675 12.0315 -0.858241 0.474507 0.195617
13.9926 1.7732 10.7975 0.0668494 -0.146567 -0.986939
13.8331 13.8106 11.0749 -0.184536 0.194332 0.963422
1.16271 4.57006 13.9987 -0.85681 0.51065 0.0715058
4.2597 5.57636 2.68928 0.397296 0.797199 0.454565
1.28166 1.89924 12.9092 -0.562188 -0.248901 -0.788665
0.786364 1.22575 9.10836 -0.549492 0.202999 -0.810463
5.86134 3.50535 11.9354 -0.219039 0.0501466 0.974427
3.3938 13.7484 8.67873 -0.288239 -0.260297 -0.921501
6.47408 4.05955 12.9942 -0.240873 -0.307835 0.920444
5.02292 2.3235 12.0626 0.901549 0.262364 -0.344055
6.65323 4.11505 10.5001 0.383178 -0.148599 0.911643
7.3138 12.9587 12.0647 0.0389622 -0.91028 -0.412155
7.16644 2.14161 12.3575 -0.699037 -0.0844487 -0.710082
11.2714 4.39366 3.52807 0.921121 -0.0826928 -0.380393
6.84641 13.9839 10.926 -0.597736 0.765841 -0.237065
8.57643 13.8309 12.2264 0.366091 0.802012 0.471969
9.00192 2.68278 10.9291 -0.210903 0.952236 0.220833
7.57741 3.79314 8.51991 -0.371307 0.389094 -0.843052
6.15681 6.21097 8.34585 0.745028 -0.280744 0.605075
12.3196 13.4942 0.0131137 -0.707614 0.660085 0.252132
10.6991 5.5567 11.4002 0.692943 0.385811 0.609082
11.556 3.36292 12.6408 -0.00185034 -0.392542 -0.919732
8.5785 6.43494 13.7846 0.978496 0.197272 0.0602499
10.9312 1.98998 10.5968 -0.261621 -0.301394 -0.916906
12.4338 1.53271 11.3258 -0.646967 -0.0818462 -0.758113
13.1476 2.54911 12.3571 -0.925637 -0.123207 -0.357793
13.751 5.02392 1.22807 0.935139 -0.190706 -0.298575
3.55899 3.98556 0.21067 -0.977024 0.100545 0.187921
13.0287 0.739066 12.3728 -0.268639 -0.324734 -0.906852
0.803712 2.7559 12.1216 0.859472 0.0371996 0.509827
3.302 3.39948 13.2739 -0.580492 0.779074 0.236798
2.45026 3.7086 1.79845 0.590046 0.786986 0.180272
3.95386 6.7197 12.7646 -0.701225 -0.313217 -0.640452
13.7917 13.945 13.3051 0.313832 0.934038 0.170534
4.19052 5.74498 13.3427 -0.311881 -0.726329 -0.612516
5.43466 4.26229 0.682242 0.0637233 -0.884376 -0.462405
6.39466 4.45555 8.05111 -0.315276 0.316102 -0.894807
6.8948 3.14224 10.353 -0.0312753 -0.244205 0.969219
6.54902 6.3408 0.507074 0.152914 0.534774 0.831044
5.85462 3.30377 1.80227 -0.34023 -0.241765 0.908732
5.50306 5.68891 6.87185 0.456601 -0.228646 0.859789
6.85367 5.65957 7.23356 0.591571 -0.715491 0.37164
5.76366 7.17145 5.34256 0.099892 -0.667283 0.738075
9.18214 1.62593 12.0449 -0.479468 0.813056 -0.330228
9.14191 4.0625 9.00656 0.636999 0.271273 0.721556
9.16541 4.02585 10.4201 0.445798 0.559253 0.698928
13.7392 7.22714 0.743584 -0.177017 0.636592 0.75061
11.7349 6.3074 0.417726 -0.253809 -0.937359 -0.238621
13.156 6.09002 11.0237 0.665294 -0.6005 0.443604
12.0245 6.64175 13.4058 0.666327 0.232234 0.708573
0.240711 5.66457 12.8397 -0.740629 0.163195 -0.651794
13.6351 3.35013 10.9068 -0.438511 0.663292 0.606425
13.279 4.90176 12.5231 0.41704 -0.156702 -0.895278
13.4854 3.8587 12.687 0.496393 -0.323825 -0.805439
2.65928 8.61482 8.58343 0.284072 -0.844346 0.454294
4.29592 4.04583 13.0606 -0.552708 0.64361 0.529414
1.32547 4.8697 10.3586 -0.778489 0.229687 0.584122
1.3314 3.75715 11.0019 0.650613 0.759027 0.024102
13.2259 5.18677 0.306682 -0.0612338 0.998122 0.00193037
3.01347 4.99337 13.0818 -0.0375842 0.759664 0.649228
6.08876 6.78634 13.282 0.878388 0.0247791 0.477306
2.9132 5.67718 10.617 0.501682 0.312466 0.806647
2.95558 7.00974 13.6446 -0.136047 0.796589 0.589014
4.63638 6.49344 0.857809 0.469775 -0.836299 -0.282695
5.5226 4.64817 13.3694 -0.287774 -0.413702 -0.863735
3.32366 5.71105 9.31568 -0.42707 0.367743 -0.826061
6.54296 7.91236 1.68248 0.486695 0.396451 0.778431
10.5873 5.51185 12.6725 -0.498075 -0.467277 -0.730461
8.69688 5.31128 9.66562 0.910468 -0.256189 0.324676
6.87922 6.09401 5.22456 -0.422593 0.743501 -0.518287
6.5884 5.07148 9.25727 -0.719137 0.166321 -0.67467
7.5495 4.88275 8.7451 0.724091 -0.448019 0.524377
8.94214 6.14365 12.1303 -0.567554 -0.0566697 -0.821384
9.7436 6.62209 11.5504 0.723512 -0.182473 0.665758
12.21 10.5876 13.2603 -0.0717418 -0.0347513 0.996818
11.725 6.24885 10.7993 -0.35677 0.272089 -0.893691
0.287429 8.18195 13.0135 0.250751 0.948963 0.191294
1.64132 6.6685 10.4854 -0.0339654 -0.0492353 -0.99821
12.2272 7.79647 13.7627 -0.830738 -0.05229 -0.554203
0.239459 4.60434 12.8037 0.312944 0.345732 -0.88461
0.737728 9.28134 6.93959 -0.727997 -0.400643 0.556332
0.134153 2.35247 8.26774 -0.0414813 -0.0524287 0.997763
12.3954 8.2859 12.1864 -0.893775 0.0144543 0.448283
12.7805 3.04727 13.4102 0.729897 0.426282 0.534354
4.41784 12.3981 7.77986 0.253217 0.706066 -0.661326
4.37302 8.71493 8.07224 0.709032 0.664154 -0.237007
13.3566 9.28764 13.5974 -0.150203 0.952803 -0.263827
1.03325 10.9131 10.8803 0.648388 -0.711782 0.270109
3.68018 9.84456 9.24321 -0.19673 -0.726015 -0.658938
4.48884 7.37089 10.7614 0.714348 -0.621468 0.321689
4.15396 7.84086 13.5471 0.839094 0.268285 0.473227
4.06378 4.31517 11.8184 -0.61635 -0.469207 -0.632423
3.99873 11.4278 13.6629 -0.464821 0.695264 0.548224
3.8734 6.82277 11.4324 0.789622 -0.164306 0.591187
2.44243 7.38139 11.4587 -0.432658 0.227959 -0.872262
9.21466 5.26638 12.9629 0.0611911 -0.349387 -0.934978
4.29364 5.60457 11.8726 0.421164 0.453624 0.785395
6.29557 6.06265 12.5668 -0.8894 0.0878168 -0.448615
5.50525 5.06182 10.7753 0.812931 -0.319416 0.486946
12.9683 6.0959 12.9913 -0.722474 0.30718 -0.619412
13.0434 7.46747 11.0523 0.74364 -0.658883 -0.11346
7.96202 6.9693 12.8852 -0.982308 -0.101197 -0.157577
12.0368 8.91247 13.3229 -0.77336 -0.393663 0.496934
10.1013 10.5748 0.234332 -0.940867 -0.180064 0.28696
7.81567 9.07839 13.3484 0.881198 -0.16183 -0.444186
10.4665 7.00728 13.1456 0.807375 0.0703595 0.585829
11.2647 11.2943 2.15002 -0.410901 -0.832512 -0.371596
13.2488 7.72803 13.1886 -0.045329 0.887477 -0.458617
13.5946 9.14308 11.346 0.746224 -0.0695876 -0.662048
14.0216 9.67804 12.4851 0.176165 0.971392 0.15926
13.3837 1.52882 3.31377 -0.533435 -0.839848 -0.100513
0.0676927 10.8651 13.5314 -0.0723209 0.997144 -0.0217534
3.66112 9.14611 0.0711093 -0.885544 -0.282318 -0.368928
0.908576 11.8666 13.2419 -0.060866 -0.815616 -0.575383
0.33115 12.1668 0.272949 -0.369965 0.890766 -0.263935
4.97333 8.61061 12.1872 -0.840658 0.531839 0.102183
3.12356 12.4444 13.3903 -0.124185 0.740241 0.660773
7.39123 7.62345 0.871703 0.746598 0.301492 0.593038
2.45863 7.89657 1.16112 -0.822724 0.531093 0.202644
0.587381 2.53762 2.28032 -0.654702 0.461791 0.598426
4.9078 11.9533 13.5015 0.184413 -0.700599 -0.689313
4.37462 7.77338 12.4704 -0.921805 0.176956 -0.34491
12.2879 8.50017 4.57203 0.755195 -0.64926 -0.0902322
11.2283 7.92512 4.68136 0.905423 -0.355548 0.231939
6.53665 11.7134 0.195962 0.056223 -0.802158 0.59446
5.05565 6.65054 10.0121 0.692797 -0.635188 0.341421
6.52983 13.5153 9.28941 -0.183253 0.858696 -0.478602
7.96392 9.3774 1.1373 0.63633 0.77002 0.0464152
7.88197 11.2542 13.9287 0.395569 -0.419255 -0.81716
9.7033 10.5567 13.3375 0.738705 -0.415807 -0.53049
10.1392 0.401802 1.66901 -0.485847 0.843325 -0.229686
9.64752 7.70103 13.7012 0.95018 0.283559 -0.129429
11.1938 8.41532 9.66629 -0.926275 0.0285402 0.375767
11.6586 9.18552 11.7761 -0.801706 0.267902 0.534319
13.4946 12.3529 1.93216 0.99175 0.0906639 -0.0906227
10.7839 11.5683 4.23023 0.824604 -0.560229 -0.0785651
11.0567 12.1484 0.677672 -0.658922 0.159332 -0.735143
1.28731 9.24707 9.65227 -0.0338779 0.22672 0.973371
12.3849 0.226489 4.58503 0.515452 0.828735 -0.217963
2.43617 8.25945 12.4435 0.552163 0.0491822 0.832284
3.34865 1.06485 12.9729 -0.642767 -0.710584 -0.286218
2.45518 9.25673 0.544304 0.630878 -0.660441 0.407198
3.76498 10.4715 0.0629062 -0.763443 0.538061 0.357275
6.10714 9.78176 1.35187 -0.962599 0.0213064 -0.270093
6.35488 1.57294 1.15202 -0.803051 -0.595081 -0.0314187
4.51523 2.34031 2.46335 -0.77421 0.0282002 -0.632301
2.59308 11.852 11.7206 0.0498403 0.672546 0.738375
3.99435 13.5071 0.585288 -0.0520164 -0.71716 -0.694965
4.82057 13.663 13.9181 -0.145123 -0.69575 -0.70347
6.22606 10.774 9.8865 -0.176289 0.629581 0.756671
4.6007 1.3189 1.19039 0.499093 0.666234 0.554111
3.83111 0.194836 2.33784 0.690082 -0.577908 -0.435671
5.41088 12.5772 0.794084 -0.166978 0.813563 0.556986
5.49486 9.34517 8.6987 -0.252945 -0.967021 -0.0298049
5.00266 12.2706 1.72308 0.678471 -0.667459 -0.306882
11.3744 9.7792 13.0828 -0.761292 0.0608851 0.645545
7.55292 9.90748 0.33324 0.914176 0.335955 -0.226752
8.63136 11.9173 0.444147 -0.211818 0.0316161 0.976798
9.42105 11.6345 1.23452 -0.629793 -0.724223 0.280823
10.9469 9.55826 2.27359 -0.20053 -0.865829 -0.458397
9.62922 12.9353 14.0278 0.470403 0.38736 0.792889
11.6663 13.0593 1.65706 0.837215 0.10635 0.536434
11.3696 0.817198 1.02957 0.918016 -0.388485 0.0795351
11.5385 13.4169 2.71422 -0.499688 -0.834612 -0.231807
12.5331 12.2583 0.972211 0.706352 -0.658328 0.260136
12.3505 9.48927 4.04745 0.616523 -0.692348 -0.374904
0.121561 10.9297 2.83467 -0.390257 0.478779 -0.786429
13.6137 11.2975 0.378881 -0.366939 0.928484 -0.057208
2.01774 13.0926 11.7675 0.902721 0.297461 0.310825
2.58021 10.6415 6.39499 -0.372449 -0.893431 0.251122
12.8581 11.7155 13.4725 0.177221 -0.905213 0.386242
2.88786 13.8701 13.4346 -0.550786 -0.585864 -0.594473
0.682058 13.933 12.2917 0.110648 0.463272 0.879282
3.23752 0.824433 0.957714 0.113359 0.94788 0.297782
2.76821 2.2717 13.3552 0.589603 0.15022 0.793601
4.30376 3.08655 0.994945 -0.24156 -0.965006 0.10204
5.40797 0.503874 12.4218 -0.588261 -0.0997443 -0.802497
6.74727 11.6891 1.72201 -0.384775 0.489529 -0.782502
5.82361 1.86234 14.0476 0.618254 -0.718701 -0.318169
8.08291 0.485853 0.6852 -0.187741 0.860907 -0.472856
6.23891 12.9122 11.9453 0.119713 -0.544683 0.830054
7.05476 12.7407 0.486631 -0.730643 0.430123 0.53024
10.513 10.9467 3.27705 -0.19998 -0.938044 0.282985
10.0988 11.947 2.10637 0.144054 0.898402 -0.414877
8.50848 13.4931 0.0701772 -0.348029 -0.716187 0.604939
7.07731 13.8152 1.22645 -0.429043 0.150597 0.890642
8.21707 5.21968 13.269 0.0306161 -0.827231 0.561028
10.4646 0.122199 0.698916 0.856568 -0.499194 0.130753
9.03413 4.22413 0.263322 -0.213369 0.764755 0.607966
7.51741 11.6895 10.4085 -0.370204 -0.602018 -0.707477
12.3345 0.229371 2.08182 0.869399 0.276811 0.409293
0.0330843 13.7567 0.837207 0.787678 -0.555203 -0.267045
9.43846 4.97881 1.64923 -0.0243132 0.932764 0.359668
12.9723 13.1855 1.02749 0.83636 -0.546445 -0.0435944
0.682535 11.2397 1.55505 -0.712321 0.606305 -0.353545
2.396 10.3766 0.877849 -0.88427 0.466603 0.0186631
1.30102 3.48871 0.44986 0.915339 0.0908905 0.392293
4.6481 3.47115 2.06003 0.408985 -0.733651 -0.542668
0.990301 0.96705 11.4391 0.261127 -0.177468 0.948851
3.27341 3.59696 2.50625 0.209321 0.894455 0.395139
2.29772 1.57652 1.26652 0.0765997 0.77618 0.625842
2.93534 2.74005 0.978599 -0.502286 -0.68335 -0.529851
4.65748 2.87546 13.5335 0.721972 -0.107468 -0.683526
6.33279 2.71785 0.503727 0.483125 0.339283 -0.807142
7.31509 4.90931 10.9542 0.736883 -0.623345 0.261621
7.52202 2.59094 0.138926 0.535826 0.836267 -0.116395
8.15817 4.98802 1.65644 -0.472731 0.849355 0.23478
6.45121 4.48918 0.723142 0.181462 0.212403 -0.960186
7.20021 5.38997 0.347022 0.115565 -0.0548962 -0.991782
5.33771 13.4008 12.3228 0.166014 0.372855 0.912918
8.49874 6.10527 1.27463 0.000670098 -0.364367 -0.931255
9.18365 13.2544 1.17615 -0.0808013 0.805725 -0.586753
9.6941 0.0485191 11.311 0.304093 -0.952614 0.00733392
7.9121 3.90291 0.817496 0.0625558 0.943202 -0.326277
7.01725 3.45824 1.62912 0.278564 0.943368 -0.180162
11.4771 7.90127 1.50635 0.191116 0.906202 0.377189
10.5712 8.05172 0.724026 0.480619 0.799233 0.360878
11.6988 13.4843 13.1608 -0.141788 0.962772 0.230144
12.2502 1.31462 13.4015 0.191961 0.599495 0.777018
12.9347 3.41284 0.884943 -0.112543 -0.739534 -0.663644
11.1011 8.55524 2.84724 0.653485 -0.674854 -0.342824
10.439 2.8377 13.6693 -0.641021 0.441799 0.627619
12.7825 7.86145 2.43469 0.352062 -0.694871 -0.627062
3.73168 5.29138 0.427406 0.895933 -0.061866 -0.439859
1.96946 5.11502 0.390983 0.858614 -0.304449 -0.412423
4.0294 4.78521 1.30652 -0.724549 -0.679254 -0.116802
11.5322 9.63441 3.26005 0.40157 -0.662991 -0.63181
1.23766 3.6625 2.75673 -0.528527 -0.630064 0.568928
1.79364 6.09923 13.5354 0.326953 -0.931433 -0.159793
2.09161 1.17783 12.8476 -0.0273925 0.149822 0.988333
5.14557 7.85735 1.00003 -0.163651 -0.636409 -0.753791
5.80372 5.57501 2.02297 0.789269 -0.594831 -0.152417
5.62977 6.53865 1.37547 -0.356181 0.827279 0.434448
7.32766 4.01953 13.7253 -0.341574 -0.426117 0.837706
2.79899 9.59975 1.84424 0.945684 0.00166244 -0.325082
5.68296 5.09951 12.2448 0.687934 -0.00128054 0.725772
6.71897 6.91747 2.52312 -0.17067 0.914569 0.366653
8.77733 1.8865 14.0217 -0.0929 0.990712 -0.0992919
10.5096 8.48548 5.65854 -0.463871 -0.704587 -0.537011
6.5118 5.53191 11.7588 0.655328 -0.486448 0.577852
5.48283 7.1657 3.94029 0.257763 -0.744696 0.615619
9.72885 5.82824 0.716978 -0.155535 0.984836 0.0768498
10.3682 5.94697 2.1156 0.362029 -0.907937 -0.211151
11.4349 5.28838 1.3328 -0.0892086 0.972163 0.216658
8.60951 7.16562 11.8292 -0.866487 -0.497424 0.0420639
10.8805 4.26215 0.362291 0.143084 -0.971957 -0.186616
10.4858 6.11474 0.0598113 -0.424933 -0.824415 -0.373861
11.4646 4.85469 2.45144 -0.658515 0.444199 0.607491
1.2007 5.58483 9.1289 -0.507103 -0.149047 -0.8489
12.3368 6.4723 1.36471 -0.163765 0.874383 0.456766
13.9747 5.99602 0.858109 0.720262 -0.233669 -0.653162
0.256118 6.81159 1.45759 0.601547 -0.0266599 -0.798393
1.33787 5.13837 12.6419 0.0728741 0.878968 -0.471279
11.7647 6.03603 2.48324 0.87322 -0.232325 -0.428383
13.1546 9.66525 0.575497 0.886389 -0.0447523 0.460773
10.6707 7.57657 2.43838 -0.723831 0.632048 0.276738
3.67601 2.86445 11.926 0.0372833 -0.851652 -0.52278
3.38181 2.77371 9.92653 -0.0591336 0.292052 0.954573
12.0764 7.01855 2.82926 0.771332 -0.381699 -0.509268
5.79972 8.69223 2.77682 0.0510537 0.918702 0.391638
5.43185 6.16126 13.7812 -0.237703 -0.630974 -0.738491
8.9421 5.23817 10.9709 -0.695998 -0.376677 -0.611311
8.63307 8.4094 3.90602 -0.772933 0.0698462 -0.630632
8.31163 7.36111 3.27565 0.217134 -0.0775368 -0.973058
7.33353 9.21278 3.76471 -0.558966 -0.492179 -0.667321
8.12233 5.21997 11.8779 0.628074 -0.728892 -0.272467
9.74886 8.74798 3.60743 0.777158 -0.629042 -0.0182222
4.88689 8.95256 3.5472 0.610897 0.45163 0.650258
10.4112 6.95532 1.36838 0.154313 -0.952196 -0.263646
11.1488 7.36644 12.1902 0.876603 -0.0763886 0.475113
10.433 8.94907 0.177027 -0.869005 -0.49465 0.012328
9.94171 9.26645 1.55049 0.175218 0.856407 0.48566
9.03674 7.96888 12.7611 0.98551 -0.1404 -0.095178
9.34676 7.61097 1.82039 0.0245457 -0.977532 -0.209352
12.6364 8.28 1.50197 0.0862664 -0.818957 -0.567333
0.769556 6.67622 12.8852 -0.182889 -0.099944 0.97804
13.6866 7.44384 11.9374 0.770691 0.286223 -0.569308
2.0903 7.35206 13.0462 0.0816607 0.77829 0.622572
12.5983 9.94381 3.19569 0.380616 -0.826068 -0.415623
1.04196 9.48737 13.9495 0.361421 -0.861833 -0.355835
2.11377 10.8433 13.9857 0.659673 -0.742596 -0.115682
1.53285 8.09024 0.411621 0.495818 -0.826066 -0.267915
1.0653 10.1847 12.9716 0.0131068 -0.608138 -0.793723
6.12885 8.42385 13.0428 0.993476 0.06495 -0.0937334
13.897 11.005 11.1032 -0.594864 0.280908 -0.753145
2.54239 9.11207 11.8132 0.905687 -0.357949 0.227165
5.80075 10.1818 0.294392 0.13646 -0.90979 -0.391997
0.397843 10.0208 10.54 0.114906 -0.0739073 0.990623
2.88601 8.28339 11.1094 -0.827729 0.496384 -0.261664
5.64661 10.9519 2.62756 -0.363313 -0.877406 0.31331
5.82795 8.81184 0.917635 0.822136 0.00851508 0.569228
7.60284 7.00649 1.77188 -0.00218583 -0.673973 -0.738753
7.11614 6.00508 9.99922 0.916089 -0.180865 0.357867
7.3538 9.23136 2.54378 -0.92983 -0.0665909 -0.361915
11.8979 8.54034 0.694985 -0.493482 -0.777062 -0.390704
8.39233 8.33749 2.48967 -0.797143 0.214131 -0.564545
6.20536 8.09018 0.0184712 -0.685092 -0.650513 -0.327844
11.2014 9.95141 0.971998 -0.982733 -0.131267 -0.1304
7.97509 12.1386 8.66775 0.115423 -0.0775981 0.990281
13.6426 10.5415 1.4448 0.799917 -0.150992 0.580805
9.98748 10.8093 1.34824 0.635974 0.765238 0.0997383
8.85973 7.96291 0.832526 0.0539411 0.975449 0.213515
12.2952 11.183 1.54353 0.698762 0.228661 0.677824
13.1808 10.1037 2.24662 0.0881731 0.682314 0.725722
12.1344 10.4551 2.32678 0.111371 0.839102 0.532451
12.4899 13.1006 3.22091 0.00385085 0.914991 0.403456
0.588956 8.85055 2.1388 -0.999222 -0.0249241 0.0305645
1.93744 9.11744 12.8982 -0.811936 -0.453618 -0.36741
