15.7861 15.3638 7.24254 -0.65469 0.545511 -0.523258
18.6905 15.6961 17.5669 -0.66459 0.217283 0.714919
14.071 13.1702 18.2464 -0.428446 -0.577524 0.694911
18.9101 15.1711 5.19408 0.786683 0.124475 -0.604678
20.877 16.5778 5.3985 0.977471 -0.206462 0.043867
21.2388 14.2068 12.8575 -0.40158 -0.232117 -0.885921
23.7193 15.3999 18.3259 0.238809 0.529796 -0.81381
11.3233 13.116 18.2328 0.474687 0.400569 -0.783719
21.0407 15.2194 15.7394 0.271414 0.541826 -0.795461
22.9825 11.984 8.39439 0.797136 0.536573 0.276881
22.875 15.9636 17.2708 0.0375148 -0.624391 0.780211
10.9825 14.3745 18.0489 -0.226792 0.600888 -0.766485
20.8462 16.5223 16.3673 0.343313 -0.0921849 -0.934686
23.2464 23.3488 5.64447 0.735268 0.347171 -0.582111
22.362 14.9261 7.71219 -0.838571 0.0839595 0.538284
22.7431 14.4098 8.47296 -0.141375 0.701127 0.69888
23.1908 16.0281 7.66269 0.543754 0.393312 0.741376
12.0376 16.7197 5.21119 0.601384 0.229852 -0.765183
12.6534 17.9057 17.5052 -0.479271 -0.286297 0.829659
22.9845 18.3175 5.22756 -0.811763 0.581576 0.0530146
12.887 16.5846 7.09342 -0.474998 0.779237 -0.408861
14.3845 14.6224 18.4172 -0.0786245 0.920962 -0.381637
14.4576 16.9628 17.0036 -0.686143 -0.504687 -0.523926
12.9308 15.0516 18.2046 -0.708932 -0.690788 -0.142219
11.8521 18.8669 10.1494 0.708971 -0.699301 -0.091311
14.7074 17.3534 6.29759 0.441751 -0.255441 -0.860003
13.8158 17.8242 17.0528 0.386188 0.785296 -0.483911
17.6212 14.4344 5.33357 -0.0795544 -0.808816 0.582656
16.2285 16.6719 17.2908 0.272319 -0.956044 0.108731
18.5669 14.6291 17.6338 -0.737272 0.448453 -0.505292
15.0295 19.7846 17.411 0.763232 -0.638396 0.099638
15.0613 14.6288 17.5022 -0.370948 0.922761 -0.10445
21.2332 14.1436 15.4577 0.459549 0.742052 -0.488031
20.1586 13.5927 16.7077 0.229065 0.679821 -0.696687
16.7079 18.5245 17.1437 -0.0363001 0.973829 0.224366
21.0795 13.9086 5.35687 0.761558 -0.230251 -0.605817
19.0148 16.2588 16.0457 -0.362942 0.931626 -0.0185726
23.1108 14.4477 18.1566 0.19876 0.206772 -0.957987
23.8811 16.7786 18.0396 -0.725863 0.633573 -0.267783
20.8966 19.4193 18.0612 -0.509212 0.608031 -0.609099
19.2088 17.8981 16.0278 0.613216 -0.779126 -0.130112
21.5402 15.6061 6.10494 0.414965 -0.049863 0.90847
22.6978 16.6017 17.9591 0.594598 -0.489235 0.638046
21.1828 17.593 16.982 0.134826 0.219885 0.966164
22.9263 21.8718 9.24759 0.522927 0.751523 0.402195
13.0119 17.1259 16.5727 -0.78012 -0.42666 0.457574
14.5483 18.5963 5.28569 0.11976 0.364817 -0.923345
12.9378 16.075 17.5473 -0.991231 -0.00675572 0.131965
12.7438 19.9586 6.66185 -0.197013 0.157759 0.967625
13.1894 19.1208 17.902 0.804145 -0.441763 -0.39774
12.6801 18.3237 6.11634 0.13613 0.0925856 -0.986355
14.6304 14.8053 16.3746 0.387742 0.465771 -0.795433
12.9376 20.3396 18.1413 0.814416 -0.392237 -0.427642
15.2146 16.3076 17.3554 -0.392531 -0.17901 -0.90215
14.8643 20.2776 16.4141 -0.0697957 -0.996827 0.0382716
15.7813 19.8273 16.237 -0.325548 -0.489222 -0.809123
17.5635 21.7112 17.5454 0.293001 -0.77317 -0.562457
17.4299 17.2788 5.54419 0.42559 -0.138442 0.894264
19.656 20.9942 17.3686 -0.429793 0.610025 -0.665693
19.5638 18.7046 16.7997 0.544611 -0.645861 -0.535035
17.3485 22.2274 6.60735 -0.897908 -0.221793 0.380222
19.3981 18.1058 17.6921 -0.195638 -0.567521 -0.799778
19.7416 22.042 5.91633 -0.997104 -0.0716049 0.0256174
19.7724 19.5792 18.3346 0.731862 -0.424907 0.532759
20.1951 18.4996 10.4743 -0.171498 0.510493 0.842606
19.218 17.0742 7.1834 -0.135925 0.74724 -0.650505
20.653 19.4092 7.07867 0.94926 -0.263408 -0.171819
21.4669 16.4886 17.5925 0.558525 -0.701414 -0.442797
23.0908 18.4895 17.5365 -0.738464 0.669591 0.0794904
22.6471 17.7832 6.13689 -0.735303 0.365964 -0.570438
23.2655 17.1194 5.57885 -0.752646 0.365312 -0.547788
22.3121 19.7026 18.371 0.913165 -0.337635 -0.228326
21.5281 21.5025 17.8092 -0.22921 0.168631 0.958659
15.1489 20.7356 5.46892 0.717305 0.102759 0.68914
11.0871 20.8916 18.137 0.0455157 -0.558534 0.828232
11.1307 18.637 17.6108 0.0683408 -0.685914 -0.724466
13.0196 22.371 6.43387 0.210459 0.882647 0.420287
12.576 19.4437 8.67443 0.249036 -0.0352364 -0.967853
15.0445 22.8951 6.05472 -0.684624 0.480119 -0.54843
14.7412 22.3912 15.0768 -0.530383 -0.673583 0.514762
14.7168 22.25 17.0288 -0.840405 0.0155063 0.541737
15.9681 20.5993 14.1839 0.21462 0.199195 -0.956169
14.0194 22.737 18.2615 -0.429483 -0.723693 0.540197
15.506 21.6598 17.4372 0.0961986 0.921926 0.375231
13.7119 21.5003 6.75424 0.840599 0.537829 -0.0642926
17.6015 21.4339 5.35103 -0.97163 -0.232694 0.0422989
18.4608 22.1256 17.0035 -0.515244 -0.626034 -0.585325
18.767 21.264 17.7022 0.478498 0.801625 0.358381
18.6207 11.3016 17.325 -0.611478 -0.17942 0.770651
20.056 20.6013 5.65291 0.681865 -0.694956 0.228245
18.7951 21.8422 6.90478 -0.7343 0.561466 0.381522
18.6179 18.9652 5.17134 -0.306258 0.796028 -0.522058
20.16 20.5513 6.9814 0.804582 -0.454425 -0.382289
21.403 22.0607 16.5065 -0.199552 -0.487849 -0.849813
21.5286 20.1114 16.3567 -0.323191 0.908813 0.26383
20.4532 21.3062 18.2528 -0.512908 0.854699 0.0800974
21.7425 21.2118 6.56846 0.271832 0.158727 -0.949165
21.8883 20.6047 17.8992 -0.694026 -0.385406 -0.608104
22.7027 20.9231 6.76327 0.155801 0.514693 -0.8431
22.4371 21.88 17.438 -0.139209 0.116878 -0.983342
11.9547 22.1648 17.4584 0.996687 -0.0350739 0.0733747
14.2531 23.2105 16.8755 -0.821026 -0.3469 0.453406
12.0132 23.0956 17.7035 0.79383 -0.0342881 -0.607173
12.2975 21.0363 17.587 0.337311 -0.574917 -0.745447
11.4072 12.6573 16.7869 0.159082 -0.368696 0.915837
14.5651 23.0802 6.89344 -0.761831 -0.634779 0.129106
12.3315 13.65 15.9614 -0.264768 -0.43166 0.862304
15.3373 24.413 17.5631 -0.14514 -0.9535 0.264143
16.3535 11.7547 5.71538 0.476313 0.620852 -0.622631
15.1065 21.9924 7.3464 0.371228 0.926891 0.0553466
20.2381 11.6358 16.2132 -0.182946 -0.303398 0.935137
15.6383 22.8743 15.5922 0.837076 0.141302 -0.528523
17.8643 11.4586 7.13796 -0.903314 0.0808105 -0.4213
18.6465 23.5103 17.4952 -0.7606 -0.429781 0.486596
18.9707 19.8845 5.69217 0.13537 -0.905388 0.402427
18.2411 22.5538 5.36333 -0.930503 -0.278266 0.238185
17.1579 11.5341 18.0545 0.320664 0.797792 -0.510591
19.8627 23.0864 17.6388 0.0144957 -0.999168 -0.0381302
20.0147 14.5563 17.275 -0.0638439 0.358185 -0.931465
18.3783 24.1819 6.39833 -0.397133 0.404686 -0.82372
23.2102 12.2793 6.54076 -0.860076 0.496249 0.118349
21.4389 22.7602 8.67896 0.145702 -0.863578 0.482705
23.5086 21.4879 18.3532 0.116903 -0.423618 0.898266
23.5174 23.3411 16.0371 -0.881501 0.250767 -0.400089
21.8831 24.1589 7.3514 -0.200605 -0.958008 0.204886
11.5877 19.4352 17.197 -0.025633 0.487766 0.872598
23.7608 23.5558 17.4536 -0.817815 0.509483 0.267591
21.9674 23.7343 17.1388 -0.966194 -3.13898e-05 0.257816
11.9023 13.4079 10.7658 -0.979636 0.178388 -0.0921495
11.9446 20.7505 7.73694 -0.218408 -0.497479 -0.839531
12.2533 23.9604 18.11 0.526721 0.330615 -0.783108
15.5943 22.8518 9.01308 0.583515 0.184158 0.790946
15.3508 11.5942 7.27758 -0.471319 0.881954 -0.00389927
13.8814 21.7338 11.0614 0.684881 0.720205 0.110652
16.5875 24.3328 17.2823 -0.505313 -0.663008 0.55234
11.0652 11.4189 18.1152 -0.993889 -0.103317 -0.0388505
13.8179 12.293 7.61895 0.668535 -0.743553 -0.0137792
19.0687 13.3443 7.01516 -0.47671 -0.68922 0.54564
15.2889 13.6502 5.22112 0.404868 0.914367 0.00389208
19.2017 12.3759 16.3336 -0.361811 0.439506 0.822148
15.4322 14.6958 9.09279 -0.880817 0.0501928 -0.47079
19.154 12.5699 8.25878 -0.42895 -0.903248 0.0120213
16.8 15.4849 5.20617 -0.579161 -0.622924 0.525869
18.8327 12.3915 6.33087 0.844368 0.535315 0.0219423
18.5806 14.0916 8.47064 0.349175 -0.824489 0.445303
19.7888 12.2118 7.51083 0.929145 0.0907482 0.358405
19.2313 13.0752 18.0093 0.215999 0.733471 -0.644488
20.0977 11.7993 6.552 -0.791681 0.0255112 -0.610401
19.4245 14.7598 7.85933 -0.32284 -0.946327 -0.0154851
21.2984 11.875 8.53996 -0.105257 -0.538888 -0.835775
22.4919 13.082 17.2539 0.979805 -0.195208 -0.0433135
20.4963 13.4325 7.79833 0.695184 -0.559556 0.451238
22.6182 11.9091 5.72345 0.960767 -0.276142 -0.0259126
11.5312 22.7438 9.02837 -0.414967 0.90581 -0.0855085
20.7103 23.3202 18.3277 -0.093264 0.986222 -0.136633
11.2463 21.9739 7.15665 0.685419 -0.708548 -0.167812
21.7802 13.1378 13.7943 0.548304 -0.307172 -0.777822
23.1434 12.1638 9.70069 0.350271 -0.677547 -0.646714
12.1784 24.2698 7.75405 -0.671014 -0.118742 0.731874
11.8128 11.3784 5.88106 0.788193 -0.572014 0.227051
11.424 12.5086 8.39248 -0.270488 -0.361537 -0.89226
12.7111 12.5164 5.83849 0.231839 0.722143 -0.651737
11.3896 16.4069 8.99208 0.443613 0.0633598 -0.893976
16.2578 12.4474 17.7085 0.640595 -0.0742704 -0.764279
13.9443 13.6674 10.4534 -0.203905 0.373499 -0.904943
16.9695 12.1918 8.07121 0.132595 -0.752606 0.644982
15.3447 15.1396 5.83763 0.181234 -0.395993 0.900191
17.3572 13.8296 17.1249 0.220063 0.848851 -0.48065
17.8421 15.8741 11.8349 -0.588094 -0.327648 -0.739454
17.2942 12.0229 15.0052 -0.0798647 -0.929733 -0.359468
19.1682 16.244 18.3846 0.805906 -0.0597055 -0.589025
16.3057 13.4544 17.5096 0.198369 0.13207 -0.971189
17.0321 16.2494 9.67652 -0.90772 0.41409 0.0676285
17.6356 13.9522 8.63215 0.445514 -0.694853 0.564532
20.4388 15.0555 6.11578 0.552207 0.29215 0.780843
19.1625 14.8141 6.24769 0.678726 0.665772 0.309966
21.7757 12.206 17.32 0.220687 -0.225789 -0.94885
21.1027 14.3109 7.86459 0.835975 -0.39886 0.376903
23.5369 12.492 18.2775 -0.504161 0.335283 0.795869
22.2569 24.2333 6.24363 -0.568207 -0.598187 -0.565079
20.3505 13.278 18.1535 0.299915 0.566546 -0.767514
14.4769 12.3607 8.67832 -0.346264 0.810049 0.473204
21.411 13.0917 5.89284 -0.875525 -0.413839 0.249387
23.6635 14.0913 6.78464 0.05164 0.0348654 -0.998057
22.024 16.2329 7.79036 0.762796 0.642999 0.0685159
13.1601 14.0457 10.8669 -0.244714 -0.129672 -0.960885
11.681 16.3821 6.95346 0.127605 -0.78031 -0.612236
23.9367 15.6323 8.79347 0.886964 -0.0852107 -0.45391
23.7179 19.3594 9.4178 -0.330278 -0.903681 -0.27254
14.5987 16.6226 9.87033 -0.935445 0.285038 -0.209036
14.4977 15.2547 6.97296 0.0339095 0.0298388 -0.998979
12.9294 14.8873 7.3541 -0.68189 -0.50131 0.532648
14.4507 16.1572 7.77129 -0.877676 -0.197842 0.436513
17.5691 13.3181 7.25951 0.449865 -0.871281 -0.196188
15.9396 18.2585 17.8837 -0.858305 0.185479 -0.478445
15.7742 15.8731 16.5095 -0.377486 -0.899543 0.219833
17.1408 18.4538 6.29927 0.68776 -0.13367 0.713525
18.2886 15.6747 6.46527 -0.834761 -0.0336793 0.549581
17.9348 16.1955 17.0709 0.732366 0.622546 -0.275818
20.6538 16.1535 6.33701 0.701196 0.286538 0.652856
16.992 15.2057 6.292 -0.666067 -0.53839 0.516229
19.0181 13.6297 9.73165 -0.975931 -0.0640144 0.208473
18.7337 16.8843 6.23985 -0.394991 -0.480145 0.783226
21.8088 14.9307 18.1611 -0.540111 -0.210399 0.814869
20.8116 15.3873 10.6275 0.541633 -0.804592 0.243444
22.7482 13.6466 6.81673 -0.691035 0.529874 0.491634
23.7121 13.5313 17.9545 0.497704 -0.0409471 -0.86638
21.4316 11.5872 6.5001 -0.19401 -0.980352 -0.0356373
23.2628 16.4929 9.81547 0.199245 -0.899808 0.388132
11.9045 12.4416 11.1763 -0.040995 0.079378 0.996001
21.8178 14.526 6.38739 -0.360793 0.332719 0.871279
16.1166 15.2513 15.7958 -0.593765 -0.781197 0.192807
11.2968 19.7631 7.84671 -0.717001 -0.319569 -0.619504
10.9077 17.4939 8.33497 -0.0324185 0.863056 0.504067
23.5308 19.2374 17.0239 -0.609476 0.622719 0.490673
12.1728 18.4106 8.60461 0.551859 0.185976 -0.812936
11.321 17.2796 10.1217 0.779812 0.457937 -0.426834
13.9405 17.0652 10.6836 -0.663036 0.704524 -0.253041
12.9767 17.3881 5.3869 -0.483043 -0.54911 0.682018
15.3847 17.4618 7.09626 0.677792 0.401823 -0.615741
12.1508 17.758 10.8362 -0.822191 0.53165 -0.203349
15.5995 18.2732 5.73518 -0.447911 -0.567911 -0.690545
14.7158 16.3499 5.25864 -0.567082 0.326657 -0.756117
16.2779 15.895 6.27803 -0.380268 0.0258809 -0.924514
13.7895 18.4586 7.15637 0.576297 0.475508 -0.664661
12.9312 16.7139 8.15463 0.576428 0.804465 0.143411
18.1244 17.0648 17.7569 -0.2973 -0.517762 0.802206
17.4861 16.3768 7.72905 -0.0422185 0.991002 -0.127012
18.4221 18.137 17.8121 0.0918813 0.584609 -0.806096
19.2973 16.0769 6.81363 0.415789 0.638886 -0.647259
21.3061 15.2585 17.0968 0.534708 -0.664096 -0.522554
21.1463 18.6882 14.9469 -0.157976 0.825384 -0.542019
20.1186 17.4221 17.5108 -0.159139 0.0587456 0.985507
19.8257 17.2983 8.11334 0.293071 -0.936217 0.193926
20.5756 18.3842 17.7017 0.0898761 -0.0231788 -0.995683
23.033 15.9484 6.16076 0.523252 -0.764005 0.377497
20.9952 17.1417 8.99793 0.411833 -0.473129 0.778808
22.5898 17.6395 7.35156 -0.822626 -0.568051 0.0245892
11.2551 17.5232 6.73807 -0.617235 0.143649 0.773554
23.7811 18.1855 6.18938 -0.514349 0.698717 0.497233
11.9714 20.2668 5.99544 -0.361244 -0.843043 -0.398475
15.4901 19.2698 5.33045 -0.882116 0.154425 0.444999
11.3992 18.4805 6.51026 -0.509673 0.276711 0.814656
11.3962 17.5696 18.0075 -0.0874511 0.84737 0.523752
13.4197 20.2498 7.73166 -0.200036 -0.226777 0.953183
12.6597 17.364 9.01579 -0.479 -0.80411 0.352089
16.216 16.8548 6.63774 0.935815 0.239912 0.258247
14.1197 16.5089 6.83887 0.164258 -0.511923 -0.843181
15.0602 20.7627 8.5213 0.467093 0.634532 -0.615787
15.5985 19.6271 6.26348 -0.612256 -0.463114 0.640834
16.4164 22.6379 17.5008 -0.112779 -0.545437 -0.83053
17.1002 19.6352 18.3247 0.519268 0.272892 -0.809871
16.9989 20.6285 17.4898 -0.112336 -0.115821 0.986897
16.6054 17.6036 7.88588 0.625416 0.652363 0.428109
18.9426 20.3853 16.7556 0.700127 -0.48637 0.52275
17.7176 18.152 16.9066 0.308603 0.103667 -0.945525
18.9256 21.241 8.4562 0.297158 -0.766759 -0.569014
19.7741 17.2453 9.15065 0.629053 -0.773296 0.0794105
20.3393 22.9056 6.41681 -0.575648 -0.604126 0.551055
20.4189 17.2649 6.30772 0.295384 0.393204 -0.870712
21.1841 19.9882 7.63979 -0.624609 -0.337682 0.704155
18.0025 20.3695 5.65883 -0.202133 0.261694 -0.943747
23.1577 19.9461 6.70713 -0.927874 -0.270236 0.256948
19.3075 18.8334 6.97679 -0.411653 0.889357 -0.198959
21.4611 18.998 7.83609 0.752583 0.634991 -0.174369
19.8797 18.5853 6.19121 0.243969 0.962916 0.115202
22.1495 19.3045 6.03966 0.969759 0.220488 -0.104655
22.3823 18.4987 7.79446 -0.664806 -0.631954 0.39833
12.3093 19.8956 12.074 -0.866668 -0.0320262 -0.497856
11.4885 18.4628 7.8873 -0.399647 0.642263 0.654049
13.047 21.1257 8.41181 -0.380097 -0.653493 0.654579
12.8772 19.4461 17.0143 0.585299 -0.595794 -0.549959
12.778 22.0735 9.17585 0.267011 -0.921027 0.283575
16.3482 19.4352 11.3655 -0.312734 -0.320977 -0.893964
15.8019 12.4122 7.91835 -0.296234 -0.795366 0.528808
16.522 22.2765 7.7714 -0.343792 -0.861707 0.373186
13.3017 21.3386 17.8268 0.000300098 -0.103085 0.994672
17.2557 19.8116 10.6873 -0.769239 0.576262 0.276032
15.2047 20.2515 7.08673 -0.381662 0.0196105 -0.924094
16.4534 21.5234 17.576 -0.196736 -0.537721 -0.819848
16.7518 24.0753 7.65002 -0.207769 0.0624953 -0.976179
18.803 20.8122 6.31424 -0.756991 0.63655 -0.147543
20.973 12.5631 16.6607 0.0629427 -0.191897 -0.979395
17.3705 20.8028 6.6829 -0.340913 0.756068 -0.558695
19.8097 21.7954 9.02233 0.0731892 0.285482 0.955585
19.4775 20.8603 9.57057 0.914182 0.132805 -0.382927
17.674 22.8799 16.6743 0.371865 -0.0594264 -0.926383
22.4383 20.3716 5.91261 -0.985871 -0.0465868 0.160898
20.6385 21.2154 6.30056 0.60992 -0.384865 -0.692731
20.9763 17.8444 10.5719 -0.347578 0.158408 0.924174
23.3894 22.0016 6.8413 0.248544 -0.961751 0.115153
21.5858 18.8417 17.5542 0.403119 -0.704427 0.584189
20.8922 22.0679 6.99114 0.658978 -0.0199206 -0.751899
12.1397 19.1469 6.89333 -0.155103 0.0123958 0.987821
21.6597 21.7354 8.03983 -0.028873 -0.65966 0.75101
22.4454 21.8641 6.98431 0.148653 -0.366483 0.918473
23.2828 22.7363 17.8468 -0.946061 0.213154 -0.243996
11.5911 21.98 8.1414 0.992317 0.0275399 0.120617
13.3968 23.4726 5.71883 -0.493241 0.781918 -0.381206
12.1896 22.9586 5.86691 -0.356027 -0.593118 -0.722119
12.7822 23.5786 7.98817 -0.717166 -0.654713 0.238795
13.4295 22.377 10.1114 0.223344 0.970222 -0.0937371
15.3208 12.5149 6.25548 -0.0514692 -0.98048 0.189763
14.352 21.2873 17.1487 0.499787 0.145337 0.853868
14.3071 23.7423 13.1838 0.388468 -0.479235 -0.787037
16.0663 20.9636 7.26716 0.331977 -0.685496 0.647987
15.8272 23.1459 16.6587 -0.685191 -0.197703 0.701018
15.9891 22.3082 5.66296 -0.331888 0.83823 -0.43269
17.3399 23.8196 6.41847 -0.131749 0.805569 -0.577669
16.0887 23.5183 6.14978 -0.00333057 -0.479599 0.877481
18.6378 23.6987 5.40566 0.497461 0.492462 -0.714152
16.7132 20.9916 15.4119 0.0968358 -0.468928 -0.877912
17.8335 24.3598 8.5012 -0.134296 -0.820352 0.555866
19.4924 23.8954 6.44844 0.436347 -0.575388 0.691759
19.3454 12.0085 17.5796 -0.61966 -0.276498 0.734555
18.4941 18.7531 7.65324 0.409907 -0.674535 0.613986
20.2041 23.7998 15.8785 -0.8589 0.260087 0.441185
20.8031 23.2686 7.37634 -0.206444 0.7814 -0.588893
19.97 23.1228 16.6993 0.99028 0.136991 -0.0240577
21.8648 24.1767 8.75035 -0.415868 0.597829 0.685313
19.8429 11.1668 7.33687 -0.822347 0.271587 -0.499986
22.7677 22.5772 7.73441 0.531185 -0.347941 0.772515
23.3286 22.2902 5.68717 0.795616 -0.294757 0.529257
13.4423 22.8016 11.2505 0.763239 -0.0518481 0.644033
14.8549 13.4328 9.95712 -0.747773 -0.663825 -0.0130983
11.9533 11.7183 8.99961 -0.0106802 -0.0814005 0.996624
15.2015 14.5843 7.78982 -0.66151 -0.436069 -0.610121
12.9191 11.8827 7.78377 0.392893 -0.450217 0.801835
14.8386 13.7639 8.97358 -0.916529 0.318666 -0.241714
14.5709 11.6239 13.1436 0.497011 -0.614188 0.612987
11.7742 15.1471 7.22016 -0.400891 0.744077 0.534449
15.3104 22.9519 10.7566 0.573421 -0.808876 0.130031
15.3169 12.6259 9.46068 0.0576004 -0.186571 0.980751
15.596 22.0189 10.0237 0.922916 0.23118 -0.307867
17.2919 13.0605 9.62693 -0.628747 0.77761 -0.000648531
16.6405 22.5665 11.0981 -0.243149 -0.0870424 0.966076
18.1816 14.7634 7.16394 0.982895 -0.15874 -0.0933778
18.5885 23.3717 8.98318 0.536555 0.84094 0.0702053
18.2726 13.3284 6.22478 0.0735055 -0.544064 -0.835818
18.4671 22.9934 8.01219 0.0202732 0.999788 -0.00362886
20.1807 14.7859 8.53077 -0.519726 -0.802171 0.29395
21.4245 23.3184 10.8948 -0.90682 0.276425 -0.318223
16.6852 13.5925 8.05451 0.547078 -0.582558 0.601109
19.7674 24.2867 5.28005 0.0681842 -0.997628 -0.0094546
23.5452 23.4932 11.7265 0.38299 0.504082 0.774093
22.29 12.3928 8.95645 -0.0295535 -0.779949 0.625145
20.8783 13.2852 9.64428 0.096646 0.561713 0.821668
22.2008 12.8623 7.51795 -0.767594 0.639207 -0.0470543
23.4706 13.106 9.29701 0.443497 -0.0942918 0.891302
23.7839 11.1586 11.2224 -0.628941 0.777411 -0.00812631
22.5959 12.2569 14.0181 0.591544 0.474924 -0.651554
22.993 24.161 7.40842 0.527539 0.611233 0.589997
13.3355 13.149 8.5078 0.23014 -0.938449 0.257585
13.7127 11.4485 10.5485 -0.269098 -0.96309 0.00662359
12.0824 14.4791 8.99918 0.960112 -0.27871 0.0225083
14.0981 23.6714 8.41588 0.104335 -0.992063 0.0701797
14.4951 14.034 12.3717 0.383796 -0.0864405 0.919363
13.9896 14.0091 7.90211 0.267854 -0.959187 0.0906364
14.11 14.3306 6.35537 0.95831 -0.0695447 -0.277137
11.6354 13.3725 7.40977 0.266165 -0.963199 -0.03747
14.9178 13.6778 10.9037 0.119939 -0.986942 0.107516
17.1195 13.6855 13.48 -0.220462 0.51878 0.825993
16.5473 12.5131 8.95315 0.655444 -0.579796 0.483972
16.017 24.0381 9.18634 -0.867036 -0.437368 -0.238659
15.6672 15.5533 9.59946 0.953487 0.0196564 0.300792
20.2346 14.0482 10.7813 -0.0790525 0.892431 -0.444205
16.9638 16.467 5.87605 -0.588393 0.0610534 -0.806267
16.1402 14.075 8.63308 -0.849196 -0.252001 -0.464071
19.1761 14.9725 13.6008 -0.192033 -0.75631 -0.625395
21.335 11.6319 10.5567 -0.539784 -0.628194 0.560363
20.6072 16.2236 7.53038 -0.440252 -0.830377 -0.341545
19.7206 12.0764 9.42675 0.0452749 -0.93556 0.350254
20.1018 19.1884 14.7259 -0.17736 -0.625036 -0.76018
22.7805 13.7643 9.75879 0.600109 -0.302463 0.740531
18.7474 15.6068 8.3016 0.379774 -0.79283 0.476647
20.9936 14.1168 8.86384 -0.73143 -0.662204 -0.162775
21.8731 14.1117 10.295 0.699319 -0.459373 0.547658
11.0511 12.0774 9.35727 -0.133596 -0.4823 -0.865759
10.9175 14.0349 11.4478 0.945248 -0.280869 0.166188
12.555 12.4541 8.88967 0.0857824 -0.292519 0.952404
22.4202 18.3479 11.7944 0.162997 0.81316 -0.558751
12.2289 14.3825 10.6851 -0.260208 -0.338538 -0.904259
11.5823 17.1537 11.7223 0.758324 0.645415 0.0915668
24.0898 13.3883 8.23077 -0.722174 -0.28284 -0.631242
15.7826 13.9903 11.9208 -0.850417 -0.515159 -0.106778
13.8187 15.8512 11.0243 -0.778767 0.593258 -0.203879
14.3173 15.6709 10.0496 0.806982 0.0887806 0.583865
13.088 15.1588 8.50805 0.969869 0.0974937 0.223268
13.8905 17.1976 11.6737 0.794846 -0.604547 0.0523833
16.391 14.1403 10.4393 0.393195 0.918811 0.0343989
15.7195 15.9613 8.06108 0.76574 0.444722 -0.464613
16.9641 15.2362 8.95663 -0.245725 0.226073 -0.942608
16.034 16.7758 10.7255 -0.718039 -0.48383 0.500328
19.5745 13.148 11.9897 0.0595153 -0.621224 -0.781369
17.8034 18.2848 5.58796 -0.504312 0.528312 -0.683049
18.4046 14.4822 10.2337 -0.880468 -0.127966 -0.45651
19.9592 15.7377 9.15619 0.640553 -0.519985 0.565073
20.1323 14.3484 13.541 -0.193229 0.632741 0.749868
21.3843 16.1558 8.69463 0.354912 0.870771 -0.340287
21.8445 13.2094 9.52689 0.257698 -0.162146 0.952523
19.3257 16.4762 10.3111 0.275147 -0.421743 0.86396
20.8471 15.0405 13.4904 -0.38839 -0.121726 -0.91342
22.5795 16.6859 6.82623 -0.829285 -0.224162 -0.511896
21.413 13.295 11.0907 -0.209819 -0.604046 -0.768833
20.5269 18.3156 8.82761 0.964719 -0.183776 0.188527
10.9062 13.8436 9.45812 -0.585225 0.63113 -0.509103
23.5653 18.3757 10.8119 0.625001 -0.758669 0.183834
23.1063 18.0516 8.28424 0.583591 0.798408 -0.148207
11.2107 20.0477 12.5011 -0.815447 -0.439317 -0.376892
23.2169 16.6866 12.0811 -0.132277 0.974604 0.180695
13.5415 17.8256 6.29032 0.13061 0.483449 -0.865574
22.6639 16.267 8.72616 0.626099 0.778988 0.0343033
23.2949 20.5185 10.2337 -0.300203 0.93774 -0.174704
23.9511 17.888 9.62168 0.0246788 0.874012 0.485278
14.1794 17.5165 18.4166 0.317068 0.465886 -0.826086
13.8795 17.5828 9.12825 0.54313 -0.54529 -0.638489
15.444 15.731 12.9346 0.108059 -0.472132 0.87488
15.9866 17.8784 10.0455 0.666331 0.665279 -0.336759
14.8534 18.1787 7.50938 -0.150523 -0.282411 0.947411
17.4987 17.0732 16.8681 0.418174 0.368926 -0.830074
15.2941 17.5682 9.34223 0.898541 0.032182 -0.437709
16.7953 16.7779 13.5001 0.28187 -0.311204 -0.90758
18.2151 17.7564 8.694 -0.427035 0.283056 -0.85879
18.4606 16.3933 8.99683 0.607432 -0.59274 0.528853
18.7786 17.224 11.0916 0.981693 -0.0797837 -0.172955
19.8796 17.3847 10.1194 -0.854593 0.51852 -0.0284218
19.325 19.4453 7.97705 0.880358 -0.397465 0.258827
18.2638 18.8799 6.28263 -0.396563 0.636584 -0.661437
21.4156 19.5171 13.6417 0.720032 0.693167 0.0327622
23.7927 15.7769 11.0063 -0.706487 -0.683571 0.183321
21.1993 16.4706 10.8641 -0.660046 0.686564 0.304909
22.1866 16.7143 9.44015 0.203704 -0.823001 0.530258
20.193 18.9227 12.8493 -0.500948 0.339179 0.796247
22.8262 17.6063 10.9839 -0.519812 0.813964 -0.259342
20.6968 18.3579 6.70841 0.488994 -0.172324 -0.855096
11.5847 19.8673 9.23229 -0.295137 -0.947693 0.121544
24.0509 20.2568 8.58499 0.566839 0.822727 0.042586
23.973 19.2525 11.2079 0.899 -0.397675 -0.183449
13.8679 20.1788 5.4535 0.716278 -0.491829 -0.495025
14.1677 18.9463 9.72247 0.596718 0.456021 -0.660282
12.7846 18.9575 10.7538 0.242791 0.430504 -0.869321
15.3093 18.0378 13.1588 -0.533201 0.0780951 0.842376
13.3979 19.0902 9.04865 0.663238 0.672619 -0.328175
17.2785 18.0296 9.24376 -0.724316 -0.637427 0.262781
14.549 20.02 11.6766 0.544708 -0.153835 0.824395
13.9425 18.8699 8.16345 0.425941 -0.515686 0.743399
16.2282 21.5157 11.6901 0.437913 -0.448757 -0.779006
15.6625 17.7289 8.20057 0.402857 0.915233 0.00747022
16.3304 19.632 9.6739 0.295746 0.845859 0.443911
17.6432 17.1806 12.6423 0.143196 -0.428919 -0.891921
17.2382 19.4549 6.72284 0.0146556 -0.604432 0.796522
17.9577 17.65 14.4989 -0.44932 -0.0508447 0.891923
17.8091 18.3519 10.0583 -0.489524 0.831916 -0.261311
19.9419 20.0868 12.9196 0.0746158 0.633739 0.769939
19.5654 19.2951 9.40704 -0.64517 -0.167657 -0.745417
18.5136 17.3236 7.74583 -0.507555 0.320397 -0.799834
21.2281 21.489 13.4489 -0.639736 -0.0515937 -0.766861
22.8502 19.1501 13.4605 0.944433 0.323452 0.0585225
21.6134 17.5898 11.4967 -0.30876 0.653963 0.690652
21.75 18.1916 7.00047 -0.756782 -0.404799 0.513244
22.4922 20.9336 16.55 -0.135506 -0.669033 0.730776
21.536 17.3125 5.90838 0.236231 0.0694369 -0.969213
23.7453 20.4662 7.69066 -0.736725 -0.676186 -0.00274989
12.1788 20.1085 10.3828 0.193281 0.662627 -0.72358
13.3813 21.9307 13.4737 0.774801 -0.472535 -0.419993
13.7911 20.6837 12.7641 0.89359 0.0411905 -0.44699
11.7993 22.303 6.41162 -0.301285 0.782293 0.545201
10.8992 19.2889 6.12135 -0.552251 -0.328239 -0.766341
10.9938 22.6436 11.1164 -0.594374 0.247036 -0.765306
14.218 21.4249 7.98224 -0.0695273 -0.976319 0.204859
15.3588 21.3579 9.30787 0.31743 0.592993 -0.739998
14.2186 21.1504 5.86325 -0.110556 0.465439 -0.878148
14.6542 19.4565 10.5603 0.0425099 0.708374 -0.704556
15.6924 20.2876 9.24583 -0.493494 -0.762028 0.419258
15.6758 19.4298 8.45418 -0.77857 -0.491531 -0.390161
15.9207 20.7006 18.0635 0.235199 -0.938282 -0.253591
17.1326 21.7195 10.3561 0.725677 0.432163 0.535377
17.1441 20.5119 13.2852 0.318383 -0.541276 -0.778236
17.3714 19.9749 8.02608 -0.664928 -0.745958 -0.0376326
16.3701 19.9953 6.88465 -0.255791 -0.605744 0.753423
17.9257 22.3612 12.7857 -0.206832 -0.977302 -0.0458463
20.9006 20.244 9.12017 0.115318 0.436887 -0.892094
18.1912 19.6733 8.54574 -0.410726 -0.82922 -0.379075
18.265 20.9877 7.28065 -0.692406 0.718746 0.0630811
18.5302 23.6546 15.4307 -0.0658297 -0.220294 0.97321
20.7213 20.8429 15.8066 0.279048 -0.722704 -0.632322
19.8091 20.3049 8.52345 0.647518 0.234466 -0.725084
21.7272 19.9496 8.45432 0.293186 0.825624 -0.482065
21.4259 23.0127 9.84015 0.199688 -0.658635 0.725483
11.5288 21.0054 10.2681 0.0591059 -0.370795 0.926832
20.4318 22.7258 9.28402 0.136541 0.102238 0.985345
19.6846 20.226 10.2346 0.926451 0.369732 -0.070619
11.0761 23.3055 12.8449 0.322283 0.0681057 -0.94419
11.9538 21.5642 14.1272 -0.692568 0.223142 0.685972
12.5365 22.0888 7.32913 0.150947 -0.978332 0.141707
22.9989 20.379 8.79838 0.0214332 -0.525572 0.850479
12.766 23.0766 11.8973 0.847681 0.00314575 0.530497
13.888 21.6844 8.91022 0.508186 -0.743915 0.433978
14.1213 23.7747 11.5557 -0.0074 -0.457262 -0.889301
14.492 23.5409 9.55281 0.745538 -0.570276 0.344903
13.2061 23.4826 8.99247 0.472428 -0.835717 0.279981
16.5068 23.3021 8.75067 -0.408535 -0.061994 -0.910635
16.3065 12.146 6.83115 0.100914 -0.481903 0.870394
14.9952 21.9542 5.68969 0.0658823 -0.640176 0.765398
14.5637 22.3144 9.47931 0.275035 -0.318117 -0.90728
17.0583 19.262 8.91633 0.475884 0.862439 0.172436
15.4047 23.8047 8.05482 0.728274 0.627622 0.275151
17.6889 21.6668 8.36468 -0.23148 0.803291 -0.548763
18.1455 11.1646 9.51542 -0.734952 -0.507385 0.449896
19.4651 22.6307 7.85981 0.381307 0.912451 0.148453
20.6909 21.7925 17.3458 0.0774863 0.99093 0.109793
21.6424 19.9827 10.139 0.18084 -0.74324 -0.64412
19.463 22.8511 9.70426 0.331394 0.389437 0.85937
21.5926 22.2382 15.1497 0.782693 -0.622398 -0.00345808
20.7204 21.5814 8.48166 -0.0621429 -0.362934 -0.92974
23.0365 23.8703 8.48652 0.224422 -0.584736 -0.779563
20.1247 23.6628 9.3844 -0.674145 -0.3455 -0.652808
22.1122 24.0569 10.5948 0.632167 -0.0419394 0.773697
23.5926 23.3436 9.09556 -0.165459 0.551971 0.817283
13.251 11.5545 9.55719 -0.817315 -0.574729 -0.0410141
11.2445 23.9778 13.951 -0.120627 -0.274383 0.954025
12.3984 21.8509 15.7022 0.963689 -0.176553 0.200331
12.3627 13.4203 8.89835 0.0524867 -0.279158 0.95881
13.3291 11.3281 12.6249 -0.112922 -0.691248 -0.71374
12.2223 23.7373 12.5801 -0.248262 -0.967007 -0.0571342
16.0572 24.0155 13.5197 0.339779 -0.638949 -0.690141
15.1477 11.574 9.28826 0.972812 0.150496 0.176032
15.173 22.028 11.5985 0.0406152 -0.625699 -0.779007
14.7701 11.5489 10.8344 0.0373014 -0.48011 0.876415
17.2756 23.0778 12.1389 0.307802 0.815944 -0.489381
17.0751 13.913 11.1708 0.279078 0.849215 0.448273
17.4725 23.2128 8.21536 0.203523 0.573301 -0.793666
17.5403 24.0696 12.6028 -0.453719 -0.65083 0.608736
18.242 23.7556 10.4527 -0.249547 0.721191 0.646227
17.9011 15.3021 8.88318 0.346541 -0.887193 0.304628
19.559 14.017 11.5125 0.632951 0.282188 0.720933
19.0235 12.7112 9.98361 0.427384 0.421793 0.799646
19.0013 12.5576 12.7161 0.402581 -0.448986 -0.79771
20.5212 24.389 8.76968 0.0116689 -0.923253 -0.384015
19.0291 11.4375 10.3499 0.0235066 0.857713 0.513591
20.8468 13.2594 13.3157 -0.520559 0.0778543 0.850269
23.9673 11.6509 13.8407 -0.928138 -0.00752319 -0.372159
10.9754 11.2257 9.76564 0.690688 -0.439858 -0.573999
20.6395 23.4301 11.7463 0.412735 0.550498 0.725674
21.6547 23.1894 14.2712 0.342215 0.939612 0.00431369
13.5877 22.2109 16.4816 0.933976 -0.218 -0.283135
11.2264 23.5347 10.0797 0.832218 -0.163523 -0.529787
23.2616 12.7127 14.7109 0.809802 0.24488 -0.533156
12.7143 15.0295 15.2138 -0.422734 -0.23764 -0.874542
11.3311 14.3995 12.5388 -0.41715 0.889847 0.184817
14.9423 14.6495 14.3813 -0.554791 -0.56134 -0.614088
13.1972 12.8235 10.0891 0.155097 0.642445 -0.750473
12.6247 15.667 9.92468 -0.648728 -0.746469 -0.148107
16.1991 12.0867 10.214 0.0899702 0.866067 -0.491766
13.3266 12.7651 11.5052 0.903598 -0.352305 -0.243704
15.7886 12.7008 11.5011 -0.379751 -0.893294 0.24045
14.5598 12.9685 12.6793 -0.233924 0.381178 0.894418
16.5758 12.7816 13.1572 0.359284 -0.443957 -0.820863
18.0096 16.7169 10.1236 0.297768 -0.495669 0.815872
16.3752 23.5779 11.5629 -0.243911 -0.374802 -0.894445
15.3791 12.3783 13.0178 -0.700967 0.109735 0.704701
19.5262 14.7272 9.6114 -0.915403 0.402535 -0.00138311
18.2961 14.9715 12.5179 -0.673141 -0.648928 -0.354645
17.2325 23.6902 10.861 0.522949 -0.822456 -0.223811
18.506 15.5042 10.3748 0.998325 -0.0570612 0.00957206
22.4408 11.8964 10.6768 0.446236 -0.657613 -0.606975
22.2916 13.3337 12.108 -0.298125 0.359237 0.884348
20.3944 12.4298 10.047 0.395728 -0.896518 -0.199136
22.5055 14.2977 15.0723 -0.662384 -0.231754 -0.712417
22.8522 12.3756 16.5408 0.0219737 -0.645015 0.763854
21.0869 12.5424 11.7135 0.531969 -0.788851 -0.307772
11.0747 12.9981 12.2122 0.00138898 0.0967444 0.995308
20.5946 14.4621 14.6863 -0.439127 0.480818 0.758935
22.9541 11.2636 14.2856 -0.383308 -0.597175 -0.704597
23.6603 14.0114 12.73 -0.0335156 0.700054 -0.713303
13.2224 14.9666 12.633 0.431328 -0.0289214 -0.901732
21.8937 15.7691 16.2197 -0.139826 0.894511 0.424616
12.8274 15.5672 11.7293 0.0553407 -0.242179 -0.968652
11.8777 15.8529 11.4949 -0.100475 0.601328 0.792659
11.9074 15.4096 12.5489 0.116769 0.584777 0.802745
23.3362 16.7622 13.7991 0.279516 -0.803084 -0.526238
16.2718 14.9074 14.7075 0.0688113 -0.62276 0.779381
12.7341 16.0248 9.0137 -0.859553 -0.51056 -0.0222745
13.5306 14.8106 10.2091 -0.601562 0.146265 -0.785322
14.1557 15.7462 12.3888 -0.743738 0.0652792 0.665276
14.6881 14.7526 9.77103 0.857411 0.0737447 0.509321
14.9401 16.4029 8.95887 0.910867 0.394059 0.122634
18.3284 16.5448 13.7498 0.812789 -0.505715 -0.289182
16.8577 12.9195 11.7005 -0.093215 -0.842617 -0.530385
18.197 13.7146 12.9293 -0.430848 -0.155953 -0.888847
19.1881 18.1723 13.085 -0.571039 0.72227 0.39018
19.5944 15.1002 12.5867 -0.395921 -0.348587 -0.849549
18.2288 15.0748 11.2605 -0.677832 -0.432571 -0.594496
20.2543 17.4339 14.3054 0.394883 0.913714 -0.0958832
18.7495 16.8644 12.0645 0.157061 -0.729217 -0.666014
20.2249 14.9667 11.4102 0.875647 -0.426601 0.226391
22.9078 14.8527 13.0735 0.56564 0.68123 -0.464732
23.4744 12.8124 11.3285 0.191642 -0.45024 -0.872099
22.5571 18.856 8.73166 0.0205956 0.897069 -0.44141
21.6255 18.3963 14.1261 -0.471451 -0.859528 -0.197346
22.4287 16.2938 11.3188 -0.360113 0.643218 0.675714
10.8645 13.7388 14.457 -0.683616 0.281954 -0.67318
22.9259 18.4082 9.90876 0.360771 -0.883462 0.298896
23.9615 16.6613 12.6995 0.4519 -0.771931 -0.447112
11.1253 17.244 13.5989 0.651125 -0.580338 -0.489126
24.0677 17.8122 12.5055 -0.183815 -0.404562 -0.895847
11.7981 18.1401 12.6995 0.0281089 -0.294781 0.955151
22.954 18.9242 12.487 0.439367 -0.685501 0.580555
11.5968 18.869 13.4492 -0.815691 0.274012 -0.509475
12.8109 16.6081 11.633 0.833041 -0.130631 0.537567
12.7868 17.2101 12.5718 0.997136 -0.046604 -0.059567
15.7812 15.0175 11.2975 0.0966377 0.939041 0.329945
12.9116 16.5227 13.8809 0.360316 0.0471354 0.931639
15.6817 14.322 13.8183 0.589904 -0.393899 0.704881
13.4333 19.0812 6.12065 0.423571 0.0830414 -0.902049
16.6189 16.0479 10.7196 -0.815289 -0.559163 -0.150471
16.02 19.0541 13.9814 0.197906 -0.535474 -0.821037
19.1023 17.352 14.2912 -0.155545 -0.963264 0.218926
16.6378 16.5322 8.71817 0.554955 0.82698 -0.0901592
16.2162 18.4326 7.25185 -0.803602 0.565465 0.185671
17.9529 19.4709 14.6544 -0.0773328 0.408214 -0.909605
22.3564 14.5041 12.3662 0.678914 -0.562247 -0.47218
19.5913 18.4972 11.9747 -0.329506 0.611 0.719795
20.0398 16.6747 11.7049 0.52223 -0.806745 -0.276476
21.3399 18.0988 13.0709 0.983958 -0.0265413 -0.176416
23.0191 14.5892 10.4715 0.8902 -0.431613 -0.145785
21.8426 14.9963 11.4466 0.538088 -0.841173 -0.053756
21.5431 15.5086 9.7844 0.728238 -0.685138 -0.0159822
21.8565 19.9683 14.8301 0.187253 0.785602 -0.589716
23.7222 16.6003 15.8477 0.586036 -0.782445 -0.210574
22.8229 20.4917 14.8545 0.079425 0.743574 -0.663919
12.3935 19.8146 13.4242 -0.996057 -0.0363574 0.0809236
23.7895 20.4072 11.4276 0.477507 -0.141739 -0.86712
22.5657 18.8868 16.5314 -0.440014 0.727697 0.52616
12.8132 20.7284 11.6861 0.822146 -0.486742 0.295226
12.7399 18.881 12.9771 0.483896 -0.167437 0.858958
11.9931 19.3151 15.4723 0.758687 -0.418752 0.49904
13.9909 15.4716 16.6778 -0.16749 -0.396421 0.902661
12.96 17.6886 14.0941 -0.295383 0.322465 -0.899314
13.8158 19.2927 12.2651 -0.117284 -0.0521593 0.991728
13.0155 19.3943 14.3615 -0.937824 -0.275704 0.210889
16.9144 19.4846 13.8827 -0.182241 -0.141764 -0.97298
14.3694 19.7555 7.31628 0.345643 0.0241321 0.938056
18.3436 18.4356 10.9689 0.890883 -0.44209 -0.104328
14.8116 17.6431 11.9974 -0.263783 -0.0517112 0.963195
19.7605 20.6005 16.1837 -0.770809 0.431161 -0.468993
18.5082 18.7655 11.9632 0.377031 -0.910931 -0.167486
16.8276 17.2235 11.969 -0.00728564 -0.931239 -0.364337
18.3321 19.3898 9.60043 -0.308383 0.95091 0.0258838
15.1785 15.9289 14.4639 0.732078 0.275473 -0.623039
20.4783 21.6496 14.8406 0.0112003 0.352651 0.935688
20.2182 20.3586 14.5357 0.163772 -0.621911 -0.765771
20.392 17.553 15.3356 -0.0118924 0.980914 0.194079
10.8279 19.0576 14.2472 -0.853969 -0.51956 0.0281965
22.137 20.9103 9.76197 0.0433824 -0.828113 -0.55888
21.0071 18.8935 9.85594 -0.563973 0.320053 -0.76125
23.3602 19.7054 14.3855 0.771523 0.450361 -0.449363
23.3732 18.2396 15.0976 -0.690906 0.657126 0.301389
21.9309 20.7566 15.4235 0.497092 -0.603161 0.623776
10.8425 21.5045 11.9309 -0.986539 -0.161296 0.0268984
23.329 22.4907 12.8762 0.601726 0.355807 -0.715072
14.9499 20.378 13.1483 -0.666165 -0.658968 0.349264
12.5552 22.192 12.7959 -0.697909 0.040013 0.715068
23.7227 21.3033 9.02602 0.229275 -0.0489341 0.972131
23.6637 20.4234 15.4651 0.131852 -0.936708 -0.324335
14.3493 15.9272 13.8675 -0.320809 0.565708 0.759642
13.9532 18.2235 11.0968 0.64642 -0.453552 -0.61354
15.1764 18.4633 9.80937 -0.0680568 -0.0666716 0.995451
13.0778 19.9224 10.9633 0.059078 0.563476 -0.824017
15.3758 19.3011 11.4455 -0.0712956 0.94569 -0.317156
18.7832 22.3585 10.2813 0.28064 -0.661804 -0.695166
15.7784 20.4941 10.4224 -0.266723 -0.961255 -0.0696227
19.9482 20.1749 11.5311 -0.165827 -0.653662 -0.738396
16.9789 20.9578 8.27104 -0.00263824 -0.356337 0.934354
19.4142 22.8558 11.3423 -0.105996 0.743829 0.659912
16.8866 18.1868 10.7114 0.0758862 -0.941087 0.329541
17.9427 22.1258 9.66667 -0.350393 0.903272 0.24764
19.1098 18.9134 10.3822 -0.447544 0.525243 0.723757
20.1329 21.8068 11.4342 0.477901 0.385941 -0.789088
20.98 24.3011 14.7567 0.0936399 0.987401 0.12756
19.6908 21.179 10.8356 0.599894 0.201932 -0.774177
21.7245 19.8103 11.2999 0.342158 -0.581366 -0.738202
22.5569 20.356 11.1066 -0.0693316 -0.366277 -0.927919
21.9586 21.4348 12.3683 0.113317 0.488583 0.865127
23.5052 20.5258 13.2877 -0.674631 -0.319404 0.665473
23.3873 19.6512 16.1382 -0.142379 0.958566 0.246736
22.9379 21.3281 13.1118 -0.824629 -0.4012 0.39878
12.3865 22.1354 11.1525 0.661742 -0.522017 0.538142
22.9995 22.3249 11.9111 -0.688948 0.261655 0.675934
11.3494 20.9481 16.4662 0.22951 -0.3989 0.887809
12.6465 23.9965 10.2944 -0.106078 0.911704 0.396917
23.8725 12.141 12.0692 -0.760053 0.357255 0.542853
12.334 21.7186 10.2423 -0.155778 0.850882 -0.501731
12.1887 21.2989 12.6354 -0.954354 0.109243 0.277982
14.1076 21.8902 12.2955 0.0880971 0.777705 0.622426
14.3121 20.9425 10.6174 -0.551035 0.0665135 -0.831827
14.8268 24.2764 14.7097 0.91221 -0.393541 -0.114011
17.1404 21.7107 12.0202 0.391746 0.729197 -0.561077
15.4534 24.0441 10.0696 0.934534 -0.32742 0.139437
16.8752 21.7707 9.08154 -0.626055 0.619254 -0.473898
15.54 23.986 11.5246 0.547828 0.833811 -0.0681441
20.1314 11.6211 10.8003 -0.448444 -0.865168 -0.224458
17.1907 11.983 10.3578 0.327906 0.914013 0.238866
19.2452 23.5889 12.9259 0.423237 0.811899 0.402107
20.1861 12.445 12.4232 0.171342 -0.69974 -0.693546
18.4136 23.4165 11.9802 -0.234763 -0.951282 -0.199873
19.7081 11.5678 8.39137 -0.406445 -0.899695 -0.15922
20.863 20.8493 11.4878 -0.224132 -0.704841 -0.673026
20.6116 22.8325 13.8427 -0.463634 -0.35831 0.810344
20.4215 11.8168 13.1704 -0.110774 0.574347 0.811082
20.7679 22.3952 12.1916 0.266146 0.146412 -0.952749
20.7527 19.5495 11.902 -0.0456699 -0.198155 -0.979106
21.4679 24.0403 13.4073 0.568338 -0.646166 -0.509374
21.1931 21.4761 10.3307 0.0485423 0.308054 0.95013
11.0872 23.4689 7.98415 -0.506823 0.773708 0.380141
12.4587 23.0462 15.7785 0.600589 0.313041 -0.73573
14.2296 12.9088 16.1678 -0.744172 -0.241826 0.622678
12.6693 21.0803 14.8652 0.492414 0.112627 -0.863043
11.2213 12.0699 12.8933 0.638441 -0.439951 -0.631535
13.1957 23.7429 13.3689 0.0893666 -0.930209 -0.355985
13.4869 12.1869 14.5285 -0.373797 0.56095 0.738655
13.8863 11.6421 11.6979 -0.888153 -0.292203 -0.354686
14.5617 13.6061 14.7914 0.465221 0.719456 0.515707
14.5744 12.2256 14.698 -0.593247 0.441893 0.672895
13.5121 13.6785 15.4971 0.40044 0.484942 -0.777482
17.7788 24.2884 13.889 0.00772059 -0.939044 -0.343711
16.5983 11.4904 12.2081 -0.698849 -0.0312715 0.714586
19.0685 11.6619 14.5706 -0.0369893 0.779363 0.62548
18.2569 11.9486 15.4679 0.0714577 0.702218 0.708367
17.2172 22.9677 14.0466 0.652264 -0.723001 -0.227642
18.4698 13.0694 11.3037 -0.214946 -0.153797 -0.96444
17.935 12.2131 11.2309 -0.319643 0.33428 0.886615
17.0062 11.4862 13.4001 0.403149 0.323245 -0.856144
21.2 11.3403 16.0366 -0.506286 -0.580239 0.637963
21.7368 12.0753 13.5266 -0.772642 0.0833185 0.629351
20.0905 23.2201 12.5897 -0.420625 -0.783443 -0.457484
21.8618 13.2355 15.2783 -0.249701 -0.79332 -0.555241
19.8053 22.9218 15.3843 0.722401 -0.206358 0.659965
11.5704 24.3365 10.7289 -0.455123 0.889893 -0.0308689
23.1819 21.2955 11.0143 -0.999425 -0.0248245 -0.0230897
21.7596 11.2012 17.9427 -0.497429 -0.195056 0.845291
13.0193 24.162 15.4815 0.917728 -0.250027 -0.308646
11.9985 24.0996 11.6236 -0.870152 0.309214 0.383696
12.4569 14.9665 16.5337 -0.617234 -0.227675 -0.753117
11.7486 12.1584 15.852 0.70913 0.679117 -0.189563
14.8712 12.2034 16.704 0.575427 0.285548 -0.766385
12.8503 13.3153 12.5885 -0.880571 -0.0790828 0.467269
12.9109 12.1607 12.1695 -0.619382 -0.465709 -0.632045
11.587 12.5433 14.1675 0.269741 -0.0248011 -0.962614
13.9143 14.8679 15.3571 0.256109 0.185547 -0.948673
12.7848 14.054 13.6258 -0.536697 -0.0192915 0.843554
15.4989 23.841 12.467 0.328036 -0.941259 -0.0801447
16.2544 12.0701 15.9671 0.14117 0.232247 -0.962358
15.2648 11.7421 15.3768 -0.836116 0.325079 0.441854
17.4333 15.515 12.837 -0.426041 -0.882206 -0.200503
19.6495 11.2019 12.1195 -0.400895 0.477943 0.781571
19.136 13.3661 14.8321 -0.697812 0.677245 0.233233
18.108 13.5434 15.9317 -0.902291 0.362964 0.232655
18.9103 11.1587 11.286 0.206885 -0.886906 -0.413034
19.4672 12.8808 13.7747 0.0445627 -0.997441 -0.0559059
17.4417 15.8424 14.0117 -0.777908 -0.20152 -0.595188
23.7967 12.1325 16.2872 -0.123702 -0.561087 0.818461
19.4306 16.76 17.1926 -0.468618 0.242438 0.849483
22.3465 11.3097 15.3548 -0.626706 -0.731194 -0.269434
19.5236 16.1594 15.1882 -0.000982351 0.999707 -0.0241777
21.808 23.7024 16.0877 -0.493894 -0.854181 -0.162614
21.6266 13.3463 16.396 0.42311 -0.80763 -0.410745
23.5923 13.5296 15.694 0.241498 -0.444564 0.862578
22.5501 13.9886 16.917 -0.226696 0.244072 0.942888
12.8909 13.3452 14.6041 -0.8258 -0.325779 0.46035
10.8373 14.6065 15.5205 -0.500787 0.846375 -0.181279
11.7801 14.535 17.088 -0.345111 -0.709485 -0.614435
12.3149 14.4195 12.6907 -0.34428 0.505511 0.791157
13.4535 15.6891 14.7214 -0.0194969 0.217047 0.975966
12.6128 18.3885 14.9049 -0.686387 -0.638956 -0.347288
13.7125 14.6532 13.695 0.495946 0.195047 -0.846164
15.608 17.6577 15.4454 -0.973794 -0.017812 0.226735
13.0783 12.9006 13.6181 -0.620462 -0.638507 0.455341
15.3607 14.9125 12.2544 0.87312 0.0721617 0.482135
15.8302 12.3066 14.2512 -0.427679 0.289456 0.856333
16.6755 18.0998 16.0217 -0.829336 -0.332 0.44942
21.9669 12.3411 12.3008 -0.865944 0.0715647 0.494995
16.3282 13.9509 12.9507 -0.207892 -0.808406 -0.550691
17.3697 12.4488 13.5983 0.623214 0.357543 -0.695533
17.281 15.2004 14.8042 -0.105277 -0.436956 -0.893301
18.2924 14.0314 11.4033 -0.547348 -0.223495 -0.806511
19.413 16.552 12.7786 0.402939 -0.696593 -0.593631
17.4803 14.01 14.8646 -0.694155 -0.284446 0.661241
16.9693 16.3139 14.7787 -0.883277 -0.467134 0.040098
18.0146 14.9106 13.5557 -0.510276 -0.642056 -0.572174
20.5367 16.1684 13.4082 0.900424 -0.335109 -0.277379
19.0252 14.6393 14.6566 -0.750945 0.634009 0.184697
19.6138 13.9371 15.5226 -0.823465 0.245612 0.511448
20.0767 24.4173 14.1854 -0.0948507 0.822029 0.56149
22.2349 15.6714 12.1639 -0.712429 0.624142 0.320769
22.7624 13.472 13.9719 0.0879728 0.0308831 -0.995644
11.2859 14.8488 14.2804 0.419315 -0.459889 0.782737
13.0948 12.2182 16.0855 0.674986 -0.324028 -0.662873
23.015 15.6349 13.9192 0.560147 -0.820493 -0.114136
23.245 16.6172 14.9124 0.36039 -0.867605 -0.342609
22.1939 17.3762 14.6689 0.254396 0.966864 -0.0213876
11.8685 15.6969 14.3411 0.822453 -0.0424772 -0.567246
11.9567 17.8891 16.3165 0.0627351 -0.495166 0.86653
11.0109 16.4031 14.1569 0.164307 -0.455712 -0.874831
12.0294 16.9339 15.8454 -0.636041 -0.642804 0.426913
14.5032 17.2168 14.0015 -0.658644 0.644545 0.388265
13.6901 17.3288 13.3959 -0.0189704 0.995941 -0.0879838
12.13 16.5683 10.2272 0.627184 0.759095 -0.174396
13.7377 18.0739 15.3927 0.809742 -0.116803 -0.575043
15.8284 16.4823 15.476 0.846814 0.501398 -0.177499
17.8935 21.0643 13.8397 -0.508748 0.767037 -0.390935
17.9162 16.3035 15.5975 0.676538 -0.71789 -0.164107
15.0264 19.5371 14.2896 -0.0578324 -0.961696 0.267949
18.6796 17.7118 15.1972 0.0139496 -0.999803 -0.0141424
17.4472 18.5514 13.9443 -0.433922 0.0392402 -0.900096
16.6622 17.8409 13.8101 0.313787 0.165937 0.934881
18.6283 22.1987 15.7946 -0.538916 -0.827413 -0.157982
22.57 16.4464 13.0728 -0.27384 -0.955007 0.113901
15.7638 17.8209 14.273 -0.00848351 0.799273 0.600909
20.8273 15.8039 12.3498 0.490512 -0.851212 -0.186645
20.8141 17.1555 13.1361 0.921923 -0.156858 -0.354193
23.2995 15.4369 16.494 -0.693909 -0.688556 -0.210669
20.9606 20.5732 13.5658 -0.19235 -0.036841 -0.980635
22.2264 17.6312 10.0227 0.422588 -0.821714 0.382367
20.9253 16.5792 14.4765 -0.403141 -0.88304 -0.240245
22.7914 15.2954 14.9177 0.784885 -0.525233 -0.328764
10.9207 17.7331 15.8663 0.688002 -0.282305 -0.668548
10.8199 18.7446 12.0529 0.78319 0.528598 0.32741
11.9365 16.8021 14.4249 -0.317127 -0.470738 0.823308
14.9524 16.9757 14.8485 -0.91845 0.244507 0.310911
13.8442 18.3065 12.3828 0.967025 0.254091 -0.0173092
12.4183 16.0405 15.463 0.668485 0.730697 0.138598
12.1309 18.7232 17.6026 -0.213234 0.116896 0.969983
15.9197 17.5453 11.3739 -0.0119182 -0.796711 0.604243
13.5917 20.277 14.8709 0.95418 0.22601 -0.19611
15.2142 16.8259 12.7667 -0.976193 -0.213467 0.0384541
14.7653 18.6806 15.7118 -0.977788 0.1943 0.0785994
15.9762 18.9732 12.4818 -0.391581 0.540641 0.744561
16.6257 21.8848 13.8404 -0.294975 -0.399311 -0.868067
16.5351 18.9282 15.3471 0.132367 -0.214023 -0.967819
15.1944 18.3168 16.589 -0.682195 -0.707616 -0.184089
17.6158 20.2615 15.5907 -0.108156 0.0543006 -0.99265
19.1876 22.2168 14.4373 0.788906 -0.225384 -0.57169
18.4784 19.7691 16.048 0.0775304 0.276624 -0.957846
19.5799 21.9155 15.8621 -0.411912 -0.355092 -0.839189
22.2826 17.5772 13.6828 -0.715266 -0.698451 0.0236714
17.4199 22.0324 15.7625 -0.304994 -0.0494536 0.951069
21.652 19.0908 12.0621 0.387272 0.407936 0.826807
16.6751 19.9263 15.8815 -0.261471 0.0263113 -0.964853
22.1694 17.8209 15.8777 -0.117677 0.752985 -0.647431
23.6822 21.3729 14.7981 0.52205 -0.817905 -0.241858
20.8522 17.2149 12.11 0.593552 -0.715411 -0.368624
21.7965 18.2517 16.6961 -0.610808 0.386645 -0.690955
22.3974 16.5005 15.6269 0.796185 -0.588819 0.139218
13.8737 20.6758 13.8188 0.860201 0.43235 -0.27042
11.793 20.4905 14.8057 -0.570688 -0.037866 0.820293
23.8943 20.0741 17.7128 -0.1656 -0.172039 0.971071
12.0526 20.1019 16.0692 -0.905362 -0.297726 0.302786
11.6517 21.8771 16.5186 -0.858904 0.485335 -0.163504
14.6845 16.8441 15.9946 0.864123 0.280581 0.417811
14.0417 23.2647 15.8212 -0.84451 -0.168856 0.508222
13.7461 19.9781 16.7665 0.508811 -0.831888 0.221527
13.7394 20.0441 9.66924 0.000297861 0.609695 -0.792636
15.9132 20.3964 12.2489 0.272939 -0.424852 0.863137
13.2134 23.0207 14.1169 -0.871135 0.243945 0.426162
14.4753 18.8899 13.4743 -0.501588 -0.288061 0.815739
18.1906 20.2471 11.1393 -0.711317 -0.482311 0.511276
17.4489 19.0302 12.4563 0.484417 0.218217 0.847184
14.9534 21.8305 12.9773 0.176287 -0.49278 -0.85211
18.1646 21.0508 14.8714 0.925752 -0.348434 0.14689
19.1464 20.0047 12.0618 -0.0288192 0.853221 0.520753
17.6225 20.9414 10.7514 0.264603 0.539659 0.79922
19.1109 21.4491 13.626 0.75502 -0.231499 -0.613476
19.2851 20.4515 14.065 -0.311851 -0.818453 -0.482581
19.0316 19.3161 14.6469 -0.493302 -0.698898 -0.517874
17.8471 18.1263 12.3832 0.22061 0.177163 0.959137
20.5163 19.3048 16.5201 -0.400969 -0.150747 0.903604
22.1259 15.2699 14.049 0.620264 -0.77432 0.125304
19.5723 22.8631 13.5605 -0.232423 0.70053 0.674712
22.4642 20.2272 12.7629 -0.853229 0.520659 -0.0302427
22.6178 22.8711 14.6239 0.118024 0.972851 0.199075
11.1464 18.6002 15.1341 -0.168136 0.508452 0.844516
10.9715 21.2274 13.7469 -0.844165 0.503316 0.184549
11.6285 22.981 14.0235 -0.61892 -0.541525 0.568936
23.0772 11.3876 12.2069 -0.694041 0.0482478 -0.718317
12.8335 11.4122 14.6608 -0.560188 0.772534 0.298965
12.2849 11.446 13.617 -0.221634 -0.795049 0.564603
22.6316 22.6023 15.761 -0.710628 0.483952 -0.510685
15.9552 23.9389 15.44 -0.923032 0.0924858 0.373441
15.9203 22.7417 13.2657 -0.987324 0.158476 0.00881169
14.4896 23.3679 14.2628 0.697377 0.175131 -0.694978
18.4698 20.2754 12.9786 -0.0972366 0.981885 0.162624
14.5172 19.6952 15.208 0.653449 0.666657 0.35857
17.5565 19.1557 16.6826 -0.229065 0.0975114 -0.968515
17.522 20.6999 11.9516 0.887951 0.321093 0.329305
18.7923 22.1709 13.1161 -0.123021 0.544112 0.829945
15.5001 21.3404 15.4498 0.265897 0.17932 0.947177
15.7665 22.2271 14.0994 0.271515 0.890268 0.365655
18.0696 12.8611 8.31026 0.300705 0.791335 -0.532321
18.6433 21.7642 11.1158 -0.345009 -0.486567 -0.802634
13.9986 20.308 15.7687 0.573186 0.810327 -0.12177
19.5134 18.8423 15.5114 -0.083777 0.825193 0.558604
21.6991 23.2922 12.0541 -0.15711 -0.855655 0.493123
22.3959 22.9604 13.633 0.863865 0.411291 0.290821
21.8666 11.2781 12.4433 -0.813761 0.115856 -0.569535
23.716 22.9734 15.1168 0.158883 -0.788478 0.594187
23.1134 23.6403 12.8423 0.531415 0.381153 0.756519
22.4756 22.1808 11.076 -0.720714 -0.0330419 0.692445
22.5387 22.8701 10.0304 -0.392177 -0.82814 -0.400477
10.845 22.35 13.4906 0.592766 -0.178124 -0.78543
22.3701 23.1008 9.04508 0.00592316 -0.860445 -0.509509
13.2074 11.8395 17.0744 0.8498 -0.0845601 -0.520279
12.1218 22.5178 14.9384 -0.76064 0.51386 0.396705
14.6891 24.3751 16.7946 0.71176 0.362641 -0.601572
11.4493 13.8842 13.6572 0.653668 -0.65398 0.380826
23.3938 24.3929 15.8303 -0.398285 0.06212 0.915156
11.5459 11.3273 14.9972 -0.757015 0.642715 0.117667
13.9811 21.2929 14.8602 0.706247 0.232081 -0.668845
13.6404 22.2874 14.859 0.447178 -0.24291 -0.860829
