7.671 9.9631 10.2005 0.759853 -0.0357235 -0.649113
11.5237 7.94658 13.2889 -0.785534 -0.0467349 -0.617052
5.13732 15.6511 17.4084 -0.738436 -0.63731 0.220338
10.5613 8.49059 16.528 -0.162988 0.653871 -0.738842
21.0752 5.07499 15.7111 0.490912 -0.871183 0.00673714
3.43128 14.6788 18.8332 -0.0297421 -0.757698 -0.651927
20.1954 20.161 9.57662 -0.943935 -0.327914 -0.0381964
4.74576 3.76646 0.805186 0.187616 -0.0546511 -0.980721
2.24371 2.28431 12.3639 -0.494906 0.843871 0.207245
11.4731 6.40215 15.9893 -0.714662 0.609723 -0.342778
19.6803 7.10427 8.95397 0.530239 0.00269247 -0.847844
14.5729 1.87709 17.5579 0.489498 -0.428963 0.759198
6.78635 4.5229 16.7489 0.856948 0.367157 -0.361713
14.5783 14.3865 2.93841 0.779714 -0.335453 -0.528694
13.9354 5.43116 18.0043 -0.0887428 0.303355 0.948736
4.25641 13.8772 16.4206 -0.245343 0.562708 0.789409
6.10937 8.85053 16.4411 -0.200538 -0.8196 -0.536694
3.16402 9.40222 0.561909 0.961259 0.248307 -0.119683
5.47471 5.51872 18.1108 -0.726377 -0.659767 -0.19257
12.9873 7.70114 15.2915 0.34323 0.417257 0.841481
19.8837 20.049 12.436 0.933814 0.356861 -0.025325
9.4026 11.1198 16.1398 -0.00213933 -0.366368 0.930468
13.4395 19.3784 0.186094 -0.571943 -0.238532 0.784847
5.99529 15.499 0.757887 -0.386988 0.910161 -0.147808
11.0222 8.16243 19.2108 0.874207 0.321496 0.363872
14.0352 17.0571 16.1183 -0.930556 0.365305 -0.0248738
18.8233 13.8527 10.3255 0.52763 0.506642 -0.68185
7.18515 16.9806 10.363 0.744695 -0.410787 -0.526007
13.8772 11.3765 13.0098 0.683962 -0.01259 0.729409
9.39104 10.0629 12.0958 -0.144232 0.545047 -0.825906
7.21401 3.58948 16.652 0.24366 0.154799 0.957427
16.8926 6.89433 7.38283 -0.175672 -0.979373 -0.0998401
15.8667 8.6658 1.66275 0.407332 0.865728 0.290852
11.4177 12.5158 4.74431 0.341173 0.641206 -0.687354
14.7474 7.7651 17.5903 0.245155 -0.620635 -0.744789
18.5176 11.391 1.25764 0.725115 -0.0349966 0.687738
4.94757 7.67887 1.28044 0.4604 0.422278 -0.780841
20.2309 10.3524 12.6063 0.0468166 0.666758 0.743803
4.8028 2.82558 4.09805 0.121039 0.410693 0.903704
7.03047 18.114 3.23482 0.981206 -0.105168 0.161787
3.38364 19.5824 16.1249 0.659403 -0.743771 -0.109511
2.79203 15.6782 3.87079 -0.433815 0.900423 -0.0323007
15.998 1.94711 14.0151 0.888629 0.450773 0.084509
5.04636 18.687 3.8461 0.715246 -0.698846 0.00617226
5.14475 11.477 3.49732 -0.382201 0.587279 0.71346
12.4377 11.7109 10.6031 -0.0989205 0.837969 0.536677
3.20214 12.9332 14.699 -0.530483 0.266927 0.804573
15.8038 3.62793 6.2718 -0.832777 0.51616 -0.200152
21.0573 10.4549 9.55798 0.554735 0.248566 -0.794031
18.9868 5.73823 15.0695 -0.643309 -0.753364 -0.136372
7.48412 8.43239 1.72909 0.636023 0.755133 0.158902
1.98226 1.97075 1.91859 -0.296294 -0.265914 -0.917333
2.24991 8.21584 8.79112 0.631807 0.510433 0.583334
5.70396 13.3632 15.9546 -0.585196 0.284219 0.759451
3.9579 15.9707 18.0323 -0.684557 -0.289951 -0.668813
20.1962 8.99809 14.8092 0.0246332 0.424379 -0.90515
6.66733 13.5502 3.15688 -0.841064 -0.509527 -0.181643
14.4044 3.66795 3.04958 0.663364 -0.0788313 -0.744133
3.44396 12.5271 16.607 -0.0720353 0.932873 0.352929
21.0457 3.41195 15.393 0.520645 0.457186 -0.721048
8.77925 13.2991 5.85166 0.961688 -0.202789 0.184479
4.14377 17.7622 12.1032 -0.314042 -0.929228 0.194713
19.5633 15.1983 0.791717 -0.317929 -0.268597 -0.909273
6.94068 8.84111 18.7305 -0.381151 -0.347639 0.856663
15.9202 2.40759 7.82191 -0.536402 0.647574 0.541221
5.78345 12.5514 5.13914 -0.71959 0.694328 0.00988964
15.098 4.93401 14.0046 -0.458136 -0.887554 -0.0485708
10.14 11.7885 11.6325 0.454724 0.673321 -0.582979
1.95211 8.62254 6.32479 0.0511062 -0.965458 -0.255496
15.8844 6.21112 7.8672 -0.041396 -0.943259 0.329469
2.44856 8.83804 17.7469 -0.123283 -0.155286 0.980147
5.38072 3.95152 6.50256 -0.717184 0.0227727 -0.696512
7.36605 6.12985 16.4695 -0.705932 -0.134343 -0.695422
4.31879 6.39383 12.3681 0.629188 -0.686749 0.364004
5.11095 12.1854 18.7281 0.32538 -0.671416 -0.665829
14.9439 8.04906 4.06468 0.2965 0.0832293 0.951399
8.02494 12.3032 0.400138 0.765505 0.623473 0.159006
18.505 13.3848 19.2102 0.156423 0.892872 -0.422269
7.69483 2.25786 11.1758 0.463496 0.353674 0.812457
17.83 12.1994 15.8352 0.555518 -0.138626 -0.819867
4.59057 11.0083 1.01913 -0.0210535 0.544158 -0.838718
12.692 6.50359 6.56168 -0.822314 0.508525 0.255346
20.0454 1.90499 19.0263 0.592523 0.117675 0.796912
3.43622 8.74518 6.2258 0.648247 -0.090944 -0.755979
2.47264 9.91059 17.6732 0.921247 -0.174543 0.347618
18.5648 14.3069 16.132 0.236744 -0.677127 0.696744
16.0346 20.2587 10.3434 0.633767 -0.736565 -0.236244
15.8574 12.7065 12.943 0.888893 -0.0807352 -0.450945
19.0657 8.47984 11.7791 0.467884 0.506682 -0.724126
12.0832 2.53943 8.38465 -0.410738 0.17008 0.89575
16.0805 7.947 17.4224 0.167398 0.665066 0.727781
10.7392 10.0455 5.49349 -0.229338 0.815929 -0.530721
3.59374 17.5898 5.38485 -0.905585 0.420499 0.0556368
5.34927 17.4629 7.76237 -0.938274 -0.345847 0.00559775
19.3347 7.86046 18.8969 -0.625931 0.149939 0.765329
18.8463 11.0328 16.4996 0.527893 -0.819221 -0.224068
4.13478 12.7043 6.16857 -0.28908 -0.116066 0.950243
7.95148 8.44475 0.633357 0.742848 0.588248 0.319595
8.32042 19.4096 19.154 0.0321975 0.603253 -0.796899
10.3633 20.8682 11.664 0.0719687 -0.984676 -0.158851
18.6344 20.2674 10.2476 0.135428 0.408917 -0.902467
14.0048 17.8914 13.8738 -0.0872232 -0.203338 -0.975216
7.39184 10.3358 16.3789 -0.251945 -0.921592 0.295282
5.84987 18.4513 13.9254 0.139882 -0.813781 0.564087
17.1812 18.2185 18.0098 -0.705893 0.275616 0.652495
2.5076 14.9849 13.7227 -0.410437 -0.356523 0.839305
14.883 10.8084 7.66763 -0.419607 -0.86317 0.280832
12.7983 10.2604 11.3484 0.928509 -0.332211 -0.165849
8.30832 18.305 13.8482 0.565567 -0.616466 -0.547818
6.47289 9.91168 3.26375 0.374745 0.660431 0.65069
11.793 2.9348 5.17103 0.453825 0.752586 -0.477133
16.6017 19.7726 6.83113 -0.323187 0.834084 -0.447052
3.6379 10.0156 15.2725 0.472265 0.657872 -0.58666
11.3426 9.4205 9.10115 0.579047 0.693334 0.428945
13.9662 13.7838 11.8017 -0.170647 -0.740235 0.650332
12.8213 17.2191 12.7802 -0.450776 0.26925 -0.851062
2.26129 10.1973 18.984 -0.191791 0.943291 -0.270957
16.7029 19.7969 3.34729 -0.327567 0.749486 0.5753
7.67414 17.1519 11.5296 -0.97144 0.217917 0.0939007
6.21521 13.0691 1.86408 0.185254 0.974244 -0.128568
14.938 19.9629 14.9919 -0.541083 0.511575 -0.667473
14.6068 9.13658 1.96648 0.288275 -0.924783 0.248344
9.95779 8.93968 18.6715 -0.354252 -0.286373 -0.890223
15.1347 10.4296 13.934 0.373843 0.645223 -0.66628
10.4527 19.2637 15.6693 0.397015 -0.628192 0.669144
10.5761 10.4865 13.2217 0.692862 -0.00293291 -0.721064
2.45638 19.1863 17.4801 0.69715 -0.714364 0.060555
20.7853 3.04907 19.3832 -0.372905 0.349588 -0.859494
8.97947 15.3233 10.9624 0.474121 -0.35403 0.806147
17.2529 14.1585 3.1377 -0.611929 -0.532438 0.584853
6.89525 7.22612 4.22951 0.693662 -0.218821 -0.686258
3.57844 17.8772 19.2258 -0.144071 0.967938 -0.205765
7.22285 3.53302 4.90884 -0.354326 0.714164 -0.603674
15.4971 11.3737 19.4443 0.582146 -0.770198 -0.260577
8.91248 17.8013 17.435 -0.723618 0.446502 -0.52632
8.88431 20.1766 2.04721 -0.100753 0.705824 0.701186
9.39548 7.83666 16.1336 0.541368 -0.415899 -0.730718
14.7822 11.3546 18.5207 0.393573 -0.890376 0.228759
17.6237 6.24359 17.9316 0.0190314 -0.282639 0.959037
4.1675 8.42947 7.34893 -0.740518 0.665886 0.090712
4.34827 5.92996 13.7048 -0.937825 -0.275305 0.211404
13.7037 10.0756 15.3622 0.607394 -0.220216 0.763268
4.25793 4.02992 14.6616 0.292216 0.191111 -0.937063
14.2571 6.76314 14.5117 0.0122405 0.905761 0.423611
21.0327 13.7255 19.0443 0.347389 -0.21341 0.913114
7.35428 3.90353 9.13371 -0.569345 -0.736107 0.36605
9.75245 6.0106 3.73343 0.281658 -0.902616 -0.325505
7.6528 13.1147 11.4872 0.0665323 0.165938 -0.983889
16.3034 16.7626 10.9621 0.496404 -0.849022 0.180954
10.5652 20.4464 6.92119 0.548532 0.747227 0.375187
6.31496 6.76389 9.64728 -0.607402 0.719499 0.336725
5.13532 7.83265 14.4652 -0.223465 0.0603287 0.972843
20.2412 14.7805 16.8333 0.201297 -0.954645 -0.219391
17.2336 2.02713 16.8058 -0.368186 -0.642197 -0.672326
10.4134 6.3601 2.93982 0.598401 0.67325 0.43434
13.1216 11.1647 15.8794 0.651935 0.744715 -0.14276
15.5523 1.97592 9.10446 -0.850563 0.50724 0.138743
5.2729 20.2027 16.8531 0.0109254 0.453164 -0.89136
11.3825 18.3019 8.78246 -0.469516 -0.147324 -0.870546
4.45263 15.0022 13.9104 0.029741 -0.772675 0.634105
6.09813 8.57084 3.84929 -0.0805906 -0.9045 -0.418791
10.3709 10.0898 2.53841 -0.167178 -0.876489 0.451462
13.7378 9.45183 9.92755 -0.0133144 0.944037 0.329571
2.75026 16.2045 15.4759 -0.888739 -0.429441 0.160383
12.857 2.30095 13.1933 -0.587688 -0.761255 0.274068
8.54826 17.941 18.7074 -0.69647 0.0229228 -0.717219
13.9041 7.1254 13.5701 -0.346383 0.741928 0.574075
17.3643 5.64472 6.39894 0.240085 -0.966024 -0.0956892
18.7695 13.9884 17.8979 -0.619942 0.776718 -0.111271
9.70095 8.07757 0.337652 -0.495046 -0.672959 -0.549595
15.3062 7.02703 3.36078 0.480997 -0.00954373 -0.87667
16.1391 12.6549 17.7253 0.348728 0.936349 -0.0404883
1.70756 20.3223 18.5358 0.741212 0.218473 0.634723
17.8061 10.2274 13.505 0.317672 0.774584 -0.546904
15.3493 3.29226 16.7875 -0.00110312 -0.362185 -0.932106
14.5182 14.5992 1.7628 0.869233 -0.282126 -0.406003
11.8273 3.22223 16.3196 0.937793 0.168035 -0.303824
6.36612 20.6806 9.11309 0.259425 -0.339418 -0.904154
3.55381 11.1702 0.200063 0.264137 0.743426 -0.614451
2.29978 17.6622 4.46904 -0.736511 0.632378 -0.240104
7.95343 16.3435 18.7417 0.74525 -0.229511 -0.626041
7.17012 7.01587 0.771902 0.965545 0.214091 -0.147946
2.25479 12.2515 6.54515 -0.406337 0.83997 -0.359639
10.3426 18.092 14.6891 -0.293882 -0.954207 -0.0558856
5.81265 4.21916 18.6879 0.384377 0.29276 0.875526
8.76716 11.8516 1.71761 0.510726 0.146403 -0.847187
5.23727 17.7128 9.926 -0.612582 0.790189 0.0185516
16.0628 4.6876 18.4972 -0.811203 0.493744 -0.313317
5.51447 3.28868 16.5467 0.0316604 0.611552 -0.790571
7.91782 2.52116 13.4454 -0.862716 0.253584 -0.437512
12.5341 2.29653 0.108084 -0.162022 -0.980632 -0.110041
16.3656 14.5893 5.13383 0.341894 -0.69661 -0.630748
4.44232 14.4196 11.3358 -0.821159 -0.235798 -0.519709
11.5023 1.81954 13.9026 -0.602648 -0.306508 -0.736795
19.6315 19.5971 0.620922 -0.66709 -0.734584 -0.124009
11.3066 13.3942 0.575924 0.554944 -0.516504 0.65212
2.13477 16.901 19.226 0.743246 -0.63407 0.213404
5.73165 12.7252 17.6262 0.643011 0.400684 0.652678
3.49463 20.6502 18.9259 -0.319771 -0.118661 -0.940035
16.7256 6.48492 2.07798 0.326111 0.899456 -0.290912
7.48414 4.96565 18.8409 0.132182 0.0364896 0.990554
20.2311 13.9387 9.68745 -0.666814 -0.743282 0.0537631
3.05245 10.6931 9.91611 -0.295664 -0.122657 0.947385
17.6532 9.88219 0.171888 -0.427932 0.0661476 -0.901387
7.86255 18.0617 2.03876 -0.729704 0.279074 -0.62422
1.97998 6.82863 2.04943 -0.368345 -0.141386 -0.918875
5.41198 3.40477 11.1217 -0.889292 0.396055 0.228692
12.6499 2.29772 17.5366 0.637329 0.641898 -0.426356
4.1554 4.93895 6.34168 -0.0372473 0.667717 -0.743483
4.80153 5.26929 3.84756 -0.748361 -0.281692 -0.600504
14.6926 10.6263 0.687858 -0.708303 0.393189 0.586268
2.33462 1.68567 17.8234 -0.0984087 -0.140562 -0.985169
13.3602 7.71082 17.7018 0.332557 0.624749 0.706466
15.5394 11.0498 5.37804 0.172485 0.489724 0.854646
15.133 6.79781 15.7367 -0.986395 0.164055 -0.010572
2.59105 19.9252 2.75511 -0.240894 -0.149407 0.958983
6.57186 15.4259 13.2319 -0.451088 0.517957 -0.726802
11.6813 2.1457 16.8311 0.936969 0.0425018 -0.346818
8.00958 9.98265 7.03023 -0.446127 0.852398 -0.272742
9.41869 11.3021 9.84432 0.133752 0.914183 0.382595
20.3144 2.75471 7.75458 0.538483 0.768894 0.344729
11.544 5.30262 15.3564 0.498513 0.543236 -0.675559
18.017 10.0052 16.7355 -0.965744 0.200791 -0.164384
13.2639 17.1564 3.24108 0.125379 -0.988092 -0.0891878
10.5918 9.71782 17.3226 0.892511 -0.287198 0.347768
19.9566 3.166 1.62586 0.71637 0.549399 0.430087
10.4338 2.07825 1.03263 0.769216 -0.528322 0.359421
10.4134 15.7279 16.459 0.694156 0.189317 0.694483
19.8507 14.8572 5.9087 -0.408511 -0.86577 -0.289068
15.9652 6.39433 5.02978 0.73579 0.611151 0.291733
19.7373 14.1632 8.60536 0.404173 0.912551 0.0624058
19.5536 19.1151 18.9563 0.206154 0.971422 -0.117643
17.905 5.36076 16.9193 -0.227577 -0.610464 0.758645
18.4311 3.12233 9.02558 -0.868106 0.409287 0.280848
3.08284 1.90379 10.5854 -0.918659 -0.252174 0.304096
19.5658 15.1472 7.81728 -0.781211 -0.623419 0.0325228
2.326 3.31852 4.42306 -0.479728 -0.863717 -0.154446
1.84529 21.0316 6.02623 0.206704 0.475488 0.855094
13.9891 9.31586 14.2011 0.679135 0.278976 -0.678932
18.8096 8.95604 18.8108 0.5378 0.0988564 -0.837256
7.20154 12.9901 3.97338 -0.0253114 0.582626 0.812346
2.38801 11.2602 0.382147 -0.0233389 0.908345 -0.417569
18.5429 12.5427 3.86173 -0.191734 -0.850102 -0.490474
2.13451 6.04162 14.2514 0.026473 0.252004 0.967364
16.0403 16.5537 5.7672 0.421067 0.294217 -0.857985
11.1539 10.0295 15.144 -0.193973 -0.98011 0.0419449
14.7356 6.5066 12.0159 -0.261842 -0.82236 -0.505136
17.0376 4.69639 14.437 0.250416 0.872767 -0.419011
2.32316 13.6502 5.157 0.0638961 0.829806 0.554383
10.6392 12.2359 7.09453 -0.802774 0.17442 -0.570203
5.37588 14.1966 9.44998 -0.697332 -0.697911 -0.163243
13.9383 20.8753 2.91392 -0.559777 0.144641 0.815922
9.37717 7.95989 14.5471 0.639689 -0.210278 -0.739311
19.1102 3.9415 0.888911 0.555174 0.65226 0.516081
9.35624 18.2753 3.63109 0.424981 0.364692 -0.828487
7.16059 4.18546 2.9258 -0.962003 0.104298 0.252335
12.3913 13.9626 11.4035 -0.430281 -0.527661 -0.732416
16.6843 7.93582 11.1286 0.459465 -0.852445 0.249457
1.74066 4.07179 18.344 0.220433 -0.944425 0.243866
13.092 14.2243 2.36835 0.347661 -0.385118 -0.854878
5.4271 8.67416 6.38736 -0.663984 0.33385 -0.669081
12.2515 15.9771 4.5225 0.718696 0.415963 0.557181
19.0063 10.6718 0.0310524 -0.988661 0.124706 -0.0836502
3.51025 12.2964 0.767699 0.528198 0.68109 -0.507073
19.7521 3.5526 4.13955 -0.764244 -0.457951 0.454105
4.48351 20.7417 11.0461 0.837308 -0.482459 -0.257194
6.2751 18.538 10.2103 0.831833 -0.533099 0.154463
2.85197 15.1286 7.25551 -0.743005 0.5586 -0.368659
3.95543 7.89981 14.4003 -0.267439 -0.401454 0.875963
20.2189 11.0468 16.36 0.436805 -0.769755 -0.465488
2.67067 8.58347 4.18133 0.0983607 0.907218 -0.409
10.9401 3.64824 12.4238 0.407044 -0.249033 -0.878805
8.65005 9.02874 16.4278 -0.449669 0.00915929 0.893148
5.21722 9.8987 9.0206 -0.0599801 -0.852113 -0.519909
11.5966 8.33397 18.1761 -0.218838 -0.774812 -0.593107
12.2897 8.60403 15.7898 0.541807 0.840483 -0.00581259
5.78283 7.77811 19.0589 0.296916 0.740634 -0.602745
21.0139 20.2775 3.47582 0.203117 0.729815 0.652774
15.2504 15.3314 0.917525 -0.998264 0.0565418 0.0165125
19.7685 10.9504 9.199 -0.858255 -0.446861 0.252416
12.8941 14.7201 0.822862 -0.454721 -0.876943 0.155565
16.9484 15.9384 18.9242 -0.269545 -0.507077 -0.818669
6.48934 20.6943 14.2283 -0.674481 -0.724969 -0.139622
10.14 10.556 15.0295 0.38102 0.920215 -0.0896056
19.9526 13.1851 10.7046 -0.752327 -0.652588 -0.0901776
14.4518 3.85497 10.5567 -0.30673 -0.11831 0.944415
20.9797 9.04317 2.43445 -0.649079 -0.280739 0.707023
4.13291 14.3124 3.00533 -0.863793 0.199094 -0.462843
9.12909 2.15834 11.7627 0.278438 0.94728 -0.158535
2.34256 10.1842 16.0486 -0.692447 -0.711398 0.120126
14.3421 7.66061 0.858826 0.306717 -0.205948 -0.929252
12.8202 14.1929 10.233 -0.134622 -0.881155 -0.453259
3.6174 11.5455 4.37128 0.429585 0.790058 -0.437339
2.86106 17.5193 16.1641 -0.58607 -0.252634 -0.769869
12.0305 14.8536 2.08496 -0.0188808 0.907095 0.420502
18.0408 16.6166 2.85708 0.354738 -0.647928 0.674055
20.8392 4.68198 14.4072 -0.939063 -0.171787 -0.297742
5.94049 18.9263 8.3337 -0.597422 0.622077 -0.50607
19.2112 8.17228 16.3361 -0.123322 -0.983697 0.130891
11.52 7.00276 4.92149 0.0401955 -0.128307 -0.99092
5.41975 16.7516 13.5026 0.151848 0.224618 0.962543
18.2735 3.7103 2.79756 -0.362 0.108089 -0.92589
13.5554 12.8626 16.5533 -0.702593 -0.613263 -0.360931
18.6029 9.11402 15.3574 0.618921 0.785223 0.019014
17.7623 6.83985 0.93907 0.3972 -0.317407 0.861095
20.9081 14.8982 1.03981 -0.136904 0.981023 -0.137299
9.21081 3.0927 16.127 -0.728589 0.663725 -0.169197
2.63731 7.10462 15.0957 -0.420316 0.399647 -0.814627
12.6263 2.35116 9.91804 0.580473 -0.126764 -0.804352
17.1295 16.2886 1.88781 0.175598 -0.485067 0.856665
2.88196 5.02971 18.1287 0.424145 -0.114526 0.898323
1.95879 6.17501 3.99745 -0.0196814 -0.800842 -0.598553
18.9606 14.7715 14.0946 -0.439463 0.667023 -0.601626
14.747 5.22676 7.94656 0.395731 -0.867849 0.300392
8.59961 9.80296 2.90239 0.305387 -0.898484 -0.31538
3.95743 2.61382 1.71894 -0.844219 0.114718 -0.523579
6.47196 17.2307 4.47713 0.877791 0.09133 -0.470257
7.20672 8.02768 9.76266 -0.184282 0.968513 -0.167401
2.6458 13.5224 18.8926 0.0704633 -0.0608931 0.995654
3.32825 12.8484 1.76247 0.499303 0.795318 -0.343751
14.1109 4.32756 17.9682 -0.361603 0.315823 0.877211
17.9372 14.8816 4.48464 -0.257821 -0.965681 -0.0314373
14.7703 13.9711 5.78229 -0.492833 0.293068 -0.819284
7.22021 16.3121 12.9739 -0.210452 -0.212092 -0.95432
10.4696 11.3855 10.4917 0.476792 0.742067 -0.471176
12.2105 8.63595 7.88574 0.459362 -0.862561 -0.212074
8.20343 20.7441 15.2311 0.777658 -0.62009 0.103612
4.91474 15.3793 0.339045 0.0103858 -0.103488 -0.994576
6.34202 4.57148 9.98388 0.876956 0.296364 -0.378309
2.51859 16.9663 13.8517 -0.867787 0.455903 0.197734
4.40349 11.6749 13.5912 -0.409764 0.342238 0.845557
6.26713 10.3942 15.0808 0.108549 0.931374 -0.347506
14.3102 13.4175 2.57509 -0.708108 0.0476205 0.704497
20.7461 12.2263 0.445719 -0.0963996 0.929527 0.35593
8.50841 14.1921 7.25737 -0.0356601 -0.227482 0.973129
3.87393 9.81717 3.2711 -0.111354 -0.851624 0.512188
12.6818 12.2999 5.51366 0.494252 0.674548 -0.548361
11.2322 2.2842 15.5602 -0.721668 -0.469265 0.508907
9.44912 18.4932 16.239 0.467936 -0.614171 0.635476
16.8325 14.0458 10.6977 0.87087 -0.346973 -0.348132
8.58446 1.61154 4.91949 0.170793 -0.237243 -0.956319
13.134 13.2813 0.528806 0.409063 0.386282 -0.826712
6.83279 21.0191 3.29981 0.995367 -0.0605468 0.0746914
4.92652 1.69745 12.5245 -0.449219 0.477204 0.755301
2.55569 13.6769 7.35704 -0.973536 -0.108424 -0.201176
11.5285 14.4209 15.3974 -0.949572 0.238381 -0.203687
20.9968 18.5854 0.408557 -0.80936 -0.416509 0.414073
3.08057 20.4302 13.06 0.00907564 -0.785221 -0.619149
1.92277 19.626 15.3405 -0.639106 -0.749905 0.170838
9.55976 9.21279 7.87861 -0.219514 0.844307 -0.488835
21.131 10.1055 2.57532 0.0184798 -0.292611 0.956053
8.76438 2.55323 3.82347 0.695689 1.94657e-05 0.718343
3.07944 19.4275 8.93474 -0.694272 0.363699 -0.621055
13.0112 4.91341 17.5789 0.293054 -0.649731 -0.701405
16.9627 17.6955 14.4484 0.305386 0.934953 -0.18056
12.687 13.0003 17.2949 -0.85489 -0.184522 -0.484887
18.4075 17.2839 6.38305 -0.553912 -0.378582 0.741524
15.0275 11.4311 15.7708 0.00831583 0.89764 -0.440652
12.0857 4.91222 5.4211 -0.355228 0.933345 -0.0517695
8.94115 18.0868 10.3635 0.869103 0.322179 -0.375314
19.0754 14.491 1.36794 -0.88438 0.452579 -0.114208
11.4307 19.1106 11.0523 -0.382931 -0.449714 0.806921
3.88289 9.68103 1.63287 -0.335646 0.934414 0.11921
19.6741 10.8238 14.5322 0.561049 -0.519092 -0.644801
11.4506 1.80981 12.4874 0.465076 0.861081 0.205531
16.2174 9.03336 19.3019 0.911818 -0.00465893 0.410569
16.5785 2.65242 18.6025 -0.353635 0.851548 -0.387051
18.9064 10.8969 5.54364 0.180866 -0.810602 0.556967
16.4869 15.4942 16.5864 -0.790915 0.467415 -0.394939
12.8365 20.3946 2.98267 -0.235695 0.179281 0.955147
16.9954 17.1793 18.3532 -0.27672 -0.237656 -0.931099
9.20611 16.7933 0.499639 -0.476387 0.67542 0.562907
3.49527 18.207 10.559 -0.789528 -0.543176 -0.285668
6.75764 3.69866 6.16419 0.63606 -0.128322 0.760895
20.1052 15.4578 10.1123 -0.0708794 0.816693 -0.572702
6.16689 13.0681 0.172636 0.424708 -0.515398 -0.744304
9.86681 19.5255 10.0699 0.456172 -0.382009 -0.803727
9.57742 12.6759 15.6325 0.716465 0.563288 0.411564
12.3055 8.33479 12.3167 0.455066 -0.585863 -0.670582
9.47681 13.6756 3.88583 0.941634 -0.0346009 -0.334854
17.9131 16.2293 18.5001 -0.504878 -0.139575 -0.851832
10.5109 15.0058 18.41 -0.74714 0.213733 0.629365
7.63842 13.2233 16.7383 0.343603 -0.302685 0.888999
16.2846 18.9007 14.8343 -0.858826 -0.189252 -0.476027
2.42535 3.40685 6.33969 0.672068 0.173498 0.719877
20.8848 14.2912 6.37223 0.318011 0.16719 0.933229
19.3081 20.7388 6.36859 -0.924117 0.0813678 -0.373345
3.76348 6.57873 14.9858 -0.0719307 -0.338627 0.938167
10.4503 5.31479 5.57301 0.567018 0.803161 0.182821
11.9977 8.14273 11.0083 -0.890426 -0.426923 0.15773
16.9084 12.8713 19.0102 -0.679786 -0.659091 -0.3217
6.92472 1.59999 11.8957 -0.464305 -0.812797 -0.351827
16.5046 14.9495 1.94697 -0.903966 0.426292 0.0334854
3.02346 18.6612 3.72595 0.933107 -0.357862 -0.0353004
17.7865 16.9303 9.81288 0.479801 -0.83375 -0.273224
12.648 9.01222 14.1727 -0.654056 0.194273 0.731074
19.7923 7.69608 5.60192 -0.117274 0.915726 0.384308
4.85947 2.43758 0.118088 0.0595731 0.582672 -0.810521
1.95187 8.44315 1.39914 -0.883148 0.256144 -0.392989
2.56059 20.8138 8.31004 -0.199081 -0.379331 -0.90359
15.0075 4.20717 4.18338 -0.431332 0.355496 0.829202
20.7724 19.7948 1.8646 0.9204 -0.101807 -0.37749
15.6665 10.0022 7.49329 -0.356665 -0.727381 0.586266
3.27006 4.48671 14.0286 -0.0116781 -0.499168 0.866427
9.68686 17.4101 6.36744 -0.614559 -0.788503 -0.0240756
18.4267 2.09592 17.7484 -0.361645 0.431638 0.826379
11.7951 12.9485 5.81653 0.440015 0.725434 -0.529276
20.3188 17.289 7.30926 0.682201 0.176349 0.709579
11.4646 19.6365 17.0646 0.46732 -0.663031 -0.584809
7.02587 6.88527 10.7435 -0.743242 0.668976 -0.0078503
4.83788 10.4511 4.06592 0.243614 -0.777958 -0.579166
3.93226 19.3131 18.1256 0.329262 0.318496 0.888902
5.8899 5.37066 7.12884 -0.569613 -0.265747 -0.777765
2.92722 10.6558 13.4945 0.104256 -0.848106 -0.519468
14.9342 12.2234 12.3922 -0.850576 0.0535296 0.52312
7.34421 18.4341 18.9115 0.331272 0.772296 -0.54205
13.6851 6.90534 18.4841 0.080825 0.48901 0.868525
16.4358 5.47493 0.13254 -0.198073 0.43472 -0.878513
11.2764 11.8495 16.1207 -0.442815 0.832953 0.331819
11.1589 2.75379 2.27581 0.359589 -0.261159 0.895819
2.5756 2.89765 15.1898 -0.363741 -0.461728 -0.809011
13.8404 12.0044 5.76937 0.775258 0.334572 -0.535758
3.11674 2.16656 5.90386 0.80588 0.180429 0.563917
19.6774 4.82682 3.04094 -0.944687 -0.0948598 -0.313955
12.5759 5.35777 12.1727 0.168284 0.0272763 0.985361
15.036 4.08173 0.875152 -0.886172 0.251437 0.389203
18.2768 19.7907 6.4719 0.913787 0.0191697 0.40574
6.35705 10.4894 12.2751 -0.993039 0.0352818 0.112379
17.9457 12.0626 18.816 0.922607 0.316089 -0.221098
18.5577 13.6385 2.4078 0.708325 0.674793 0.207196
10.7945 16.2197 7.10769 -0.361748 0.505455 -0.78336
17.8284 3.48901 4.3106 -0.283775 -0.0687161 -0.956426
7.42056 13.455 6.74715 0.239604 -0.96738 0.0822518
7.90248 8.38525 4.50289 -0.71661 0.614302 0.330308
16.0912 14.5514 7.1121 -0.513441 -0.0881113 -0.853589
2.46205 9.49683 15.0351 0.281217 0.957315 -0.0668257
11.9532 14.9087 10.9906 0.200788 0.699275 0.686075
11.0058 9.66758 16.2385 0.637427 -0.739411 0.216699
4.91233 16.2224 14.8299 -0.222038 0.382036 0.897077
13.7968 2.18454 1.01745 0.782149 0.623065 -0.00579414
13.1727 10.8687 18.3393 -0.860075 0.457679 -0.225389
6.27105 4.8733 11.3167 -0.827405 0.560655 -0.0326694
16.3816 3.32623 15.9219 0.146894 0.802807 0.577861
15.011 2.7332 3.40465 -0.275435 -0.429485 -0.860046
15.5855 17.1837 8.30577 0.104612 0.796325 0.595754
3.20735 2.43591 18.3188 0.219084 -0.432391 -0.874666
12.4421 19.7772 11.4352 0.509463 -0.849463 -0.137332
16.0594 2.39492 17.0042 -0.377975 -0.798887 -0.467883
15.6124 14.5708 14.6043 -0.916403 0.399413 0.0259881
13.251 9.04632 0.342709 0.859854 -0.503535 -0.0842885
14.5558 8.26667 13.9652 0.0895373 -0.328319 -0.940314
9.12653 4.25301 18.5485 0.634233 -0.0338133 -0.772402
4.90146 2.28929 5.8732 -0.542202 0.146773 -0.82733
2.50579 11.6284 8.30078 -0.932628 -0.222434 -0.284127
1.7531 16.4634 10.9689 -0.973373 0.22174 -0.0580987
10.1502 2.48691 3.72446 -0.712153 -0.496507 -0.496305
13.0026 12.1102 17.9931 -0.207499 -0.172022 -0.962991
2.35275 19.3974 10.0677 -0.090029 0.695597 -0.712769
16.4594 10.2782 13.8562 -0.266798 -0.84983 0.454541
3.52888 5.11412 14.9952 -0.813097 -0.0354177 0.58105
2.42914 4.04504 0.470208 0.883036 0.140615 -0.447744
9.21538 12.4929 4.78258 -0.949993 0.309967 -0.0378721
5.48869 8.88368 4.96096 0.764868 -0.288022 0.576213
17.8717 7.16879 9.76972 -0.498519 -0.0366373 -0.866104
12.7772 10.9411 7.90794 0.241253 -0.211511 0.947133
21.1059 2.93044 10.9374 -0.977897 0.204341 0.0442909
15.7884 13.2364 2.76829 0.376175 0.041251 -0.92563
15.6679 14.2284 18.2203 0.229697 0.346691 0.90942
11.3768 19.6672 19.1556 -0.728723 0.680007 -0.0809539
4.97774 14.6099 15.4939 -0.338694 0.806491 0.484622
2.60562 10.4924 3.89047 0.548283 0.451192 -0.704139
16.5125 7.88593 3.07389 -0.927489 0.372083 -0.0363021
18.214 2.81798 14.2614 0.467408 -0.760177 0.451288
11.0212 15.54 0.844867 -0.444242 -0.811963 -0.378636
18.7879 13.5817 0.735766 -0.779946 -0.167045 0.603142
9.4808 11.1395 2.17032 -0.70423 -0.6041 -0.372993
18.7817 3.94319 11.6194 -0.242235 0.409996 0.879332
21.1053 9.02558 11.4391 -0.0879768 -0.36207 0.92799
18.8614 17.4052 10.1656 -0.656225 0.387671 0.647364
6.71172 4.53562 8.43187 0.728456 -0.220885 -0.648507
18.7885 20.1544 0.00506294 0.74609 0.573882 0.337652
5.45671 16.2639 7.4296 -0.503314 -0.678269 0.535375
15.4565 7.52474 9.21302 0.677662 -0.478012 0.558819
4.24351 15.499 4.07727 0.328721 -0.100156 -0.939101
3.64196 6.62195 7.71259 -0.750738 -0.622038 -0.2224
17.1855 16.1116 4.10804 -0.114151 -0.958473 0.261342
20.8057 6.97008 9.27339 -0.241849 -0.956351 -0.164019
1.90108 16.8074 9.7407 -0.888539 0.243244 0.389012
12.9083 10.413 13.5178 -0.148844 -0.840545 -0.520894
14.4901 6.35464 2.84262 -0.639639 0.63123 -0.438647
3.48854 11.6726 6.52382 -0.415157 0.787696 -0.45517
11.7952 9.08346 10.0885 -0.63746 -0.766957 -0.0736323
10.8343 18.3629 1.18463 -0.766286 -0.317574 0.558527
7.52 19.4411 1.29327 -0.721605 -0.0279317 -0.691741
6.80211 13.4082 7.89256 0.461776 0.759123 0.458798
11.3165 13.7657 17.3465 0.58447 -0.319261 0.745967
7.89264 13.6792 14.7053 0.292919 -0.658579 0.693161
8.92429 10.9647 4.42257 -0.785858 -0.405321 -0.467056
15.0619 11.4897 1.84115 -0.898212 0.360352 0.251718
13.8196 20.7131 10.3217 -0.236751 -0.655066 0.717522
15.0308 19.9619 0.0433873 0.457303 0.32324 -0.828486
3.80723 4.75443 11.6327 0.924782 -0.33539 0.179698
16.8366 18.9614 8.24528 -0.860303 -0.34924 -0.371362
3.21902 19.4205 0.733194 -0.207367 0.308095 -0.928481
18.7873 17.618 1.15613 0.646363 -0.506091 0.57104
20.4497 5.12056 16.7581 -0.426093 0.904218 0.0288743
18.7621 8.11112 10.7376 -0.677874 -0.321112 0.661342
11.5481 5.02333 6.78221 -0.0135228 0.861732 -0.507184
13.0549 2.35811 3.0235 -0.350291 -0.125073 0.928253
19.3939 6.73982 6.73292 -0.953142 -0.23301 -0.192941
20.9509 17.2586 1.50422 -0.875186 0.011661 -0.483646
7.12952 15.0945 10.6472 0.21582 0.698379 -0.682414
6.75904 19.771 15.049 -0.955464 -0.224305 0.19177
11.1825 4.96159 3.49838 -0.262422 -0.924976 0.274872
8.97985 12.1702 7.23326 0.0206178 0.249169 0.96824
3.92054 20.4743 4.99484 0.0889127 -0.790099 0.606497
13.3038 20.2762 13.4332 0.0623397 -0.661586 -0.747273
19.875 20.5628 8.3084 0.354258 -0.416393 -0.837328
4.01467 16.5729 8.51916 -0.957233 0.287691 -0.0306452
16.0341 16.1034 13.0692 0.88804 0.259514 -0.379524
2.69161 17.4928 3.41885 -0.651047 0.743758 -0.151532
14.9299 2.24461 12.5252 -0.64826 0.749286 0.135384
12.3698 5.54313 0.989667 -0.511598 -0.748694 0.421573
11.0312 15.5804 10.7479 0.0437259 -0.542064 -0.839199
10.0985 13.6607 7.6525 -0.156021 0.398508 0.903797
18.173 16.3079 12.1943 -0.0761753 0.513199 0.854883
16.7417 19.0573 0.0243427 -0.561457 -0.0351044 0.826761
17.3846 17.6297 5.32258 -0.640012 -0.0571558 0.766236
12.8265 9.81322 18.6972 0.573049 -0.543329 -0.613521
9.36354 11.5077 3.53103 0.0105682 -0.954225 -0.298904
11.2293 7.1578 0.622522 -0.908393 -0.087141 0.408935
15.7147 11.9384 8.64114 -0.472766 -0.41229 0.778787
14.032 12.4788 4.42023 -0.195587 -0.977999 -0.0725509
10.283 12.9677 1.59784 -0.976386 0.028141 -0.214192
3.90354 3.15441 13.8675 0.350271 0.573458 -0.740578
6.03851 14.4258 7.82144 0.343111 0.403273 0.848319
14.4011 2.17013 4.63068 -0.160416 -0.980506 0.113464
19.2793 3.12674 16.0119 0.644219 -0.54723 -0.534341
17.6493 3.01866 6.12051 0.601841 -0.615494 0.508875
7.5075 2.03741 4.59341 0.0264507 -0.528604 0.848456
3.74771 8.50079 8.48171 0.518053 -0.853486 0.0564184
11.7946 16.3738 19.4799 0.506268 0.611608 0.60797
3.97611 18.8515 4.80962 -0.965784 -0.254027 -0.0522586
3.36157 1.76792 7.41532 0.189813 -0.489721 -0.850967
16.3286 3.37304 9.39789 0.784557 -0.387556 0.484015
7.31559 20.1633 12.6315 -0.243515 0.889665 0.386259
20.0153 3.73669 7.11247 0.79778 0.574506 0.183003
11.8245 2.90894 1.24492 0.0275882 -0.85266 0.521738
13.5608 5.23319 10.4689 -0.506536 -0.767145 -0.393586
4.92364 14.5872 4.57344 -0.615218 -0.527383 0.585981
19.19 17.478 12.699 0.601556 0.0762039 -0.795187
13.8965 3.40545 1.8259 -0.774514 0.632557 -0.00038838
4.56631 8.75125 19.2122 -0.314031 -0.518318 0.795444
17.7948 20.0359 7.57309 0.656244 -0.48512 0.577929
18.8458 5.24575 10.2223 -0.810892 -0.243796 -0.531995
5.85343 10.8916 5.59775 0.0585636 -0.69686 -0.714812
12.2395 17.858 0.99659 -0.386546 -0.348801 0.853768
20.1428 14.9087 11.7739 0.689739 0.672211 0.269057
10.8909 17.3542 2.75707 0.291313 0.113606 0.949858
3.38704 2.61926 3.13892 -0.61836 -0.628984 0.47118
8.81171 10.339 5.4908 0.849141 0.297815 0.436195
4.32204 16.1923 16.8919 -0.510661 -0.855428 -0.0864119
2.12141 2.58763 16.3406 0.457291 0.577202 0.676552
18.8826 9.13719 1.99536 -0.15851 -0.979161 0.126958
17.4739 2.21844 8.81547 -0.880943 0.467516 -0.0732704
11.172 17.4006 0.569735 -0.413773 -0.713928 0.564888
4.69083 18.3537 17.0951 -0.50957 -0.692444 0.510743
3.57125 5.02707 4.19641 -0.0163112 0.994543 0.10304
13.5128 11.694 2.88295 0.802122 -0.546388 0.240957
17.4978 5.63505 11.4964 0.492801 0.495717 0.715131
19.5388 20.8151 1.61896 -0.590952 -0.786158 -0.180921
13.7231 12.8004 10.5343 -0.614932 0.42376 0.665046
16.6777 8.79618 12.4832 -0.0666969 -0.908733 0.412014
12.2516 14.9118 17.0003 0.950999 0.00766151 0.309099
4.7278 12.6032 7.9969 0.381028 0.851052 -0.361287
4.0417 3.34924 18.9508 0.101912 0.0431047 -0.993859
10.1276 17.4553 10.4638 0.420312 0.582844 0.695436
9.67352 1.6356 18.6136 0.472028 -0.86918 -0.147364
8.66112 18.3063 11.7478 -0.318318 0.647765 -0.692152
6.03403 14.236 18.0989 0.396171 -0.176777 0.900998
15.9979 4.48046 11.9626 -0.0139017 0.975207 0.220859
20.213 4.41589 19.1207 0.0152682 -0.158011 -0.987319
2.88655 15.8814 5.84075 -0.504221 0.756125 0.417175
6.53845 14.2776 14.9275 -0.460178 0.794312 0.396616
18.4451 6.25304 7.81378 0.559585 -0.5942 0.577746
3.82126 17.6375 9.41775 0.621115 -0.758815 0.195998
7.19293 18.7063 13.1994 0.13953 -0.773804 -0.617866
15.6676 20.0205 1.13627 -0.618909 -0.419265 0.664205
16.505 5.65379 17.3683 0.45106 -0.243324 0.858684
12.4051 18.016 17.3795 0.423512 -0.845394 -0.325494
2.27802 19.0353 7.75712 0.891241 0.408387 -0.197254
13.6655 18.6547 9.02584 -0.11669 0.959853 -0.255081
20.5029 1.95109 10.5144 0.852651 -0.132914 -0.505292
6.29691 5.10216 5.62052 0.823735 -0.554416 0.118676
20.3827 5.09735 13.0732 0.957692 -0.265171 0.111853
9.48194 3.62899 0.0964169 -0.431783 0.302279 0.849818
19.3362 20.4453 4.98512 0.830675 0.380375 0.406564
12.0099 16.2536 7.88385 -0.171419 -0.406253 -0.897538
9.90522 1.64752 4.69556 0.122767 0.339038 0.932728
20.2645 9.58023 7.33911 -0.655848 -0.753191 -0.0506613
16.0567 13.1559 7.12126 -0.713464 -0.676539 -0.182386
13.9783 9.16121 5.32336 0.607048 0.326374 0.72455
4.66138 10.3671 7.89755 -0.591821 -0.575138 0.56477
10.9369 2.78807 13.5329 0.980429 0.133859 0.144363
20.6528 1.90858 12.6962 -0.212237 0.308358 -0.927292
13.1216 9.26902 8.85723 -0.790948 -0.610289 0.0441393
3.12067 19.9229 11.3298 0.815167 -0.404163 0.414916
20.8673 7.78708 0.0927604 0.890277 -0.406207 -0.205919
12.0262 6.91632 15.1781 0.50977 -0.0446956 0.859149
14.6821 7.5307 10.2284 -0.342128 0.431895 -0.834515
4.72858 7.57946 4.55356 -0.502508 0.545455 -0.670794
14.8334 5.89956 19.4469 -0.661187 0.717538 0.219023
7.77198 10.8603 13.5785 0.429749 0.880051 0.202054
13.3042 13.0524 14.1413 0.686484 -0.139452 -0.713647
6.35679 7.73059 17.4701 0.514354 -0.849351 -0.118498
20.9465 18.8485 18.1436 0.954036 -0.148726 0.260185
20.274 4.7597 7.97403 -0.952866 -0.232147 -0.195329
18.71 9.86255 10.4141 0.809507 -0.457423 -0.368052
16.2121 2.64801 4.19507 0.558555 0.745019 -0.36464
9.87747 13.2966 12.8145 -0.733364 -0.555564 -0.391824
11.733 15.4858 15.7117 -0.901255 0.307189 -0.305571
15.7576 3.41089 13.5625 0.671032 -0.274284 0.688829
19.2022 8.57556 8.25173 -0.796945 0.417399 0.436642
1.69967 4.98842 4.36973 -0.929624 -0.184025 -0.319271
18.9093 12.4383 7.19047 -0.534043 0.0473282 0.844131
3.5993 5.77003 1.73955 -0.174104 -0.974982 0.138193
9.02302 8.63887 12.2251 -0.679716 0.33876 -0.65056
5.2989 16.0468 3.67536 -0.0617576 0.0999775 0.993071
20.3149 18.3542 12.3037 -0.414034 0.233857 -0.879709
6.9792 16.857 14.961 -0.371347 -0.804324 0.463858
20.4379 9.74869 18.1968 0.634812 -0.364335 0.681377
15.865 4.54741 17.2309 -0.918612 0.11856 -0.376955
14.1274 3.33819 0.0345415 -0.627574 0.731279 0.267174
18.0304 10.4353 14.7883 0.479638 0.826989 -0.293319
13.2006 5.0682 2.27429 -0.0143709 0.790839 -0.611855
8.85961 7.26598 18.1888 0.199665 0.921713 0.332535
19.2603 6.8938 2.001 -0.849145 0.197266 0.489938
7.87654 7.36214 19.1428 0.687813 0.699998 0.192134
7.0678 1.81019 19.4482 -0.813076 -0.364541 0.453892
10.3519 9.40349 7.02009 0.342059 0.334973 0.877946
11.4374 18.5654 13.7388 -0.847561 -0.530694 -0.00190973
18.5083 4.33807 6.86089 -0.163499 0.6676 0.726346
17.0055 8.40759 8.5069 -0.307587 -0.931776 -0.192832
15.7438 15.9572 14.5497 0.524002 -0.646694 0.554265
3.03868 3.80551 18.3814 0.4689 0.312604 -0.826082
3.81063 6.92484 10.0861 0.740299 0.475349 -0.475395
7.01028 19.6001 9.62622 -0.0598761 0.904235 0.422817
18.9644 9.40034 0.875787 0.310878 0.945959 0.0922862
15.0616 13.3656 18.7445 0.208162 0.300576 0.930764
12.8305 6.61486 10.7131 -0.487108 0.000976059 -0.873341
18.7751 7.03525 4.67798 0.751805 -0.629399 -0.196585
11.9662 11.3604 4.07188 0.0513007 -0.617407 0.784969
12.6807 14.3679 8.18545 -0.0455622 -0.197848 -0.979173
5.04774 13.9201 10.4683 -0.608546 -0.792812 -0.0334758
3.46307 14.1374 6.47025 0.281754 0.958481 -0.0439145
8.3023 4.08096 3.98012 -0.15781 0.893671 -0.420058
3.29626 2.52489 4.51868 -0.637789 -0.769026 -0.0427078
6.51461 19.0237 11.4924 -0.841113 0.452036 -0.296972
19.1332 7.10053 3.45253 -0.43875 0.864189 0.246326
20.4362 7.73045 3.96569 -0.283542 0.131308 -0.949928
17.2176 10.8617 1.61372 -0.190918 0.266038 -0.944867
2.18272 9.58389 12.3078 0.219417 -0.754079 0.619049
19.8704 13.4185 7.21813 0.608894 -0.493573 0.620994
20.5113 10.9571 3.05029 0.121882 -0.469688 0.874378
10.3026 4.15262 9.50442 -0.309389 0.337108 0.889177
20.2194 19.7349 5.59189 0.237527 0.268245 -0.933609
5.03237 15.385 10.0744 0.903604 0.427043 0.0336796
16.9621 4.95593 3.04799 0.280666 0.578165 0.766128
8.37878 13.0639 7.4924 0.827254 0.132782 -0.545912
21.0179 17.8417 15.7985 -0.64584 -0.763328 0.0148759
14.4451 14.3237 0.133831 -0.328252 -0.917069 0.22635
5.15504 9.80524 5.4349 -0.855539 0.305376 -0.418088
12.3016 3.02087 18.6425 0.811194 0.508865 -0.288134
17.9342 9.29295 12.3403 0.326221 0.773702 -0.543107
12.2211 6.69766 17.3488 -0.589794 0.372673 -0.71642
18.8247 20.3729 18.2958 -0.650625 0.492869 0.577726
2.04106 6.6049 6.45824 0.197194 -0.144642 -0.969636
7.50044 8.93808 8.60403 0.806551 0.563149 -0.179832
7.56458 14.8556 19.1621 -0.981973 0.170711 -0.0811574
14.9004 12.0596 3.84837 0.200436 -0.250443 0.947156
16.5945 13.1192 5.67204 0.434904 0.0620932 0.898333
7.35842 20.2595 6.5166 0.719745 -0.0135683 0.694105
16.9503 7.35434 16.1037 -0.370845 0.147112 -0.916969
12.8378 17.0698 7.85474 -0.000811086 -0.530166 -0.847894
5.59081 12.6396 11.5502 -0.460676 0.701195 0.544153
2.97275 13.3104 9.55341 -0.85257 -0.508751 -0.119568
3.75397 12.6033 9.05913 -0.00625476 0.4955 -0.868585
21.035 3.13106 2.76346 -0.388184 -0.102036 0.915916
2.34967 6.53683 8.44732 -0.590195 -0.682401 -0.431275
7.28035 15.0368 7.98013 0.483471 0.532247 0.69496
14.1393 4.15652 15.0157 -0.796604 -0.286926 -0.532067
6.82501 6.04232 5.31601 0.595949 -0.736558 -0.319888
20.9879 4.23316 10.2693 0.879055 0.0437955 -0.474704
14.41 17.2397 8.1932 0.231563 0.831075 0.50566
12.1382 6.6065 1.55805 0.856277 0.334645 -0.39345
3.75739 14.7562 15.3641 -0.0249727 -0.839877 -0.542202
13.0511 8.72182 1.53443 -0.515624 -0.84641 0.133123
20.1294 12.2744 8.44761 0.346397 0.264831 0.89993
13.8297 5.30684 9.19962 -0.456064 0.788341 0.412945
10.3557 20.8412 2.24321 0.37986 0.45339 0.806315
12.4849 4.8146 18.9532 -0.522018 -0.734642 -0.433357
20.4122 15.2407 15.3624 -0.778108 -0.272423 0.565981
18.6414 18.6879 11.2277 0.348147 0.39934 -0.848128
5.85374 14.0937 12.833 -0.934904 0.330298 0.129834
19.3939 10.5176 3.28287 -0.0876147 0.897286 -0.432668
1.91021 10.295 14.3623 0.227365 0.929223 0.29129
16.5959 13.602 0.57268 -0.168323 -0.939038 -0.299791
13.2062 10.9814 17.1254 -0.587705 -0.69116 0.420596
3.28967 10.1516 6.8984 0.178016 -0.154943 -0.971753
5.24876 12.5499 9.25572 0.0794322 0.762544 -0.642042
18.9788 10.9793 10.8897 0.768656 -0.522874 0.36847
16.1246 17.7073 12.2581 0.00682024 0.971019 0.238907
14.4279 20.1371 9.03825 -0.271938 -0.0556307 -0.960706
9.93555 10.1023 18.3936 0.946153 -0.18358 0.266632
14.8613 15.9582 8.45287 0.292389 -0.781614 -0.550988
12.1194 17.4008 10.0881 0.75663 0.535051 -0.375809
2.74678 4.05986 13.0148 -0.951056 -0.025931 0.307929
2.2735 12.7662 7.98547 0.609403 -0.590793 -0.528764
7.65166 16.289 2.60676 -0.619519 0.352759 0.701254
7.10277 14.7204 12.4547 0.82557 0.110002 0.553475
8.89443 10.56 13.7278 -0.237095 -0.925002 -0.296914
9.50822 18.3492 12.9721 -0.754089 0.649067 -0.100309
10.4909 19.1445 17.3533 -0.1319 0.728753 -0.671953
18.8981 8.86859 13.5139 -0.518932 -0.854088 -0.0352748
15.338 16.4587 0.506129 -0.147247 0.808484 0.5698
6.78748 10.2537 6.25771 -0.386709 0.721123 0.574838
2.61152 13.0575 11.4325 -0.851821 0.508655 -0.125185
6.67269 8.09787 13.9823 -0.0840243 -0.662812 -0.744056
14.7885 19.1946 11.0519 0.946768 -0.0689132 -0.314455
17.7614 14.98 6.34554 -0.407533 0.222879 -0.885574
19.1657 11.6103 12.4895 0.248508 -0.602412 0.758514
13.397 11.8495 8.74716 0.241838 -0.653873 0.716913
18.226 5.52813 4.23043 0.450716 -0.81199 -0.370848
11.5834 13.395 15.9115 0.809543 0.161501 0.564409
7.45225 16.9263 6.09737 -0.392196 -0.918293 -0.0540337
16.3183 15.9708 3.29019 0.626692 -0.760892 0.16823
17.8584 6.25969 3.1703 0.601586 -0.5631 -0.56658
20.8151 19.1914 9.41007 -0.452292 -0.643549 0.617476
10.7417 3.11263 7.31599 0.546685 -0.709795 0.444215
14.0976 13.517 9.51188 0.914883 0.119864 0.385515
11.4851 5.7229 8.22596 0.33008 0.904273 0.27081
2.85145 7.64034 7.13142 0.136795 0.337095 0.93148
3.35962 16.8221 10.7333 0.367443 -0.47691 -0.798463
17.2412 11.8612 17.4784 0.197778 0.708939 0.676971
18.4527 4.85052 1.0425 0.275477 -0.137381 -0.95144
11.9095 12.804 12.2798 0.929536 0.100877 -0.354664
17.9937 16.9882 15.1494 0.248107 0.885079 -0.393799
13.5517 14.0394 12.9073 -0.528263 -0.764232 0.369984
10.0926 16.5388 13.4382 -0.117953 0.432772 -0.893754
19.4792 18.3106 7.62215 0.461861 -0.415152 0.783794
7.87213 7.6823 14.2558 -0.166276 -0.121792 -0.978529
13.8817 7.84834 7.39399 0.157195 0.984938 -0.0720244
9.02241 3.5232 6.21956 -0.0978335 -0.359373 -0.928052
13.4794 19.176 17.4724 -0.227431 -0.83286 -0.504598
12.6756 8.64275 16.8821 -0.268398 -0.925674 -0.266628
14.0509 16.364 4.19266 -0.00858976 -0.822473 0.56874
5.07431 2.99437 7.28611 -0.62518 0.192502 -0.756368
19.5707 12.4631 19.2793 0.00473461 0.885402 -0.464802
11.5355 14.3553 4.19741 -0.978386 0.204952 0.0274938
16.9057 1.83659 11.5108 0.939884 -0.12141 0.319182
3.87288 15.1524 1.93037 -0.600836 0.798172 -0.0437927
5.44955 2.28912 11.5573 -0.322988 0.692532 0.645042
16.9482 18.7421 1.72868 -0.599957 -0.465758 0.650478
8.24486 4.54984 6.06612 0.140702 0.196065 0.970444
14.831 5.36811 1.96995 -0.633583 -0.760869 0.140184
9.48335 6.01581 16.012 -0.603712 -0.478856 0.637361
16.0405 6.64519 0.637203 0.869066 -0.246446 -0.428939
4.36616 17.0968 3.8287 -0.453893 -0.544478 0.705354
16.3 3.30424 5.27439 -0.662506 0.746635 -0.060188
7.47548 10.4366 15.1132 -0.253836 -0.88804 0.383344
14.811 1.55906 7.50311 0.450372 -0.80321 0.389895
18.5451 15.2945 17.0566 0.861416 -0.464986 0.20433
14.4687 18.7245 10.0833 -0.902002 -0.0391826 0.42995
14.8169 6.06065 17.7412 -0.0295648 0.632893 0.773675
5.99843 1.93962 4.20333 0.051313 0.884352 -0.463992
1.79071 12.7963 12.8217 -0.201136 0.834089 -0.513654
5.02896 3.00648 9.92469 -0.447198 0.856057 -0.259193
5.87648 18.1551 0.877747 -0.463149 -0.611933 0.641117
8.24281 9.02546 3.78091 0.443933 -0.754546 -0.483305
18.0529 13.7584 6.58422 -0.269729 -0.291289 0.917822
17.1117 2.92337 0.730677 -0.684619 -0.70049 0.20152
1.96727 19.1593 14.3628 -0.180398 -0.872811 0.453496
14.727 16.0004 2.72756 -0.570089 0.813736 0.11328
8.6292 10.214 15.7117 0.454782 0.37752 -0.80663
6.65099 2.8621 2.6606 -0.908604 -0.29657 0.294083
9.80839 8.65297 9.74505 -0.779332 0.489055 0.391749
7.42946 7.13312 5.56033 0.768507 -0.50366 -0.394619
19.3665 2.10645 12.8044 0.548477 -0.738339 0.392464
19.6829 2.27196 5.10875 0.00782401 0.610997 0.791594
1.7494 5.20405 11.759 0.166073 -0.951974 0.257226
17.2738 12.1296 4.83295 -0.121391 0.0138758 0.992508
14.9198 18.5558 3.07091 0.697308 -0.716671 -0.0120154
15.0633 19.7508 12.6035 0.889541 0.349019 0.294792
13.7255 16.187 13.0526 0.979443 0.181162 -0.0887277
18.5711 1.97409 2.1186 -0.0525351 -0.954009 0.295138
11.3949 14.1437 12.4432 0.0311824 0.715 0.698429
20.6024 5.68044 18.7337 -0.506366 0.656979 -0.558545
10.3435 10.2225 4.06775 -0.983355 -0.00758275 -0.181536
6.78178 2.58943 8.62387 0.733464 0.221809 -0.64252
10.0773 6.21025 11.1483 0.877005 0.101938 0.469543
17.0967 1.95335 9.94766 -0.954384 0.23242 0.187435
17.6164 10.6424 18.0962 -0.901512 0.350937 0.253218
8.29238 7.18086 11.4442 -0.204578 0.118794 0.971615
17.7895 13.6257 9.0175 -0.522768 0.493716 -0.694952
2.15176 14.6275 18.904 -0.0203122 0.212206 0.977014
16.2655 12.7466 9.96336 -0.976822 -0.0391268 0.210445
15.4637 16.2631 4.8923 0.632488 -0.508275 -0.584479
11.0306 10.2353 10.1306 0.227283 -0.568794 0.790453
7.06387 19.4955 3.32684 -0.891862 0.170622 -0.418892
11.3921 18.4001 15.4809 -0.0931252 -0.927395 0.362306
6.39122 5.24196 3.40746 -0.264886 -0.116193 0.957254
10.6115 6.33733 7.76447 0.131935 0.502677 0.854347
13.4338 7.9543 5.80997 -0.822832 -0.28741 0.490247
6.70056 3.32407 1.33448 0.731797 0.510129 -0.45193
10.3042 1.99681 14.3456 0.107392 0.589511 0.800589
14.4716 2.47592 5.80755 -0.414334 -0.739424 0.530641
19.0186 16.88 17.2844 -0.920609 0.053278 0.386834
17.0378 20.1681 8.35391 0.842593 0.253246 0.475293
3.14641 18.0386 12.8816 -0.866184 -0.277549 -0.415563
16.9686 4.76637 5.01667 0.938354 -0.151389 0.310763
6.18932 14.4178 3.96855 0.287994 -0.00235496 0.957629
20.3166 10.4541 1.14091 0.246473 0.958414 0.143854
8.22695 8.88703 14.9492 0.828634 0.142427 -0.541369
5.44962 9.18201 7.47906 -0.48501 0.750772 -0.44845
6.55506 6.24459 12.8163 0.0496242 -0.538899 0.840907
19.881 7.89107 11.1493 -0.558277 -0.629482 0.540443
7.56129 7.34195 8.21126 0.0991486 0.70676 0.700471
9.85492 14.1358 4.99363 0.984097 -0.163911 0.0684512
6.19047 2.63552 5.06044 0.234128 -0.824241 0.515568
6.35771 10.5772 9.23693 0.255172 -0.869465 -0.422988
11.7076 17.4097 7.60602 -0.301768 -0.171573 -0.937816
7.56487 8.30379 3.24967 -0.466987 0.716642 0.518023
11.635 9.45618 6.76967 0.216521 -0.97547 -0.0397068
10.3026 11.978 0.781076 0.285485 -0.789305 0.543595
3.40517 3.82788 5.29667 0.569507 0.821738 0.0201973
16.1022 12.005 4.37409 0.0971565 -0.157819 0.982677
9.49824 16.2636 17.001 -0.363845 -0.199912 -0.909754
12.465 6.72575 12.5609 -0.785246 0.559049 -0.266181
4.50176 4.03342 8.19918 0.983251 -0.165459 -0.0764262
14.9461 12.1496 16.8186 -0.0985322 -0.967084 0.234608
6.23227 10.4714 8.05172 -0.488739 0.753678 0.439436
20.9456 11.4909 6.70278 -0.659538 0.740915 -0.126709
16.3369 11.1494 11.6732 0.801537 0.347538 -0.486575
14.0883 11.8865 11.0117 -0.679822 0.487522 0.547873
17.7459 9.39202 9.55829 -0.0404652 -0.932865 0.357947
15.6476 8.12512 11.7328 -0.340045 0.766747 -0.544489
9.06864 6.82721 0.75297 0.0914122 0.747888 0.657501
18.3838 16.9205 8.48979 0.435558 0.714269 0.547822
8.76857 6.2966 12.2089 0.728021 0.64409 -0.234806
2.81437 9.55902 2.37729 0.0229399 -0.987936 0.153152
20.2753 9.82144 4.7487 -0.257269 0.963821 0.0697285
13.5959 15.1842 9.40365 0.689229 -0.552107 -0.469192
4.5474 17.3297 0.568896 -0.695906 -0.632746 0.339629
8.81869 20.158 13.8822 -0.859877 0.299025 0.413759
12.5251 16.6732 17.9917 0.0492142 -0.358461 -0.932247
2.32129 9.55238 8.70195 -0.187949 -0.219009 -0.95745
4.41851 5.62591 0.731559 -0.894819 -0.443562 0.0505181
12.2078 16.6922 11.3217 -0.6359 -0.220971 0.739462
19.8689 20.6602 2.80949 0.780298 0.0883013 -0.619142
19.3804 17.5081 14.6452 0.43416 0.801354 -0.411506
13.9194 11.4515 0.00667546 -0.316827 -0.922854 0.218998
8.41273 15.34 16.5308 0.238464 -0.339619 0.909832
4.16552 9.60229 14.2473 0.0482487 0.808271 -0.586831
11.6706 4.51502 2.45866 -0.3375 0.88444 -0.322272
14.9821 18.1536 13.1823 0.699672 -0.700489 -0.140618
20.551 9.76306 8.54116 0.200698 -0.970094 0.136524
11.957 7.67029 9.74253 -0.637109 -0.731576 -0.242671
18.8985 7.26082 0.743027 -0.191697 -0.771613 -0.606519
19.3427 15.5257 9.20326 0.200492 0.556917 -0.806006
2.68361 14.7938 10.2047 -0.404187 -0.854085 -0.327371
17.7112 12.5188 1.1964 0.994509 -0.102697 0.0201467
2.75111 18.5365 2.08258 0.74826 -0.199834 0.632592
17.4359 3.94387 16.8891 0.0269642 -0.217348 0.975722
20.3453 7.98778 13.4932 0.802671 0.596297 0.0122114
11.4281 12.644 19.1259 0.992137 0.100051 0.0751913
20.1064 9.81084 5.88009 -0.235979 0.950467 0.202301
15.3388 17.7786 9.8034 0.982334 0.0778319 -0.170183
5.60215 12.1238 14.1105 -0.269429 0.626148 0.731674
4.3718 10.9057 5.89494 0.163352 -0.907308 0.387437
3.16735 18.2364 14.5145 -0.250468 0.669707 0.699113
4.49287 19.9462 9.58293 0.762118 -0.0180151 -0.647188
20.4872 14.182 2.1835 -0.153169 -0.946528 0.283942
14.9372 8.95699 0.487353 -0.553419 0.824241 0.119808
10.6659 13.9447 11.0089 -0.291821 0.755009 0.587198
9.64796 19.252 5.6169 -0.76332 0.635534 0.115926
13.4528 10.5635 6.272 -0.687916 -0.502824 0.523392
4.04557 7.55886 12.9147 0.892059 -0.248874 -0.377218
10.0396 15.8509 12.4264 0.994919 -0.0975445 0.0249442
15.6263 15.9704 18.1275 -0.753839 -0.286709 0.591207
4.38709 11.8009 17.7355 -0.339191 0.77105 0.538916
16.2412 19.9544 14.9015 -0.622047 -0.0997397 -0.776602
8.60908 14.0242 12.9424 0.60895 0.773669 -0.174975
2.12211 7.55052 16.5643 -0.466357 -0.460842 0.755073
11.4661 3.68157 15.2893 -0.909864 -0.258257 0.324733
16.6003 10.8902 5.29446 0.0718553 0.300389 0.951106
3.9323 16.4618 2.67768 -0.125723 -0.953782 0.272936
13.8237 5.46761 14.9376 0.590552 0.445842 0.672661
17.7283 16.7685 16.6783 -0.692721 0.647708 0.317195
5.36058 20.19 0.285331 0.762298 -0.520089 -0.385238
16.8747 15.9954 9.02987 -0.115656 0.568097 0.814794
3.28709 7.95234 16.9483 -0.0998643 -0.290242 0.951728
19.8337 2.76398 14.052 0.811995 -0.207839 0.545405
14.0563 18.3534 0.257847 -0.278117 0.111993 0.953996
13.6578 13.1702 15.4148 -0.130618 -0.860722 -0.492033
8.08801 18.4356 4.84328 0.765765 0.613099 -0.194199
5.09354 5.93781 18.9643 0.0868677 0.901477 -0.42402
13.5077 3.42433 9.93161 0.215558 -0.626525 0.749
14.7006 13.6522 15.0759 -0.14329 0.00427932 -0.989672
12.8367 15.8406 14.5437 -0.489075 -0.460765 -0.740609
17.1767 17.6721 10.9768 -0.485966 0.858315 -0.164718
11.3047 14.7745 7.38318 -0.108307 0.0381213 0.993386
13.9988 1.92007 13.7619 0.22069 -0.135386 0.965902
13.9521 16.7892 17.5718 -0.65013 -0.518454 -0.55546
20.8758 11.3338 15.3793 -0.0140502 -0.93244 -0.361051
12.0804 3.65935 17.5067 -0.999683 -0.0174032 0.0181998
20.8915 7.0009 13.4119 0.132652 -0.111041 0.984923
15.5301 3.84483 14.9197 -0.72049 -0.637618 -0.272649
