17.3445 10.9086 9.01175 -0.84931 -0.392587 -0.352913
24.0488 13.4183 15.5643 0.956519 -0.0556738 -0.286307
11.6251 20.0656 11.0224 0.15045 -0.668829 -0.728033
23.1681 13.0716 10.4001 0.0820531 0.699155 -0.710246
15.7731 11.0761 7.19263 -0.276341 0.519437 -0.808592
13.1656 10.4037 18.5217 -0.458128 -0.787662 -0.411955
17.82 15.3475 17.279 0.669997 0.698199 -0.252233
23.6045 19.6306 17.9465 0.920091 0.346341 0.182979
12.6138 16.7049 17.2876 -0.237341 -0.379385 -0.89428
14.0309 15.5367 17.9954 0.608118 0.016247 0.79368
18.7312 12.7819 17.5689 0.358584 -0.905875 0.225407
18.6923 17.8044 13.2818 -0.468835 -0.717475 -0.515193
19.9429 14.1626 13.5636 -0.410077 -0.57289 -0.709672
14.4907 15.4341 8.8454 0.315956 0.181478 0.931256
20.1683 12.4594 7.199 -0.705878 0.519008 0.482045
23.912 15.7174 11.5204 0.94476 -0.057186 -0.322736
12.4285 11.2145 8.33946 -0.927163 0.373357 -0.0311918
17.4651 19.866 7.48427 0.960481 -0.0847046 -0.265144
24.0484 11.7881 19.0886 -0.198147 0.961912 -0.188318
11.6191 19.6083 19.0226 0.50159 0.819327 -0.277688
15.0024 12.8508 19.3076 -0.601156 -0.763505 -0.235948
12.6339 23.2243 8.51347 -0.967344 0.253193 0.0118263
22.2438 13.415 17.2032 0.240785 -0.831894 -0.499975
20.3055 16.9496 18.2548 -0.306305 -0.924091 -0.228544
23.7255 12.193 8.97872 0.0627179 -0.949922 -0.306128
15.4604 17.1689 15.9742 -0.422937 -0.406877 -0.809676
19.6798 18.092 17.446 0.859365 0.087311 0.503853
16.759 17.0675 7.67972 -0.829407 0.544916 0.123086
11.5282 16.2255 18.3519 0.177346 -0.725673 -0.664791
14.2847 13.5254 15.8096 0.21615 0.39888 -0.891164
13.1661 12.8315 14.7529 0.762401 -0.588737 0.268576
14.8345 15.886 17.5753 -0.66067 0.538562 -0.52294
14.3679 13.4524 10.9976 0.283519 0.945669 -0.159144
12.4025 17.0642 7.96954 -0.164968 0.196056 0.966617
15.358 13.8497 11.5854 0.143228 0.71221 0.687199
21.5283 18.752 7.4582 0.144731 0.798302 0.584609
22.5039 11.6711 11.5033 -0.698002 0.716065 0.00667282
21.1853 16.0752 19.7332 0.38721 0.718941 0.577228
13.1981 15.3861 8.02437 0.388221 -0.158763 -0.907788
20.7483 14.7605 7.41773 0.356417 -0.790804 -0.497591
18.4941 20.9041 11.1173 -0.85239 0.519209 0.062075
22.4422 17.8559 17.9042 -0.51645 0.422489 -0.744837
23.8008 17.2198 18.3958 -0.00776958 -0.799662 -0.6004
16.8016 18.5804 11.2834 0.490005 -0.260023 -0.832035
14.1513 16.5544 18.3021 0.7675 0.294428 0.569435
14.5146 13.2392 14.4277 -0.0655189 0.74086 -0.668456
19.0489 18.6724 19.159 0.201456 -0.977487 -0.0627341
21.6838 17.95 12.0609 0.0412465 -0.910669 -0.411073
23.3793 17.444 9.94537 -0.137362 0.200497 0.970017
23.572 19.0586 17.1242 -0.794473 0.402763 -0.454527
23.7908 20.2404 18.7912 0.189042 0.914319 -0.358167
13.397 14.9311 15.8208 -0.266255 -0.061517 -0.961938
15.2087 17.4338 8.71818 -0.931225 -0.104572 -0.34912
17.5901 11.0582 12.4695 -0.483051 -0.337997 -0.807725
15.0953 16.2476 8.74747 0.631168 -0.350616 0.691878
11.3746 17.4471 8.64619 0.0578488 -0.996964 0.0521176
20.5772 18.5208 17.0316 0.795996 0.0438495 0.603712
19.5879 11.3023 8.12539 -0.223284 -0.0659664 -0.972519
16.2687 19.1054 14.6882 0.716205 -0.584375 0.38152
16.2359 12.5697 19.542 0.901175 0.393247 -0.182322
15.5483 21.2192 8.66585 -0.852358 -0.521573 0.038058
13.6294 11.7185 15.7843 0.621448 -0.416482 -0.663585
15.3719 19.0184 9.00195 0.322978 -0.102109 -0.940882
11.6495 17.8245 16.767 0.0825195 -0.995659 -0.0430448
20.0946 11.2419 10.3056 0.319855 0.836818 0.444329
19.4725 12.1902 19.2907 -0.406686 0.559072 -0.722527
20.4117 21.8039 19.3381 0.456334 0.889806 -0.0020602
19.7895 16.4735 7.65674 -0.304688 -0.95245 -0.00213532
21.9807 20.0275 17.1274 0.984375 -0.0247761 0.17433
15.2639 15.1443 16.6312 -0.558503 0.0614383 -0.827224
17.6122 13.5461 17.8835 -0.744737 0.402677 -0.532182
21.5307 12.9106 9.21016 0.528348 0.542331 -0.653242
23.168 12.1437 17.1075 0.84459 0.535356 0.00791104
12.4228 12.7987 11.1092 0.570798 0.627976 -0.528995
15.6865 15.0561 7.61296 -0.210712 0.442803 -0.871508
18.8107 11.1258 14.4941 0.569436 0.215961 0.79316
22.2361 15.4569 13.8084 0.962239 0.0278274 0.27078
22.4117 22.5139 10.4167 -0.180504 0.834542 -0.520536
21.9018 21.2992 8.84048 -0.198401 0.701449 -0.684548
15.1708 20.0055 14.9945 0.748334 0.413425 0.518725
12.8803 20.7821 7.54946 -0.828579 0.544276 -0.131227
11.1426 16.7045 9.666 -0.259097 -0.95473 0.146149
18.0959 16.4446 18.6374 -0.344015 -0.0841167 0.935189
23.574 18.1678 18.0039 0.347855 0.838945 0.418531
13.8877 17.6146 9.29704 0.0533994 -0.890452 -0.451934
18.5896 16.7644 7.9084 0.642023 0.712851 -0.282224
21.7952 12.127 8.38831 0.628043 0.435083 0.645185
14.7074 21.9546 6.92555 0.757335 0.504529 0.414601
17.191 21.4104 9.91296 -0.629846 -0.350535 -0.693122
17.31 15.3107 18.2951 -0.962443 -0.251227 -0.102897
17.7292 13.032 14.5171 -0.673755 0.659803 -0.332738
11.6012 10.702 16.3113 0.128164 0.559888 -0.818596
20.9633 21.152 18.8758 -0.595279 -0.690532 -0.410862
20.7568 22.9198 7.29142 0.28006 0.940823 0.190834
19.3141 20.7014 16.3802 0.28145 -0.726712 -0.626638
21.0008 16.1372 7.79081 0.470614 -0.767353 -0.435536
18.4106 11.78 11.3844 -0.391608 -0.90948 0.139602
18.6001 19.9649 10.501 -0.842428 0.34726 -0.411977
12.9053 15.0304 17.9666 0.0152855 0.195151 0.980654
18.9995 17.9821 14.8697 -0.413329 0.835987 -0.360951
23.8815 16.7243 16.9579 -0.00613233 0.98691 0.161154
13.8356 18.8439 19.1106 -0.928603 -0.063954 -0.365523
23.1975 19.1634 9.93195 -0.489232 0.8534 -0.179888
12.2274 22.3689 18.8434 -0.0210362 0.999586 -0.0196279
12.8679 18.639 12.4169 0.918478 0.0770087 0.387902
23.0434 14.1372 17.0374 -0.225844 0.085351 -0.970417
13.9013 21.5035 15.6416 -0.0540785 0.698845 -0.713226
21.0669 11.2142 16.8796 -0.678543 -0.73072 0.0750236
12.7988 20.2186 15.0202 0.877689 0.302396 0.371778
23.0174 14.2142 14.7988 -0.525526 -0.673749 0.519504
12.0337 12.4837 15.4737 0.996416 -0.0305165 0.0788932
13.1586 22.6598 19.126 0.0038531 -0.728362 -0.685182
14.4075 22.6251 16.1042 -0.155753 0.982796 -0.0992659
19.5745 21.0138 7.2528 0.817383 -0.523818 -0.239792
22.8859 10.5473 7.82884 -0.266058 -0.436584 -0.859423
19.1375 19.1943 15.806 -0.737584 -0.0199291 -0.674961
12.7273 14.6384 11.7769 0.479013 -0.877778 -0.00724538
12.1072 12.3809 17.3745 0.191807 -0.861017 0.471019
20.5418 21.0471 16.757 -0.431452 -0.874062 -0.223304
18.7303 22.375 12.3964 -0.720972 0.633552 -0.280733
17.7778 17.5031 16.516 0.746174 -0.0844692 -0.660371
18.5322 14.0854 10.6221 -0.779642 0.0156375 -0.62603
14.6362 18.4601 8.57566 0.357632 -0.499028 -0.789348
17.4169 19.6153 18.2911 -0.062248 0.90589 0.418914
19.9963 18.6965 19.1739 -0.251596 0.964476 0.0805283
22.6973 11.6543 8.5417 -0.111522 -0.185593 -0.976278
19.8451 17.633 15.9647 0.221583 -0.7377 0.63773
20.776 19.5004 9.44583 0.346828 -0.441165 0.827698
14.6931 14.9097 7.04734 -0.19532 0.025037 -0.98042
17.3496 16.4578 11.316 0.815045 -0.110667 0.568731
18.3645 17.6323 19.2637 0.44782 -0.872306 -0.196314
22.4613 10.4443 18.4022 -0.361062 0.477288 -0.801143
20.3744 19.8422 15.3296 0.458675 0.31753 0.829935
18.4412 11.4232 10.2906 -0.516581 -0.818497 -0.251407
17.901 17.7122 17.8659 0.135355 0.446484 -0.884495
17.7617 13.9841 15.813 0.757418 0.509677 0.408102
22.5825 22.5558 8.00228 -0.334995 -0.585059 -0.738569
12.9467 16.3783 11.3164 0.134396 -0.990922 -0.00325846
14.4484 13.0064 13.3139 0.563095 0.811906 -0.154058
15.0376 13.9663 9.07323 0.301365 0.93826 -0.169845
21.1104 23.0248 13.8685 0.96046 -0.226504 0.161902
15.3479 21.1427 14.3681 0.445497 -0.0968898 0.890025
12.8806 20.7877 9.64053 -0.862268 -0.464509 -0.201805
11.2828 17.4232 15.8755 -0.48579 -0.873674 0.0265015
21.2292 20.5447 8.80681 0.0340353 0.335705 -0.941352
13.1516 12.5635 11.6644 -0.272758 0.766312 0.581695
16.8398 13.5683 8.77951 -0.547335 -0.718966 -0.428382
18.5443 17.5836 12.0364 -0.903425 -0.377727 -0.202846
11.4901 10.2973 12.7285 -0.784341 0.00685277 -0.620292
14.1526 20.342 10.2297 0.462251 0.870337 0.169817
11.3029 22.5572 8.316 0.937337 0.0739605 -0.340484
21.922 15.8068 12.7643 -0.91449 0.326703 0.238689
23.8191 11.8867 10.1541 -0.652658 0.597988 -0.465239
16.8805 22.5341 19.7973 0.593356 0.577519 0.560714
21.6703 12.0932 13.8491 0.0545738 -0.707115 -0.704989
21.0988 17.4217 15.7724 0.624094 -0.648005 0.436574
21.3177 22.3003 12.1022 -0.372272 -0.159162 -0.914375
19.8791 22.9012 19.3139 -0.285818 -0.806628 0.517359
23.372 10.985 19.9571 -0.05201 -0.393422 -0.917886
21.1143 11.5209 10.1986 -0.381219 -0.0883333 -0.920255
11.5182 14.5705 10.07 -0.692969 0.586389 0.419455
20.867 19.4711 12.8413 0.0612681 0.297192 -0.95285
23.5943 16.3577 8.25331 -0.0849053 -0.293958 0.95204
22.6564 13.1038 14.2982 0.835979 -0.12737 0.533775
23.5033 14.4915 13.3672 0.434533 -0.894542 0.104763
15.0219 18.3917 10.9711 0.584508 0.314137 -0.74811
13.6299 14.4716 14.2623 0.146789 -0.883241 0.445352
11.5758 20.7541 14.4352 0.987207 0.13451 0.0856102
13.7523 14.6618 12.3941 0.526099 0.820374 -0.224069
13.9233 10.2625 10.1574 -0.9598 0.280477 0.0107649
13.6943 19.326 17.1065 0.165048 -0.932588 0.320996
19.7997 12.4193 18.1316 0.121055 -0.834599 0.537392
14.7052 11.4855 8.72857 0.387428 0.825209 0.411011
17.1409 15.4965 15.4131 0.127393 0.963895 -0.233834
14.7388 10.6024 10.9748 -0.886622 0.421132 -0.191177
16.425 14.5221 19.0617 -0.947778 -0.315592 -0.0460361
19.2096 11.852 14.0879 -0.893852 0.446051 -0.0454636
16.5436 15.9267 17.4378 0.954364 0.0269912 0.297422
17.8889 18.6392 7.38315 0.842217 -0.348898 -0.411023
12.8993 10.6677 11.0477 0.172207 -0.980405 0.0956594
18.0924 22.2065 14.656 -0.371065 -0.82378 0.428598
16.6082 19.9107 15.4028 -0.751872 -0.641187 0.153519
22.8254 13.5429 8.91368 0.230377 -0.9017 -0.365872
17.3173 13.2308 10.0948 0.622377 -0.689423 0.370598
16.0694 16.406 19.2093 0.954497 0.266054 0.134727
23.7563 13.9283 19.572 -0.522884 0.494533 0.694283
24.0047 15.3355 8.00292 0.871714 0.245129 0.424294
19.3488 23.0656 17.1696 0.420129 0.836353 -0.352144
13.4166 18.9952 10.7198 -0.15496 -0.839325 -0.521077
21.3851 13.03 10.3717 -0.278512 -0.694187 0.663728
22.9622 11.0729 12.3945 0.99952 0.00952389 -0.0294846
17.43 18.3409 16.2578 -0.0523078 0.622867 0.780577
21.4179 17.9914 10.4754 -0.892491 0.450222 0.0275742
21.1882 17.7685 7.88113 -0.371949 -0.76455 -0.52642
17.7484 20.9155 14.3428 -0.936785 -0.158311 0.312044
14.731 13.7661 18.2215 0.222606 0.303689 -0.926401
15.8204 16.3348 11.5085 0.847141 0.423433 0.321024
13.6636 16.3523 10.739 -0.288707 -0.708987 -0.643417
11.9288 22.6358 15.5322 0.889079 -0.27108 -0.368855
13.4186 21.5428 10.5217 0.209558 -0.925354 0.315919
13.0304 20.8448 17.4525 0.369239 0.486341 -0.791918
13.0614 16.4172 18.6777 0.707159 0.66016 0.25321
12.1418 18.6269 19.4071 -0.267794 -0.0168826 -0.963328
21.0873 16.4953 13.8253 -0.374146 0.709166 -0.597577
20.5295 15.9326 9.63871 0.112918 0.844296 -0.523845
19.506 16.2842 19.5289 -0.277064 -0.831052 0.482274
20.2816 15.773 13.6249 -0.533339 0.376553 -0.757468
16.6134 21.1434 10.9153 0.205469 0.949825 -0.23583
18.2302 12.3096 9.00701 -0.276471 -0.211544 0.93745
17.2199 10.2024 8.09166 0.838423 0.193631 0.509465
23.5249 11.789 18.1945 0.178204 -0.94887 0.260554
22.3466 20.6287 10.7324 0.15078 0.48499 -0.861423
13.7376 13.6976 18.2205 0.208769 -0.00818079 -0.977931
19.9656 12.5907 16.848 0.157189 0.718499 -0.677533
12.8459 11.5311 18.4506 -0.717451 -0.311923 0.62287
18.0325 14.0387 7.01598 0.0715979 0.65322 -0.753775
16.822 16.9905 15.9817 0.170413 0.269899 -0.947689
11.7239 14.0989 19.8742 -0.424406 -0.71864 0.55085
11.1832 15.9085 14.1793 0.669803 -0.682533 -0.292426
12.1516 15.0416 14.8909 0.56187 0.217833 -0.798029
13.2084 16.9164 15.8691 -0.319825 0.410642 0.853865
19.5025 13.6339 18.3575 0.906926 -0.288061 0.307417
14.6957 10.6165 9.36525 0.114818 -0.523448 -0.844286
16.7486 15.5494 10.014 0.775482 0.499403 -0.386295
11.1987 18.6972 13.3529 0.250353 0.258773 -0.932931
12.5257 17.1304 14.9969 0.378844 -0.877235 -0.294849
24.0145 20.0181 9.71064 -0.0777573 0.821537 -0.564828
11.7155 19.6432 13.2973 0.0752273 0.258338 -0.963121
22.0342 19.8045 14.5277 0.707827 -0.651376 0.273295
17.2595 16.1347 13.4806 0.0372596 -0.995922 -0.0821661
16.0807 18.1698 9.62484 -0.717457 -0.372143 0.588867
12.6924 14.7911 9.42951 0.482948 -0.348083 -0.803492
11.096 12.8793 12.0654 0.0276573 0.964873 -0.261255
15.4287 18.5352 12.6999 -0.755658 0.433058 0.491368
12.3216 12.8273 9.95256 0.490505 -0.786665 -0.374918
18.7755 15.0128 17.9327 -0.714819 -0.569227 -0.40622
20.6346 16.5391 16.0394 -0.609183 0.0812179 -0.78886
20.8612 21.3024 11.454 0.464155 -0.240498 0.852479
15.7332 10.8196 9.17125 0.256596 0.448662 -0.856073
22.0847 14.134 11.6445 0.141282 -0.604622 0.783882
20.6632 22.2171 14.6788 -0.596096 0.35359 -0.720863
12.5891 20.2333 8.52834 0.830738 -0.491426 -0.261483
21.8726 18.3436 9.4965 -0.0633829 0.521293 0.851021
23.3909 14.6291 8.64205 0.329421 -0.941984 0.0644042
22.4961 16.0179 9.93962 -0.900104 0.297448 -0.318334
21.3008 13.6601 12.3659 -0.33567 0.622279 -0.707174
17.2489 15.582 8.86487 0.41356 -0.586857 0.696109
22.4744 21.4912 17.7586 0.290962 -0.721401 -0.628428
12.1123 22.7638 12.0872 0.0733928 0.290784 -0.95397
14.6568 18.2749 9.95514 0.552028 -0.0910951 -0.828834
23.8764 19.9279 12.7994 -0.39206 -0.854485 0.340799
23.4638 19.1494 7.02144 0.914011 -0.378198 0.146801
23.0398 21.2775 15.5466 0.764714 0.491882 -0.416252
18.4478 16.0394 13.9241 -0.43504 0.706086 -0.558733
23.2667 19.3506 12.1101 -0.801547 0.568449 0.18544
18.7743 22.1272 9.06422 -0.172168 -0.111241 -0.978766
16.2387 15.4789 19.0326 0.958954 0.254253 0.125545
21.3615 15.8836 18.0581 0.101458 -0.945742 -0.308672
18.1482 21.9564 11.7051 0.912296 -0.236218 -0.33454
14.8548 20.0343 9.65832 0.430289 0.491592 0.757093
20.4208 13.4577 7.749 0.792627 -0.150917 -0.590734
16.343 21.2165 11.8848 0.991878 0.105186 -0.0715069
17.5142 12.8744 8.60985 0.25264 0.588588 0.767944
13.4731 12.8239 9.37778 0.817457 -0.548668 0.175292
21.5145 17.0059 8.4076 0.447471 -0.639231 -0.625422
19.3315 17.2297 18.322 -0.300851 -0.952748 -0.0419425
15.0986 18.2646 18.98 -0.714916 -0.65221 -0.252026
17.6245 22.7004 19.2339 -0.549789 -0.559992 -0.619791
22.2116 21.0199 14.1075 0.828192 -0.00133847 0.560443
11.4347 22.8077 10.5582 -0.159944 0.459966 0.873412
11.6589 20.7946 13.2732 0.830753 -0.476174 -0.288285
11.6838 14.6891 13.1028 0.732398 -0.539903 -0.414848
23.3536 16.5666 12.045 0.365699 0.400471 -0.840171
12.5524 19.4748 18.2864 0.952673 0.26121 0.155513
17.1117 19.1366 15.7067 0.863811 0.454506 -0.217381
14.1219 16.1723 9.76519 0.549751 0.147757 0.822157
23.1132 19.4934 15.6675 0.452139 -0.69128 -0.563651
23.9573 19.8084 7.8275 -0.069949 0.975659 -0.207837
12.7619 19.1812 14.5695 -0.814561 -0.548748 -0.188058
16.078 11.8058 9.5866 0.968084 -0.101081 -0.229337
17.4995 19.1363 13.0952 0.211227 0.928239 -0.306194
16.6588 18.6665 18.0469 0.267128 -0.962519 -0.046903
20.6591 16.5122 19.0643 0.708342 0.695939 0.117984
11.152 22.406 12.0172 0.473374 -0.174804 -0.863343
18.8446 18.8165 7.89636 0.737198 -0.655572 -0.163598
22.0413 15.3278 19.2716 -0.0875805 0.464408 0.88128
12.4595 15.5291 16.7352 0.109232 -0.406605 -0.907051
15.537 19.6796 19.5367 -0.0146767 0.688769 -0.724832
18.4999 20.4344 8.90173 -0.516577 -0.591363 0.619223
11.542 11.8194 16.1299 0.824212 0.0120517 0.566152
17.9245 22.1032 17.8615 -0.349591 -0.65506 0.669838
15.8566 21.6435 19.9318 0.403196 0.654854 0.639218
18.7959 11.6224 18.7741 0.526331 -0.701497 0.480498
20.8451 16.9427 12.202 -0.7674 -0.251828 -0.589643
23.469 22.0334 11.1403 -0.178729 -0.934243 -0.308618
20.4553 20.3529 10.8011 0.0338911 0.0194808 -0.999236
22.5103 20.6127 18.6798 0.432957 -0.900602 -0.0382608
23.5431 21.9473 7.82994 0.281844 -0.752404 0.595359
17.1717 19.5342 11.1299 0.546794 -0.052942 -0.835591
19.7111 20.2436 9.1773 -0.0282497 -0.0977622 0.994809
12.1681 20.6482 19.743 -0.23667 0.955482 -0.176186
22.1675 17.1172 9.58832 0.870776 -0.488351 -0.0571198
12.889 11.9732 7.69239 0.286588 -0.860847 -0.420486
11.7387 13.1735 8.50732 0.113787 -0.340075 -0.933489
20.2066 10.6272 8.28651 0.269431 0.55424 -0.787543
14.3626 15.6995 14.4046 -0.526223 0.450123 -0.721442
23.0953 20.7778 8.91337 -0.0472438 0.100869 -0.993777
11.12 12.605 19.8749 0.673865 -0.711114 -0.200556
17.4989 22.2638 8.13355 0.573037 0.35727 0.737554
16.043 17.2335 18.1787 -0.3134 -0.0569879 0.94791
23.7978 10.2259 7.61398 0.213421 -0.0273931 -0.976576
11.6819 22.6603 6.94306 0.102667 0.733073 -0.672357
16.7375 10.212 19.0393 0.65145 0.706312 0.277015
14.2506 21.5207 9.02656 -0.0934078 -0.938814 0.331517
12.5708 18.0466 8.28257 -0.568037 0.132258 0.812307
12.7292 18.6238 9.68286 0.809126 0.478735 -0.340777
24.0624 11.9709 11.3382 0.185229 -0.904239 0.384762
12.5003 19.211 8.81823 -0.487778 0.408169 0.771668
22.2423 12.3235 10.204 -0.0215465 -0.816472 0.576982
12.3405 22.6471 17.1854 0.873916 0.413357 0.255749
21.4332 20.6602 19.6719 0.750349 -0.580027 -0.317088
11.2807 22.1504 18.9134 -0.202265 0.974126 -0.100833
19.4852 11.7242 16.5439 0.295424 0.406117 -0.864751
18.901 12.1013 7.25441 0.503202 0.0534167 0.862517
23.6896 12.0612 14.6677 -0.995618 0.0700832 -0.0619074
22.7377 11.6007 18.6459 -0.592398 -0.0586847 -0.803505
22.6463 19.2478 13.5473 -0.621495 0.385023 -0.682276
21.654 19.5256 11.3641 0.471851 -0.273361 0.838231
13.6021 22.6956 9.40228 0.991536 -0.0404067 0.123382
22.3941 22.1495 13.5149 0.602056 0.327815 -0.728056
21.1396 11.1434 15.5103 0.51116 0.534341 -0.673198
20.4013 13.6843 11.1741 -0.154958 0.965702 -0.208347
11.7576 20.6315 16.4795 0.948623 -0.183875 0.257497
11.5885 21.6491 8.67444 0.856099 -0.269996 -0.440677
21.6601 10.619 10.8095 -0.395843 -0.518519 0.757922
14.1299 20.8977 13.3646 0.303407 -0.221349 -0.926795
12.7343 11.6894 12.0947 -0.675788 -0.215047 -0.705029
13.3909 17.1154 7.08787 0.242622 -0.276939 0.929752
23.4535 17.7168 14.3191 -0.629797 0.685988 0.364385
13.17 19.8556 9.50243 0.627327 0.416518 -0.658008
18.115 23.0823 10.9208 -0.604086 -0.790566 0.100433
15.2796 11.3254 13.5787 0.515501 0.627879 0.583118
15.1997 16.1044 7.48367 0.0263334 0.585567 -0.810196
16.5828 11.7939 12.0111 -0.0389752 -0.957296 0.286469
20.456 13.1377 10.038 -0.495385 -0.403661 0.769189
15.4552 10.4423 18.2977 0.994143 0.0154637 -0.106963
18.7224 11.2416 15.9747 -0.911904 0.405897 -0.0606558
17.7227 12.6824 13.0674 0.117967 -0.792235 0.598705
19.6575 13.899 9.23975 -0.884302 -0.116 0.452276
17.8124 22.1927 9.59449 0.594663 0.344121 0.726606
14.4883 21.4282 14.7316 -0.130151 -0.922044 0.364547
19.1241 12.9365 8.92706 0.739072 -0.222487 -0.635824
16.0078 12.5276 10.2964 0.611138 0.370574 -0.699418
14.9748 12.0899 12.7169 -0.255033 -0.5834 -0.771105
20.9015 21.7549 7.95667 -0.465219 0.0639773 0.882881
19.7495 16.6358 8.73126 0.105399 -0.881001 0.461225
15.1661 18.0436 15.721 0.314332 -0.204194 -0.927093
22.8079 21.918 19.6716 -0.554651 0.573626 -0.602756
12.6536 20.1163 12.0417 -0.688499 0.692829 0.214378
18.3322 21.0264 15.7343 -0.0433685 0.993545 -0.104823
20.6094 14.8925 8.76102 -0.750095 -0.0489831 0.659514
18.4467 13.8005 8.71645 0.322226 -0.621913 -0.713719
12.8429 21.3371 15.7696 -0.410187 -0.0347165 0.91134
13.8936 11.5225 9.58663 -0.156655 -0.154989 -0.975417
12.7193 11.4831 15.4911 -0.28659 -0.503545 0.815051
11.0787 14.8209 9.25818 0.0624974 0.979926 -0.189313
21.1202 11.9377 12.0004 0.254332 -0.963321 -0.0855993
20.337 13.1013 19.4719 -0.996637 -0.0317252 -0.0755586
18.1372 22.3719 13.1165 -0.726519 -0.482923 -0.488831
13.6416 14.4018 11.1001 -0.195833 -0.980059 0.0336794
16.3166 20.7723 7.33629 0.041009 0.832599 0.552356
13.9338 11.7398 11.9332 -0.222002 -0.832641 -0.507369
21.2998 10.4466 9.28434 0.952693 -0.29389 -0.0774965
17.5782 12.6731 18.7308 0.901719 0.0291463 0.431338
11.3374 17.7541 11.5632 0.978749 0.162475 -0.12511
19.5146 14.8993 16.1552 -0.459053 0.408261 -0.789046
15.9282 22.7302 14.2587 0.821056 0.381021 0.425077
11.8778 14.2459 11.9793 0.329318 -0.942336 -0.0595978
23.7558 19.8815 13.9041 -0.216372 0.760583 -0.612124
16.4898 12.7117 13.0482 -0.601605 -0.166135 0.781326
21.7188 21.4503 17.188 0.282257 -0.780574 -0.557706
11.9387 15.9314 9.52997 -0.367378 -0.384525 0.846861
23.4994 18.4869 8.74008 0.392842 -0.456768 0.798147
22.3802 20.3811 15.1801 0.967182 -0.0465067 -0.249793
20.1614 23.2009 17.7062 -0.0303404 0.996667 0.0757231
22.4079 14.2929 10.1934 -0.690351 0.329746 -0.643959
13.9853 17.204 12.6549 -0.671436 -0.117288 0.731722
22.1658 20.6108 8.16796 -0.199531 0.640407 -0.741665
12.4151 13.7985 7.84894 -0.0329032 0.16851 0.985151
16.5918 11.4929 19.5489 0.519295 0.739871 0.427695
12.0833 15.7066 13.0401 -0.506463 0.761635 0.404236
15.8834 13.3882 9.27079 0.0216457 0.967945 0.250226
21.3957 15.9973 8.75286 -0.946194 -0.274512 -0.171351
17.6847 10.5846 16.3195 0.139503 -0.371719 0.917804
11.0632 12.0062 7.61678 0.195058 -0.810696 -0.552018
19.6065 15.4769 10.2225 -0.0452162 0.873321 -0.485042
13.5363 18.205 8.57906 -0.214644 -0.967525 -0.133501
19.987 17.849 13.2415 0.649527 0.545688 0.529471
14.9049 14.6559 9.92897 -0.784691 -0.575856 0.229456
14.5326 16.3538 12.511 0.764125 0.41378 -0.494872
14.8359 12.8795 11.9515 0.166718 0.845738 0.506885
21.7624 13.9535 7.67234 0.892835 -0.132488 -0.430456
19.1765 20.0207 15.0002 -0.0554463 0.884137 0.463927
21.4261 16.3263 15.1823 0.25825 0.965743 -0.0254254
22.9855 22.8751 17.2743 -0.32257 -0.219272 0.920798
19.7673 19.5351 7.57791 -0.0889917 0.555697 -0.826609
18.9292 16.8475 11.5041 -0.727241 0.0191025 -0.686117
23.9416 14.9139 19.3026 0.780356 -0.264535 -0.566627
12.3879 21.5125 17.8048 -0.63963 -0.527543 0.559081
20.9891 13.0675 8.40821 -0.815576 -0.00218669 0.578646
22.1954 10.6858 13.7042 -0.00180826 -0.753491 -0.657455
22.4676 20.2907 13.5957 0.568361 -0.334543 0.751696
19.757 22.1449 8.28054 -0.168066 0.379427 0.909829
14.5426 19.822 16.5246 -0.150549 -0.988552 0.0100086
16.279 11.8976 18.6185 -0.544841 0.830962 0.112473
22.2728 16.5918 12.2956 -0.288136 -0.536061 -0.793484
15.8059 19.0567 11.2768 0.689469 0.333241 -0.643104
18.1461 12.7439 11.9621 -0.19704 0.873894 -0.444393
11.6132 15.2308 16.5031 0.126819 -0.974234 0.186508
15.4757 22.4688 13.046 0.798657 0.600612 -0.0375678
14.893 11.5851 15.7439 0.115762 0.109256 -0.98725
17.9489 20.9141 16.7212 0.441781 0.66612 0.600927
12.4902 18.6706 11.1219 -0.838879 0.0629328 -0.540668
12.6068 19.7981 11.0253 0.565888 0.493751 -0.660288
14.6701 13.9199 8.21399 0.77237 0.289747 -0.565235
16.5178 15.2284 6.915 0.429517 0.90261 0.0284853
12.158 18.4601 13.1272 -0.297594 -0.749882 -0.59086
15.2361 12.4948 16.2086 0.233467 -0.596857 0.76763
18.9626 14.3535 12.8714 -0.340629 -0.0815161 0.936657
20.7236 21.4488 9.65853 -0.285541 -0.666123 -0.689019
11.9213 20.2504 7.78853 0.448197 -0.879884 -0.157876
19.776 14.7876 8.1503 -0.335234 0.615817 0.713013
15.6135 10.5145 16.991 -0.344317 0.766135 0.542663
21.3879 18.9823 15.3012 -0.237846 0.934086 -0.266293
15.2101 21.5645 7.77918 0.214516 -0.751621 -0.623738
23.0868 15.0897 18.1359 0.198308 -0.136572 -0.970578
23.4403 12.141 12.8448 0.470018 -0.812307 0.345313
20.4266 11.073 12.147 0.249736 -0.901471 -0.353527
19.0987 10.3614 7.02709 -0.190015 -0.0970532 -0.976972
22.1737 15.5304 15.3829 -0.359273 0.514271 0.778748
16.6064 22.5038 11.4475 -0.749856 -0.654336 -0.0977733
17.3252 16.6927 8.75559 -0.837826 0.499406 -0.220549
21.3901 14.71 16.3346 0.206352 -0.908236 0.364041
12.78 19.6133 15.7759 -0.419082 -0.780159 -0.464458
16.536 16.1322 14.609 0.300024 0.848294 -0.436329
15.9967 19.6051 9.9032 -0.225337 0.524723 0.820908
16.3382 17.921 15.6468 -0.198165 0.152142 -0.968289
15.549 10.8843 15.4803 -0.437278 -0.47353 0.764563
22.043 14.3003 8.49792 0.843874 0.133809 -0.519588
12.3417 21.7828 9.92969 0.809532 -0.0350203 -0.58603
15.3415 20.026 8.69183 0.858371 0.100099 0.503169
13.6614 19.3163 15.4957 0.435557 0.827276 0.35483
21.2844 10.6084 13.0205 0.375596 -0.445585 -0.812639
15.9571 22.9374 19.7016 0.573052 0.764858 0.294286
12.018 12.401 12.5029 0.288223 0.935827 0.202867
23.4091 18.4337 11.2821 -0.77312 0.228222 0.591777
20.4748 11.9478 13.3819 -0.595706 0.546547 0.588576
16.0833 20.5672 17.4029 0.0285691 0.998589 -0.0447654
18.265 15.5978 19.4141 -0.780656 -0.368426 0.504815
21.8725 19.596 9.6644 0.362429 0.0854848 0.928083
12.8906 20.1906 19.1185 0.0207609 0.960359 -0.277994
22.9679 10.8489 14.5745 -0.00378386 -0.726769 -0.686872
18.0468 21.2438 8.96083 -0.0904136 -0.290866 0.952482
15.3083 20.4245 13.0461 -0.123379 0.0580765 -0.990659
22.9625 14.0504 12.6012 0.650201 -0.749317 0.12555
14.8145 19.6844 12.1521 0.882901 -0.379006 0.277201
16.3716 20.5542 8.3509 0.920749 -0.0317105 0.388865
18.8451 23.2006 11.6096 -0.257933 0.840938 0.475704
15.7597 19.5286 13.3055 -0.86839 -0.137584 0.476413
21.879 21.3059 11.3628 0.255084 -0.621956 0.740339
11.7188 21.7733 12.5935 0.671365 -0.127428 -0.73009
20.1451 15.3243 19.9174 0.196718 0.978983 0.0537919
16.1911 20.6108 9.9344 -0.844274 0.35427 -0.402112
23.1024 14.9352 10.9003 -0.728017 0.317631 -0.607538
14.7407 16.5644 16.3472 -0.798644 0.594749 -0.0918768
20.2947 17.964 8.57822 0.0602807 0.616279 -0.785217
16.1628 16.2614 18.2863 0.97268 -0.132738 0.190459
15.0904 11.3205 18.6164 0.776575 0.0861077 -0.624113
15.2314 21.2062 15.8424 -0.46896 -0.85544 -0.219771
16.1428 16.4075 7.30711 -0.0861476 0.806838 -0.584457
16.8457 18.6758 19.8832 0.516856 -0.754628 -0.404223
14.5088 21.4721 11.189 -0.786408 0.613762 -0.0697025
18.0259 22.9306 18.457 -0.804631 0.338993 -0.487496
23.7684 10.7313 10.1979 0.106291 0.00420824 0.994326
17.2401 21.0356 7.45227 -0.0603469 -0.209128 -0.976025
16.9163 20.3735 17.7953 -0.0216826 0.898669 0.438092
12.4901 12.2195 8.72722 0.985165 -0.0947592 0.143076
18.8804 13.5417 12.0332 0.667603 -0.237838 -0.705507
18.0391 20.256 19.3105 0.0853419 -0.97249 0.216748
22.0884 22.3868 11.5242 -0.539332 0.330633 -0.774469
17.9725 18.3422 12.6104 0.492973 0.794685 -0.354194
16.9146 10.732 9.82164 -0.542115 -0.802506 -0.249191
13.56 22.9197 7.63875 -0.66318 0.748439 -0.00557936
24.0516 21.3624 9.80726 0.921289 -0.106878 -0.373902
17.7415 17.7138 8.2542 0.632402 0.0201981 -0.774377
21.8016 23.1794 7.32092 -0.101903 -0.888178 -0.448059
16.7969 11.6225 8.22562 0.129137 -0.759984 -0.636983
16.4438 13.5035 18.7404 -0.124184 0.107687 0.986398
12.605 17.7549 13.8777 0.0323646 -0.47554 -0.879099
19.6574 16.0274 15.8935 0.326004 0.0395048 0.944543
22.571 10.2227 11.7569 -0.586841 0.773698 -0.238764
23.1237 12.3584 6.92406 -0.0526265 0.187602 -0.980834
11.4958 20.7547 10.424 -0.967166 -0.242382 0.0764281
11.776 22.5793 17.9579 -0.431813 -0.901852 -0.0141276
16.2419 19.4161 16.4984 0.905928 0.392815 0.158087
21.8721 15.461 16.7195 -0.791351 0.343978 0.505414
12.288 17.2924 19.2516 -0.0646831 -0.518422 -0.852675
20.7049 12.5773 17.7963 -0.100417 -0.965804 -0.239037
13.9932 14.3572 7.3407 0.157086 -0.233162 -0.959666
23.8719 23.1804 14.7146 -0.083376 -0.738043 0.669583
16.039 18.5137 13.3965 0.647626 0.399673 -0.648723
17.0066 13.7135 11.6633 0.346485 0.134021 -0.928432
22.0637 10.475 19.4521 0.518314 0.817381 0.251475
19.1046 21.0778 19.4072 -0.248825 -0.909925 0.331848
23.7539 19.436 10.9747 -0.783338 0.463573 -0.414103
17.5976 11.9039 14.5352 0.599063 -0.586536 0.545068
23.2216 23.045 10.539 -0.578241 0.725933 0.372368
11.3294 12.5906 9.72874 -0.330577 0.807835 0.487976
16.9584 11.8638 13.1179 -0.48913 -0.164718 0.856516
21.3785 20.1416 7.45039 -0.966139 0.0644577 0.249841
21.5432 12.4918 7.03216 -0.686817 0.017073 0.72663
20.5437 21.8163 18.406 -0.862787 -0.493749 -0.108679
19.7621 21.0419 10.7479 0.123527 0.0614974 0.990434
15.4926 11.3366 11.0985 0.139003 0.12118 0.98285
12.5292 21.5712 13.1069 0.291155 -0.538552 -0.79069
16.2543 14.3259 11.3916 0.0983393 -0.0123383 0.995076
16.4889 22.0117 13.8658 -0.26343 -0.839395 0.475416
24.0083 20.6381 17.6094 0.971423 0.0801523 -0.223414
15.808 12.2939 12.258 -0.144147 0.472191 -0.869631
11.0502 14.3481 15.2124 -0.847345 0.344567 0.404079
16.8582 21.7756 14.9405 -0.331356 -0.843027 0.423686
13.1984 12.7981 12.9393 0.721844 0.645735 -0.248933
13.6441 16.4221 11.9379 -0.569637 0.690367 0.445991
23.3723 17.9337 15.5288 0.420422 -0.754633 -0.50376
16.2943 12.1422 16.4325 0.0741619 0.710233 -0.700049
13.0802 10.8651 9.31328 -0.800526 0.537481 0.265089
15.2582 21.7315 16.8248 0.151122 -0.977953 0.14412
17.2474 19.1625 19.1862 0.0967775 -0.803848 -0.586909
21.5043 17.5257 16.8262 -0.955824 0.222199 -0.192427
12.7397 17.4551 10.4489 -0.853939 0.432873 0.288806
12.9861 22.0966 8.54342 -0.91239 0.238899 0.332372
13.7628 14.6539 18.4574 0.0457458 -0.115042 -0.992307
21.9549 22.1711 9.31848 0.0290342 -0.609895 0.79195
18.1048 18.317 10.7525 0.539924 0.758174 -0.365587
22.0449 12.1277 12.557 -0.888831 0.26738 0.372139
17.2788 21.5333 15.9266 0.388812 0.917163 -0.0873902
13.481 13.5891 7.73503 -0.310415 0.127321 0.942036
21.8222 17.0311 13.6169 0.518103 -0.83526 -0.184146
19.3714 23.2405 18.2757 -0.0452734 0.998174 -0.0399843
21.3641 12.7756 17.0637 0.490635 -0.461336 0.73922
17.3449 22.5005 16.9612 0.679476 -0.593541 -0.431302
13.5725 17.4217 17.8555 -0.0140639 0.454156 0.890811
11.5528 20.1515 15.3804 -0.844161 -0.360179 -0.397068
12.3375 21.0354 11.2761 -0.868108 0.488837 -0.0861792
12.4773 11.2532 13.2068 0.944392 0.133882 0.300331
13.0325 15.9762 15.9709 0.496901 0.140255 0.856398
12.6227 14.2231 15.5388 0.191615 -0.245547 -0.950258
11.4419 12.059 13.3856 -0.085376 0.888842 -0.450189
14.0738 15.2064 9.96607 -0.466179 -0.103705 -0.878591
23.9738 12.6919 16.2544 0.99546 0.0745825 0.059132
14.0662 11.8541 14.2532 0.853191 0.513653 -0.0906954
15.5808 17.997 17.7867 -0.452165 -0.345286 -0.82239
16.7755 18.6192 13.9946 0.0360888 -0.931327 0.362392
15.6138 17.9732 6.94864 0.597552 0.572568 0.561336
14.4562 16.7979 13.9703 0.28493 0.177317 -0.942005
23.3427 12.8655 13.6539 -0.415615 0.893316 -0.171028
17.1752 14.0434 12.993 0.0196762 0.816811 -0.57657
16.0976 14.1207 13.451 -0.37642 0.851873 -0.364171
18.7906 15.5037 11.068 -0.707388 0.667265 -0.233154
16.6412 16.4136 12.7361 -0.770255 -0.60363 0.205761
22.8053 21.7614 8.73098 -0.122197 -0.229272 -0.965661
21.5747 10.296 15.9739 0.511966 0.347516 -0.785572
20.591 10.5869 11.0296 -0.0211258 -0.962741 -0.269598
19.0947 12.8931 14.6658 0.473099 -0.838758 0.26956
13.4903 18.6252 13.9424 -0.500556 -0.432407 -0.749979
23.054 22.1998 16.0624 -0.944541 -0.180026 -0.274651
22.7663 11.8527 13.5009 0.498967 -0.841177 0.208455
20.0526 17.075 14.0844 -0.126675 -0.224707 -0.966157
19.8053 14.829 14.9962 -0.0640077 0.707039 -0.704272
20.6233 15.648 11.8541 -0.171407 0.62729 0.759688
23.0148 16.7128 13.8285 0.500436 -0.782848 -0.369747
11.658 10.772 9.73251 -0.326062 0.21817 -0.919829
12.9733 22.6035 13.2935 -0.108522 -0.409349 -0.905901
14.4944 17.2398 10.2624 0.13089 -0.291084 -0.947701
23.3196 17.2837 12.7495 0.571657 -0.573333 0.586939
23.7493 13.6224 16.6302 0.618387 0.536615 -0.574145
18.9453 10.9623 9.13776 -0.204985 -0.0519787 -0.977384
20.1549 14.9901 12.8764 0.687327 -0.185319 0.70231
21.1702 19.4407 17.6544 0.892711 0.0456588 0.44831
20.5048 17.3962 11.1682 0.984053 -0.102689 -0.145242
21.7784 15.1579 11.7845 -0.838438 -0.319484 0.441533
17.7003 11.6452 7.22658 0.367352 0.889198 0.272725
18.3503 16.0049 15.1269 0.455961 0.802836 0.384128
11.9174 12.0909 10.5092 -0.470077 0.849407 0.239863
12.5582 17.894 18.2903 -0.202944 -0.188242 -0.960926
17.0684 15.1867 7.94245 -0.43929 -0.692256 0.572544
18.4006 18.3141 15.5855 0.712034 -0.301787 0.633981
20.085 13.2983 13.8744 0.467918 -0.332837 -0.818702
16.2626 14.1431 15.49 -0.227017 0.432553 0.87256
11.6615 19.2792 15.7276 -0.177227 -0.492077 -0.852321
22.0742 11.2036 16.0464 -0.216827 -0.451247 0.865657
20.5089 14.0928 16.3976 0.185706 0.593551 -0.783077
23.9042 15.3729 15.8451 0.114507 0.736824 -0.666317
22.6314 18.6942 10.6416 -0.0307189 0.735633 0.676683
21.584 14.0875 15.5416 -0.844342 -0.527475 0.0941114
23.6168 21.9917 17.5396 -0.30848 -0.747737 0.587988
18.092 18.8542 9.55286 0.800645 0.589298 0.108143
14.8589 17.8263 13.0027 -0.724615 0.387548 -0.569859
20.9863 19.8021 19.4852 -0.826949 0.479988 -0.292861
13.0655 19.5111 13.1888 0.666654 0.0832867 0.740699
17.7753 17.1363 19.9362 0.963268 -0.258204 0.0737932
22.2686 12.5416 15.2574 -0.967539 -0.214628 -0.133426
17.6563 16.5352 15.9586 -0.364728 -0.598317 0.713435
12.7926 18.1695 15.8573 -0.543151 0.636025 0.548142
13.9266 11.2351 12.8324 0.638563 0.515838 0.571093
16.1174 20.3033 12.2935 0.368811 0.369544 0.852887
12.2531 10.6436 12.1031 -0.567547 0.167845 -0.806051
20.326 12.0437 8.77181 0.0227664 -0.240922 -0.970278
18.166 15.3896 11.8321 -0.717993 0.199037 -0.666986
12.0202 16.3549 14.3356 0.581118 -0.551089 -0.598835
17.571 16.2566 14.4415 -0.222208 -0.954946 -0.196727
18.7568 18.1449 9.67765 0.563729 0.642989 0.518434
19.251 14.9557 13.7821 -0.0402721 0.67425 -0.737405
19.5725 16.6568 17.4145 -0.645199 -0.75135 0.138532
18.3846 18.8792 18.4738 -0.173382 0.984822 -0.00802841
20.7244 16.4202 10.9835 -0.549865 0.129317 -0.825182
23.2512 18.4375 12.5905 0.93988 -0.283875 -0.189845
19.0497 14.48 19.952 0.182414 -0.436234 0.88115
17.3267 12.116 16.5219 -0.291562 0.844745 -0.448773
18.4079 16.626 10.008 0.728026 -0.427158 0.536204
17.1058 14.2827 16.4742 0.433519 0.897424 -0.0818068
21.3913 15.5011 10.288 0.0121491 -0.175635 -0.98438
18.2481 21.1623 12.3422 -0.971209 -0.122496 0.204322
11.1481 14.5496 17.3505 -0.211801 0.973584 0.0852951
16.0596 16.9684 14.9516 -0.0589769 -0.568103 0.820842
12.0033 23.0341 14.4245 0.599516 0.715615 -0.358435
12.2007 11.2218 7.09942 -0.255956 0.760481 0.596787
22.476 22.7918 15.0824 -0.822703 -0.314855 -0.473313
16.1564 10.2106 15.471 -0.711349 -0.61025 0.34868
22.8349 15.9786 19.9069 -0.0904989 -0.0321534 -0.995377
22.5153 21.3409 13.0588 0.653015 -0.222048 0.724062
15.454 16.3261 10.1434 -0.0441539 0.888777 -0.456208
19.9336 21.4928 14.6303 0.266945 0.171347 -0.948357
21.3584 13.8384 10.9191 -0.129175 0.663034 -0.73736
16.7437 22.2865 9.81686 0.714293 0.610623 0.341944
16.8096 11.9425 10.5062 0.439589 0.443192 -0.781244
22.0298 19.4428 15.8065 0.483849 -0.754634 -0.44319
15.8896 10.5184 11.9184 0.55748 0.289276 -0.778162
13.9297 11.8275 7.59158 -0.200778 -0.239086 -0.950014
14.6893 14.8626 17.7652 -0.305125 0.259582 -0.916251
22.8104 13.3186 19.3507 0.605021 0.18315 -0.774858
12.5811 19.6194 17.082 0.440466 -0.559622 -0.702006
11.2501 12.6035 18.066 0.421608 -0.825424 0.375396
15.4801 13.7128 14.5672 -0.252848 0.435156 -0.864122
14.9921 18.6928 14.418 -0.673003 -0.049254 -0.737998
18.9702 12.5905 16.1869 0.222809 0.609317 0.760979
20.458 11.6404 15.0932 -0.360087 -0.331795 0.871923
18.074 19.8962 11.996 -0.763128 -0.629073 0.147997
19.9561 17.4493 19.8372 -0.989719 0.122931 0.0731069
17.7215 10.5715 14.6069 0.230544 -0.728237 0.645384
18.404 18.5213 8.69196 0.974442 -0.123008 0.187967
17.5905 15.8603 12.4699 -0.841472 0.0151212 -0.540089
16.7262 11.508 15.6844 -0.180542 0.341871 -0.922241
22.9352 20.8043 12.3781 -0.136389 0.74052 -0.658048
24.0613 17.6856 13.2803 -0.823309 0.524596 0.216706
23.1025 17.7592 16.6857 -0.182479 0.708483 0.681728
12.3928 13.0557 13.6531 -0.474555 -0.775099 0.417156
22.7766 20.6548 19.7089 0.720654 -0.693103 -0.0163257
21.9443 11.2208 8.99104 -0.25179 0.683104 0.685544
19.5732 20.7473 12.7652 0.0864795 -0.392985 -0.915469
14.7816 19.1272 15.544 0.462464 0.766144 0.446263
21.1107 10.6341 14.6267 0.950397 -0.2919 -0.107424
17.4059 10.9267 10.8002 0.352934 0.932696 0.0742623
15.9784 15.2085 12.0592 0.622784 -0.100574 0.775902
18.4475 15.4797 16.0329 -0.607389 -0.622145 -0.493977
17.5886 11.4504 18.5988 -0.077599 -0.588446 -0.804804
19.2591 15.2371 17.1311 -0.883297 -0.329062 -0.333924
18.9334 23.1506 10.0723 0.71476 -0.18168 0.67536
21.0714 20.3481 12.994 0.605415 -0.49884 0.620187
19.52 10.7987 12.2406 -0.418708 0.90583 0.0644634
20.66 23.1218 15.3859 -0.859856 0.508723 -0.0429945
17.6783 18.5302 11.647 0.428187 0.806646 -0.407404
18.6248 13.1434 6.93551 -0.910263 -0.364668 -0.196055
21.7972 19.0567 18.7995 0.821225 0.370071 0.434323
20.0812 18.7672 11.9101 0.354695 -0.0676991 0.932528
17.3016 20.4425 11.6136 0.211224 0.236643 -0.948359
14.3387 19.0668 11.2669 0.0591431 0.181132 -0.981679
21.8457 12.8475 16.1256 -0.306498 -0.951371 -0.0308663
13.214 20.7056 13.2319 0.31754 -0.583827 -0.747204
21.458 11.202 19.9192 0.560593 0.671776 0.484203
20.23 10.5752 12.9749 0.384636 -0.858426 -0.339352
22.2234 21.6142 15.0107 -0.853752 -0.495334 0.16047
18.5222 17.154 14.1796 -0.728607 0.458303 -0.509009
14.039 17.9863 15.7816 0.347321 -0.842527 -0.411724
23.6462 20.2439 11.6626 0.714136 -0.622533 0.320097
14.8986 11.1673 7.4859 -0.393429 0.460107 -0.795937
21.439 20.804 17.8414 -0.779323 0.610293 -0.142118
11.4443 21.1493 15.2887 -0.829616 -0.512677 0.221131
13.8762 22.284 12.0982 0.747027 0.426934 0.509586
15.4056 16.2164 14.4708 0.121047 -0.950816 0.285125
14.37 14.1305 11.8369 0.408934 0.908036 -0.0907925
23.165 13.3791 11.7156 -0.209928 0.975051 -0.0721564
16.9768 21.3976 17.2769 0.0365742 0.80936 0.586173
15.3814 21.6637 10.042 -0.324831 0.495687 -0.805468
13.494 12.469 19.8492 -0.0827377 0.324452 0.942277
16.7431 17.5719 18.9636 -0.485766 0.739364 0.466232
19.2572 11.9823 9.39801 -0.360902 -0.196488 -0.91167
20.6728 12.2301 16.1319 0.401213 0.679013 -0.614792
13.5908 13.5477 13.6306 -0.182446 -0.909151 0.374376
18.6899 15.0609 9.1839 0.498439 -0.725221 -0.474987
18.8284 16.9137 8.90257 -0.114622 0.831768 -0.543161
19.8518 20.5659 14.4976 -0.823693 -0.0612662 -0.563716
11.4699 14.373 11.0454 0.703393 0.710792 -0.00362388
13.0327 20.2522 14.0907 -0.974045 -0.0296321 -0.224408
19.0346 19.7908 8.29604 -0.173869 0.606326 -0.775976
15.0867 22.7842 15.0152 -0.309841 -0.863724 0.397467
18.9648 18.9158 16.8616 -0.770052 -0.0602536 -0.635129
22.6687 17.3379 15.107 0.535365 -0.832217 0.144222
20.8668 18.2127 11.5922 0.69306 0.52101 -0.498214
18.6402 13.7454 19.1434 0.970029 0.15479 0.187305
13.5012 22.4692 15.8877 0.110718 -0.513573 0.850873
20.8699 22.6237 8.94793 -0.489944 0.0807655 -0.868005
15.9505 12.711 7.44894 0.202467 -0.962784 0.179035
14.3898 12.2883 16.6543 -0.282808 0.274189 -0.919152
18.3956 15.0597 10.2381 -0.802296 0.549281 0.233693
12.9465 12.8452 18.8004 0.0708445 0.453888 0.888238
13.5508 14.1665 9.50023 0.760807 0.31958 -0.564837
16.4597 15.0769 9.1802 -0.561277 0.544388 -0.623385
16.2049 21.3245 16.4746 0.218451 0.950481 0.221054
19.0619 17.8126 10.5911 0.888205 0.388676 0.244995
14.9616 10.3553 6.9937 -0.428346 -0.417068 0.801608
18.32 15.4902 7.39513 0.585524 0.796243 -0.152178
15.4636 21.9839 12.147 -0.948169 -0.266164 -0.173586
15.0777 12.1661 7.73982 0.63039 -0.26861 0.728325
19.5989 18.8305 13.1794 -0.596942 -0.262818 -0.758015
20.1375 13.785 12.2016 -0.0378362 0.937457 -0.346039
21.4671 19.1978 16.7518 0.895346 -0.232781 0.379695
21.2075 10.6576 8.33644 0.111648 -0.940213 -0.321768
14.1317 16.4083 19.3821 -0.418074 -0.75966 -0.498127
13.0759 16.1616 7.35235 -0.0937026 0.231862 0.968225
14.0687 19.4939 7.10948 -0.354055 0.255555 -0.899631
20.963 14.3887 14.7629 -0.716009 -0.659073 0.230117
12.5561 14.2221 10.7922 -0.590906 -0.711348 0.380544
16.4438 20.1283 19.033 0.0149379 -0.992416 -0.122018
19.6029 15.859 11.5446 0.670938 -0.16806 -0.722218
16.5837 10.9103 13.1708 0.900045 -0.23996 0.363783
18.3588 10.9988 19.5977 0.288794 0.28752 0.913198
11.4924 13.7943 18.1445 0.716831 -0.605661 -0.345437
23.2727 21.9866 18.7702 -0.0435216 -0.969097 0.242811
12.9723 14.2876 19.5134 0.157786 0.0135714 0.98738
14.1065 23.1412 13.2093 0.777687 0.0736882 0.624319
12.8096 13.3401 15.832 0.878515 -0.195334 -0.435955
22.8915 17.1097 7.59248 0.595398 0.513086 0.618259
15.4039 16.871 17.3343 -0.605196 0.347611 0.716174
18.7833 15.1854 8.13499 -0.24217 -0.95125 -0.190993
19.4284 12.5716 12.1195 -0.716454 0.374337 0.588698
14.9574 20.0653 7.45049 -0.847768 0.456644 -0.269752
14.5999 14.8564 13.9561 -0.429198 0.417133 -0.801117
17.0125 17.4992 10.4831 0.552878 0.199866 -0.808937
20.178 10.8441 19.7804 -0.260891 -0.782885 0.564824
11.662 16.946 10.8809 -0.499432 0.661142 -0.559874
16.3198 12.4865 17.4592 0.838137 0.473567 -0.270667
21.5587 22.2313 16.4121 0.884962 -0.129157 0.447393
15.367 13.6754 10.2728 0.0333858 0.857873 0.512777
18.8017 13.2549 15.49 -0.985475 -0.127599 -0.112059
16.5608 15.4148 16.5783 0.0627817 0.699052 -0.712309
17.2613 14.3491 14.7197 -0.827776 0.532605 -0.176408
18.9039 18.8747 11.4679 -0.251065 -0.95412 -0.163162
22.3258 13.1332 11.2645 -0.00824588 -0.287017 0.95789
18.7765 21.1322 10.1922 -0.152659 0.828311 0.539069
17.8271 11.3257 8.17449 0.330756 -0.68639 -0.647664
16.0531 22.14 15.2465 -0.661994 -0.187067 -0.725789
21.4031 11.5545 18.9318 0.843378 0.216736 0.49167
23.436 11.6105 16.4045 0.822863 -0.366326 0.434397
11.0753 21.6595 14.3058 -0.997974 0.0158203 -0.0616266
11.9262 15.4366 7.00362 -0.936643 0.301757 0.17788
23.8197 10.268 17.7783 -0.127171 0.92064 -0.369121
14.3711 22.7073 19.5252 -0.841962 -0.299762 0.448602
19.3369 12.7747 13.3638 -0.232117 0.858978 0.456375
17.11 19.5013 8.6283 0.965875 -0.087084 0.243928
11.0513 16.3199 12.5509 -0.222512 -0.953128 0.205027
22.5012 17.4559 11.3127 -0.308545 0.951002 0.0199011
13.5081 17.8003 11.6286 0.165263 0.000506936 -0.986249
14.3108 17.7271 13.967 -0.485495 0.250913 -0.837459
14.2793 14.48 15.9807 0.0624215 -0.270738 0.960627
20.5324 21.7419 12.4591 -0.838017 0.160334 -0.521556
15.8089 13.3395 12.5416 0.272627 0.0718379 -0.959434
18.7386 14.4232 15.1818 -0.472063 0.335188 -0.815356
15.7193 12.1099 15.3147 -0.195564 0.643999 -0.739608
19.6717 18.6722 7.00569 -0.844008 0.530779 -0.0769742
15.4723 17.0877 10.8695 -0.729146 -0.290191 0.619786
14.2363 15.9453 7.36586 0.532388 -0.204928 -0.821321
23.0968 13.3925 7.8229 0.633159 0.773594 0.0257311
21.0313 21.1005 15.9493 0.919833 0.309127 0.241551
14.7746 13.6586 7.09245 0.511579 0.725169 -0.460888
11.3133 19.1763 9.25957 0.0122197 0.766486 -0.642144
20.338 19.2954 10.6239 -0.55858 0.111017 -0.821988
16.6952 18.0988 8.00446 -0.711898 0.162256 0.683282
21.2989 18.4448 13.177 0.521213 0.653697 0.54865
22.3011 15.2396 17.5879 0.0412837 0.774423 0.63132
17.6589 16.733 17.2399 -0.71381 0.126116 0.68889
20.8721 14.623 17.1601 0.317952 -0.899808 0.29875
23.6874 15.8633 18.5261 0.48688 -0.803904 -0.341594
22.2111 18.3487 19.5251 0.250362 0.395878 0.883515
18.1114 20.7875 7.52346 0.252787 0.497137 -0.830032
13.7594 11.4872 16.8945 -0.651966 0.704233 0.281062
14.3843 21.9182 17.8288 -0.882477 0.470355 0.000880799
22.2553 15.2911 8.45454 -0.136744 -0.0298964 0.990155
11.2213 13.272 14.4195 -0.817162 0.511146 -0.266414
23.8906 18.9992 16.2068 0.00331591 0.980469 -0.196647
22.6047 16.2437 14.5809 -0.823863 0.532702 -0.193596
15.8322 14.1165 17.231 0.132083 -0.416022 -0.899711
13.4351 17.1558 14.3414 0.203437 0.914533 0.349633
14.5681 12.6481 10.3042 0.168141 -0.853678 0.492912
18.1669 19.2394 17.4641 -0.460888 0.867348 -0.187855
13.9237 12.7418 18.2807 0.10253 0.206385 0.973084
22.2178 18.1609 13.6146 0.05292 -0.489834 -0.870208
15.0682 22.7727 17.6227 0.923893 -0.182257 -0.336458
11.7214 16.4441 7.77366 -0.612258 0.79044 0.0185476
18.7016 21.2678 18.4572 -0.00858068 -0.963119 0.268939
22.1263 16.717 19.163 0.509582 0.816686 0.270833
15.161 13.9296 16.0838 -0.160705 -0.778884 0.606229
17.037 13.3819 7.05355 -0.326526 -0.640771 0.694833
19.3996 22.9141 12.8924 -0.759586 0.62593 -0.176752
11.5767 17.6719 14.4929 -0.436391 0.568287 0.697577
12.8166 10.2779 16.0157 0.835298 0.421521 -0.352983
21.0187 21.7493 13.8974 0.0161919 -0.733533 0.67946
14.112 10.8488 13.9832 0.895122 0.271828 0.353365
19.4917 17.196 10.0294 0.0703678 -0.461141 0.884532
13.959 10.6026 19.8495 -0.00860535 0.338036 0.941094
12.0203 13.055 18.9393 0.0899856 0.989447 -0.113564
20.6923 18.6588 15.9403 -0.777205 0.382229 -0.499854
14.2711 19.8237 13.2521 0.406984 0.500442 0.764148
20.975 13.8459 13.6655 -0.231139 0.378521 -0.896268
12.3471 16.5031 10.1893 0.312701 -0.86675 0.388539
15.4018 20.0088 18.0401 0.401369 -0.784986 0.471911
16.6446 17.6775 13.0616 0.336212 0.693724 -0.636953
14.6491 20.1268 11.0713 0.608445 -0.674462 -0.418205
17.7517 14.5386 8.35658 0.353756 0.902469 0.245776
23.0461 16.0576 17.4358 -0.126942 0.644319 0.754148
21.5527 16.6504 10.4583 0.750674 -0.454066 0.479909
11.9851 16.6434 15.7072 0.322913 0.791888 0.518306
22.1383 14.1544 14.1924 -0.304177 -0.594829 0.74408
18.8186 22.3057 6.96369 -0.458387 -0.32669 -0.826532
22.0674 16.7199 17.6162 -0.202504 0.512869 0.834241
18.54 22.9237 16.156 0.120505 -0.732794 0.669695
13.3342 14.069 16.6244 0.191896 -0.0486558 -0.980208
17.5343 19.8552 13.8405 0.357243 -0.741446 0.56801
18.044 18.4925 13.9222 -0.50022 -0.550924 0.668029
14.3937 11.0925 17.7707 -0.281658 0.731923 0.620449
11.6169 17.1144 17.7144 -0.0843167 0.887734 0.452569
18.4966 20.3759 17.7321 0.796951 -0.598342 -0.0827964
20.5816 12.8023 14.5983 0.466023 -0.00329557 -0.884767
16.169 21.6877 18.182 -0.142503 -0.963404 0.227037
13.75 23.2094 16.8571 0.600306 -0.768381 0.221863
19.9267 19.7788 12.8088 0.197872 -0.0757124 -0.9773
23.3626 17.6498 19.897 -0.373136 0.685232 0.62548
23.8423 22.5678 13.9447 0.95135 0.131866 -0.278469
23.5095 16.5043 10.5556 -0.921323 0.36151 -0.143087
18.093 14.7457 12.7925 -0.0471994 0.497665 0.866084
19.862 21.2113 8.49164 0.641305 -0.228866 -0.732358
15.3991 15.7451 15.6094 -0.80819 0.564776 -0.166902
22.9417 11.1506 10.0256 0.262184 0.465282 0.845442
23.3074 19.6731 8.8457 0.566859 0.75493 -0.329774
12.9491 16.0898 12.7839 -0.268262 0.604564 0.750025
12.1638 16.7546 12.1703 0.425461 0.887772 -0.175622
14.4633 22.8056 11.386 0.801295 -0.0425719 0.596753
14.1567 10.4107 12.0138 -0.816106 -0.521742 -0.248509
13.7217 20.9901 18.5985 -0.153587 0.474723 -0.866631
21.0579 10.2248 18.6322 -0.751608 -0.652636 -0.0956609
17.4709 22.1027 13.8006 0.331953 0.942315 0.0430008
14.6799 18.2762 17.8673 -0.284459 -0.810394 -0.512195
15.7824 17.8508 11.4425 0.445234 0.430872 -0.78493
22.3074 17.6904 16.0919 0.0599182 -0.978602 -0.196847
13.6457 21.4684 12.5855 -0.107925 -0.795576 -0.596163
20.2742 14.3704 18.9763 -0.724737 0.68812 0.0353097
14.2163 10.2327 14.6985 -0.359755 -0.503178 -0.785741
19.0012 21.9141 14.4959 -0.375964 -0.816123 0.438857
20.3765 22.6993 9.89774 0.523509 0.812777 0.255601
13.4561 18.0135 16.7959 0.927267 -0.347066 -0.140432
18.9497 17.122 16.9149 0.31156 -0.265195 -0.91247
22.2256 17.8921 7.69616 -0.35044 -0.518939 -0.779676
23.4462 10.3552 13.1095 0.861535 0.105749 0.496562
17.7779 14.6756 10.9782 0.873549 0.0129034 0.486565
22.5526 13.3162 18.1604 -0.00145298 -0.947615 -0.319413
18.4106 11.5265 16.9028 -0.139007 0.990168 0.0156129
18.6799 22.9862 8.30626 0.544892 0.126618 0.828891
22.0812 22.9894 17.1898 -0.252084 -0.13494 0.958251
12.9815 18.6293 17.8597 0.8848 -0.212238 0.414831
19.8562 21.7988 16.7058 -0.349868 -0.0237103 0.936499
17.6774 14.3682 18.4096 -0.976025 -0.0903508 -0.198022
17.9184 13.2151 16.4143 0.162927 -0.848125 -0.504122
20.565 20.3193 13.8543 0.24915 -0.785627 0.566317
17.0423 19.4778 9.68019 -0.217533 -0.931948 0.290091
14.6023 18.4031 7.05238 -0.410394 -0.636805 -0.65273
17.3451 23.1314 12.7112 -0.834089 -0.207633 -0.511061
14.5478 12.8928 8.37374 -0.979028 -0.0991943 0.177947
12.8866 10.9174 17.4459 0.837451 -0.301923 0.455541
11.2228 15.8849 19.2845 0.750902 -0.519081 -0.408291
23.9067 14.3771 12.4477 -0.697671 0.614731 -0.367914
16.0131 21.4382 12.9106 -0.980528 -0.109312 -0.163145
11.2841 20.1783 19.8164 0.393935 -0.821255 0.412741
18.6977 19.8173 16.6839 -0.935966 -0.142761 -0.321848
14.7515 19.5798 17.4903 -0.727009 -0.296728 0.619201
19.5603 11.2175 11.2448 0.142544 -0.978562 0.148654
16.8373 10.2157 16.2023 0.406032 -0.461692 -0.788656
12.668 12.0461 19.6915 -0.452063 0.871554 0.189823
18.031 13.6778 13.7084 -0.430623 0.891219 0.142455
19.1305 14.1623 17.1752 0.427607 0.448842 0.784661
16.4041 15.3182 13.7515 0.432737 -0.901515 0.00294539
18.7353 21.6578 13.3938 0.900023 0.40325 0.165374
19.4362 22.2731 15.51 0.49925 0.540203 -0.677444
15.6863 13.2778 17.6392 -0.124822 0.316734 0.940265
20.123 18.3199 9.69286 0.170816 -0.800787 0.574075
19.4114 19.6885 18.4239 -0.194803 -0.93924 -0.28263
12.1882 11.4171 14.3377 -0.653714 -0.562837 0.505838
22.8958 10.8251 16.6643 -0.0819888 -0.187122 -0.978909
14.0587 17.9707 7.67653 -0.34256 0.923151 0.174483
12.1683 14.3389 17.546 -0.330744 0.706794 0.62534
