21.842 13.2392 14.7987 0.68822 -0.21814 0.69193
23.0359 11.5866 17.1404 -0.84072 0.100689 0.532026
19.8482 16.3141 6.69855 -0.890723 -0.186877 0.414356
21.6364 15.2965 17.5077 0.427384 -0.258154 -0.866429
21.6299 16.2614 16.9734 0.505692 -0.22153 -0.833787
22.688 15.7315 17.2436 -0.346574 0.522761 0.77885
23.603 16.5381 17.4303 -0.122474 -0.180861 -0.975853
23.6389 20.5307 9.85771 0.0954933 -0.808107 -0.581244
13.2386 14.8798 6.11521 0.801097 -0.328549 -0.500298
13.2291 11.2154 14.9779 0.369406 -0.924101 0.0978626
13.1896 18.7993 7.31832 -0.100048 -0.832958 -0.544216
13.4458 15.885 15.7239 0.472102 -0.643625 -0.602384
11.4633 17.9643 5.48084 0.0103666 0.244697 0.969544
14.9414 11.6694 16.3352 -0.938721 0.240647 0.246764
13.8723 16.8224 17.1497 0.697889 -0.334975 -0.633042
13.5018 15.8616 16.9547 -0.740786 0.421976 0.522659
16.5346 17.4147 4.77726 -0.575612 0.535667 -0.617844
15.9532 16.8435 6.78544 0.0157735 0.157118 -0.987454
19.7935 14.9592 16.9584 -0.569622 0.223377 0.79097
15.8198 13.7497 16.5687 -0.928875 -0.150039 0.338643
18.1659 16.9666 17.1468 0.531868 -0.269491 0.802802
19.1189 15.2582 5.3164 -0.589358 -0.176423 0.788373
18.2811 18.0423 17.2859 -0.153682 0.433563 -0.887922
21.4704 17.5333 7.82807 0.995221 0.0957524 0.0191695
19.9418 14.0262 17.5236 0.437227 -0.360807 -0.823803
19.7817 13.1506 5.29384 0.457562 0.320527 -0.829397
23.937 20.1318 15.8094 0.0974599 -0.728758 0.6778
21.7416 17.3863 16.4822 -0.308327 -0.102769 0.945713
19.7566 15.8149 14.4969 0.154142 -0.889105 0.430967
20.273 16.2877 15.3201 -0.277359 0.922219 -0.269416
22.6192 16.9178 16.8612 0.0370963 -0.227924 -0.972972
20.0062 15.2557 6.04598 -0.787947 -0.000593367 0.615743
24.4248 20.5594 16.822 0.0964143 -0.877358 0.47005
12.298 20.271 17.3053 -0.879855 0.47272 0.0488887
24.4438 18.4474 18.0026 0.083513 0.222852 -0.971269
24.2074 17.0552 6.19246 -0.658765 -0.506287 -0.556509
12.2983 19.393 5.12322 -0.0771079 -0.996766 -0.0226247
10.81 16.0569 6.51386 -0.441755 -0.204313 -0.873561
24.1644 19.5922 7.6369 -0.396729 -0.908339 -0.132384
15.0876 15.7035 16.7534 -0.557791 0.258404 0.788731
14.3066 18.5892 16.8303 0.833028 -0.456797 -0.31209
14.8245 19.4542 17.2386 -0.866575 0.384141 0.318564
12.4945 19.7396 8.458 0.63277 0.743968 0.214739
17.489 16.0718 4.60098 0.294924 0.11145 -0.948999
16.5942 18.1734 15.7996 -0.807876 0.380854 0.449764
16.1112 15.8986 6.20309 -0.399965 -0.378049 0.834929
15.1438 17.2887 7.87636 0.134911 0.153432 0.978906
19.5913 16.0887 17.3979 -0.271108 0.125388 0.954347
17.506 18.1222 4.74238 -0.00986296 -0.291547 0.956506
17.1508 16.5664 6.58468 -0.575612 -0.552084 0.60322
16.1779 17.4712 16.643 -0.726568 0.332594 0.601232
19.2624 17.8542 16.9782 -0.0982982 0.700706 -0.706646
18.5594 17.5736 16.0125 0.42932 -0.650929 0.62608
22.8065 18.0866 15.8124 -0.276576 -0.241521 0.930147
19.2673 18.401 17.9678 0.458384 -0.518713 0.721679
21.8863 18.2558 7.07257 -0.974189 -0.137691 -0.178876
22.8734 18.6401 17.1548 0.280708 0.65062 -0.705618
21.4023 16.4929 5.06001 -0.384071 -0.542176 0.747352
24.2066 19.6911 4.68769 -0.303949 -0.739988 0.600028
23.8248 18.6898 15.8005 -0.0313816 -0.179842 0.983195
12.0862 18.8956 16.8848 0.90048 -0.414398 0.131945
11.9181 19.9328 16.1921 -0.844434 0.495017 -0.204668
11.8302 17.9076 16.4373 0.464527 -0.0181325 -0.885373
12.8758 18.8912 5.92207 -0.572721 -0.720996 0.390072
13.9106 17.8943 17.6517 0.815855 -0.314642 -0.485161
12.3044 19.7987 6.18962 -0.701645 -0.712065 -0.0256389
15.0397 18.7713 5.12601 0.840914 -0.194687 -0.504936
14.9346 19.0098 6.41922 0.756784 -0.290413 -0.585609
16.7038 19.2533 16.0703 -0.891916 0.366753 0.264534
14.3456 19.4744 16.2642 0.91281 -0.323045 -0.249839
14.9514 21.0675 7.08265 0.814439 -0.153396 -0.559607
16.7204 18.3809 17.0068 0.701884 -0.341351 -0.625171
14.8035 19.8067 5.68877 0.933352 -0.151544 -0.325406
15.9639 16.4104 16.3822 0.796481 -0.452022 -0.401614
22.5295 21.5695 4.6421 -0.478629 0.448984 0.754538
16.6296 17.9002 5.99891 0.0938001 -0.462871 0.881449
16.6526 16.6484 17.2144 -0.763388 0.367903 0.530929
17.6903 18.9258 5.72055 -0.305649 -0.577908 0.756704
21.3287 18.5179 17.7317 -0.57272 0.716018 -0.399136
20.4577 18.4232 4.66083 0.384292 -0.83652 0.390581
18.518 18.3555 5.0003 0.0406969 0.832165 -0.553032
17.5667 17.1892 4.34793 -0.376792 0.236019 -0.895725
19.9317 21.4997 17.2331 0.0249851 -0.438209 -0.898526
23.4138 18.7974 4.35126 0.412214 0.505334 -0.758101
12.2645 21.8733 15.8308 0.768044 -0.594451 -0.238194
10.9184 19.4121 15.4 -0.17866 0.626872 -0.758361
11.2573 21.231 15.552 0.886317 -0.461952 0.0322974
10.8535 18.0012 15.8081 0.25365 0.157774 -0.954342
12.4066 20.8758 16.4367 -0.902177 0.394627 0.174204
23.6618 23.0102 17.7653 -0.321416 0.884205 0.338928
11.0712 21.9942 17.1586 0.397304 -0.456294 0.796207
14.3781 18.7746 18.0701 0.818832 -0.266713 -0.50831
24.0002 23.8206 16.6567 0.605759 -0.576191 -0.548689
13.3554 20.3371 7.26618 0.140105 -0.711262 -0.688823
12.8436 23.5728 6.78053 -0.239781 0.452341 0.859007
14.5076 17.8823 4.82499 -0.726836 0.274101 0.629745
12.6296 21.3779 6.38897 0.0965875 0.0586425 0.993595
14.2528 18.0693 6.21422 -0.643925 0.723118 0.249922
12.7259 20.7618 4.33674 -0.486737 0.765424 -0.420968
18.6464 19.3897 15.9843 0.30234 0.433992 0.848671
14.6537 20.5906 17.8031 0.909874 -0.352109 -0.21943
21.1507 20.7855 16.1097 -0.913866 -0.397958 -0.0804939
14.04 20.664 5.18683 0.963774 -0.0247506 -0.26557
21.3609 20.9208 5.11331 -0.400984 -0.106258 0.909902
15.1386 21.2673 15.9655 0.838915 -0.509303 -0.191914
21.4725 20.3082 17.2722 0.787321 0.419147 -0.452152
17.766 22.2516 17.4535 0.285071 0.278246 0.917231
22.2636 22.8694 7.17948 0.201505 0.474763 0.856736
21.675 22.2438 18.0419 0.336234 -0.679782 -0.6518
24.3485 21.6032 14.5747 0.548211 -0.828745 -0.112456
22.827 23.3556 16.9882 0.845725 -0.434509 -0.309759
19.4564 22.7234 5.31524 -0.8178 0.308138 -0.48606
22.5264 22.8433 17.9266 0.468358 -0.800529 -0.373891
23.3325 22.5879 4.97097 0.210056 -0.799629 -0.562557
24.1774 22.563 5.68626 -0.368892 0.462438 0.806269
22.0943 21.5021 7.17962 -0.200487 -0.0971177 0.974871
24.2603 23.3846 4.99351 -0.368675 0.578677 0.727469
12.3736 10.693 4.87038 -0.464709 0.576963 0.671684
13.1013 10.6229 6.15222 -0.00590621 0.482606 0.875818
23.9741 23.615 9.3156 -0.463248 0.666648 0.583937
11.3438 12.6247 5.18415 0.498801 -0.802372 -0.327715
11.3806 22.9595 5.41863 0.309373 -0.633136 -0.709526
13.8048 11.4089 5.38691 0.941837 -0.048339 -0.332574
23.1887 23.3542 10.2958 -0.483668 0.689477 0.539154
12.4981 11.2788 17.3528 -0.313613 0.76019 0.568997
13.5229 23.0754 4.63385 0.396207 0.81837 -0.416281
16.682 20.2082 17.9282 0.838412 -0.0373907 -0.543752
14.0727 22.6894 6.04163 0.848173 0.480864 0.2222
15.8603 23.3666 5.11229 0.436717 0.185777 0.880207
17.3605 22.2562 5.19166 -0.153859 -0.453349 -0.877953
17.9367 23.8001 8.90153 0.367159 0.583839 0.724104
18.3 20.7732 17.9802 0.155616 -0.858194 -0.48917
18.7124 21.8658 17.2819 0.250834 0.22325 0.941935
18.4443 22.9268 17.0521 0.0628539 -0.472419 -0.87913
19.5247 11.491 11.7472 -0.87543 -0.178874 -0.449029
17.9136 11.679 5.78175 -0.475492 -0.805942 0.352653
19.8078 11.1216 4.47664 0.801256 -0.266364 0.53576
19.599 10.8425 6.07626 0.978393 -0.0118914 -0.206411
17.3152 11.5502 7.11192 -0.4378 -0.831875 -0.341049
20.184 23.4727 9.0979 -0.548612 -0.0778151 -0.832448
21.95 10.8288 18.0242 0.829199 -0.424729 -0.363365
21.2616 11.3642 6.27498 -0.859256 0.113628 0.498767
21.8368 10.6335 10.2441 0.480098 0.512868 0.711669
23.6209 23.2448 13.8703 -0.661586 -0.0585653 -0.747579
11.7966 13.3584 6.0444 -0.773933 0.461013 0.43416
12.1497 23.75 5.76597 -0.352338 0.67285 0.650485
21.7056 13.5129 5.80036 -0.496881 0.395646 0.772382
23.0829 14.329 9.24703 -0.613826 0.537636 -0.578069
14.9984 23.465 16.9641 0.34118 -0.355515 -0.870175
11.9367 13.6709 4.98642 0.380898 -0.85824 -0.344007
24.212 14.2055 8.02503 0.0697675 0.136647 -0.98816
13.765 12.4408 4.59219 0.737206 -0.563919 -0.372187
24.4454 12.7495 16.8225 -0.133805 0.79181 0.59593
13.7717 23.6408 16.962 0.495248 -0.663628 -0.560649
16.2248 11.1524 18.0522 0.947405 -0.292947 -0.128865
13.6944 12.5443 7.0833 0.855587 -0.347336 -0.383834
17.4608 11.4945 4.83652 0.341245 0.816661 -0.465421
16.2679 22.4533 5.63511 0.547714 0.24874 0.798835
15.7563 13.5662 6.19349 -0.851986 0.358941 0.381158
16.5032 11.6726 9.02118 -0.519551 -0.734853 -0.435955
21.0564 12.7126 17.3307 0.971533 -0.236068 -0.0199059
17.4111 23.4142 17.318 -0.0632494 -0.509992 -0.857851
19.0328 12.0815 9.61037 0.82075 0.385327 0.421772
17.7945 10.74 8.10798 0.668025 0.420985 0.613607
18.1157 23.5068 16.0797 0.0145611 0.47325 0.880808
19.6228 12.0619 17.3334 -0.750995 0.608475 0.256448
17.6418 13.3291 5.70977 0.362394 -0.31123 -0.878525
19.2536 11.912 6.59609 0.943478 0.331278 -0.0101697
21.3228 14.7348 7.01773 -0.871986 0.091757 0.480855
22.7142 11.4198 4.721 -0.763768 0.401821 0.505171
20.4932 10.5741 7.10388 0.937517 -0.330382 0.109128
21.8271 12.9924 6.95834 -0.212028 0.885191 0.414103
21.1195 13.5362 4.85631 0.607464 -0.252378 -0.753188
22.9774 15.1079 5.62193 0.475883 -0.293553 -0.829073
21.8615 16.4901 7.81088 0.968946 0.114228 -0.219306
23.6978 13.8912 6.47924 -0.159553 -0.411622 0.897279
21.5133 15.9518 6.82242 0.918196 0.394414 -0.0367839
12.7388 14.741 4.95533 -0.636935 0.277017 0.719428
24.4159 14.8525 4.50904 -0.142428 -0.313911 -0.938709
13.7433 13.3651 17.7697 -0.855748 0.397041 0.331745
13.477 13.9948 16.9448 -0.806956 0.365479 0.463948
15.648 11.9545 17.2904 -0.963397 0.266313 0.0307111
11.7654 15.9042 6.17567 0.406066 0.242616 0.881049
14.7761 22.7619 4.90633 0.550648 -0.000474018 0.834738
16.475 15.4614 4.50421 0.734158 -0.303054 -0.607594
16.1299 12.3794 4.39138 0.929024 0.157155 -0.334989
17.1188 13.5876 17.5983 0.908975 -0.393233 0.138322
16.8268 11.3127 7.99148 -0.710068 -0.393368 -0.584007
17.3548 14.4876 16.7402 -0.762435 0.23477 0.602972
18.3596 15.1411 16.74 0.817018 -0.460865 -0.346533
19.4238 17.1193 6.06425 -0.906475 -0.138083 0.399043
18.8347 11.5979 4.90911 0.288997 -0.876306 0.385445
20.6917 14.7777 17.6273 0.327935 -0.4298 -0.841267
22.9226 13.0242 17.5639 -0.564486 0.525256 0.636758
17.4705 14.7352 8.28431 0.905859 -0.250358 -0.341672
21.7662 11.0715 7.51481 -0.369208 0.222616 0.90229
18.0793 15.3573 8.98196 0.865468 0.149213 -0.478227
22.4648 15.1263 4.48336 -0.679938 0.315132 0.6621
18.9465 13.4813 4.68314 -0.365084 0.091991 0.926419
20.028 14.4161 6.74147 -0.730017 0.101598 0.675836
23.5447 17.8382 5.80047 0.0521959 -0.392613 -0.918221
21.5342 17.1054 6.83649 -0.79991 -0.473307 0.368951
22.6479 16.2022 10.4603 0.189588 0.488824 0.851532
11.173 13.3169 18.0669 -0.594741 0.669045 0.445716
11.2206 16.7981 5.58245 0.621571 0.4139 0.665084
13.2162 15.6732 5.30114 0.718354 -0.562051 -0.409959
13.4234 17.9882 8.69941 0.239406 0.50916 0.826705
13.0158 16.5604 4.65202 0.698294 -0.556265 -0.450505
11.8612 16.9123 17.3652 0.132133 -0.0604252 -0.989389
15.5262 14.8463 17.1932 -0.688896 0.154892 0.708118
15.3039 18.6695 10.6438 0.790696 -0.0188292 0.61192
14.9011 12.9037 5.92209 0.821662 -0.205112 -0.53179
16.2516 15.6956 17.1768 -0.726905 0.296576 0.619396
14.2387 14.7672 17.1921 -0.547007 0.459972 0.699435
17.7552 15.0933 4.62028 0.679648 0.249031 -0.689973
20.6643 16.6382 16.5928 0.533148 -0.277476 -0.799225
18.3669 16.0883 5.29548 0.270765 -0.138825 -0.952583
18.4195 14.1634 17.2785 -0.845711 0.256737 0.467823
17.4551 17.9589 10.6694 -0.146372 0.41561 -0.897688
17.8033 15.5683 7.18325 -0.798368 -0.096755 0.594346
19.7211 17.3233 7.06823 0.909541 0.14048 -0.391152
20.5369 18.4525 7.62869 -0.921062 -0.305903 -0.240974
22.3609 19.5707 6.29694 -0.596669 -0.395293 0.698377
19.7062 14.7283 8.48395 -0.96711 -0.196664 0.161314
21.1132 19.4035 4.85448 0.299709 -0.945686 0.125909
22.7223 19.9623 10.1824 0.478931 0.540906 0.691408
22.5833 18.5111 8.35024 -0.864267 0.350747 0.36058
23.5899 15.8222 10.0464 0.236622 0.445373 0.863512
22.4174 16.3031 5.37159 0.531565 0.565258 -0.630811
23.5146 17.6025 17.1051 0.152939 0.274053 0.949476
23.0409 17.579 9.13517 -0.000600795 0.375828 0.926689
11.9634 17.0533 7.22634 0.960748 -0.0469079 -0.273429
12.5415 18.9594 17.9273 -0.834757 -0.549063 -0.0413574
12.3189 19.8493 7.39385 -0.0705447 -0.904639 -0.4203
11.3638 16.4818 8.78886 -0.182601 -0.657559 -0.73094
14.4571 16.9191 18.0231 -0.80984 0.288669 0.510714
10.8388 19.2182 8.79441 -0.0485686 0.798294 0.600307
12.609 17.6624 17.2491 0.33589 -0.156048 -0.928885
11.6824 18.7302 10.1009 0.243444 -0.823362 -0.512649
13.7961 15.7852 6.13992 -0.786616 0.390659 0.478144
15.6168 17.8237 6.08157 -0.0103417 0.00770801 -0.999917
18.2855 16.4264 16.0473 -0.579903 0.561587 -0.590197
16.6169 20.1564 5.45613 -0.762112 0.149736 0.629893
17.1524 19.2729 9.96876 0.292691 -0.296982 0.908919
16.1441 18.4171 7.53194 -0.501975 -0.219639 0.836529
15.7798 15.7281 8.3076 -0.3821 0.764728 0.518836
17.3631 19.98 10.8923 -0.459929 0.329112 -0.824712
22.1174 20.3564 7.49774 -0.516634 -0.0658039 0.853674
20.1959 18.3167 17.3103 0.477152 -0.838657 0.26264
21.8688 17.3999 5.50337 -0.820892 -0.233679 0.521085
20.2081 18.1361 6.13723 -0.872837 0.00168475 0.488008
22.7522 19.3292 7.42999 -0.731677 0.146442 0.665735
23.3029 20.4936 16.594 -0.165168 -0.752259 0.637829
22.2822 19.1009 18.0091 -0.0776887 -0.630706 0.772124
23.5612 22.1068 16.2666 0.00682519 0.60261 -0.798007
24.0005 16.9433 8.83138 -0.485044 -0.553304 -0.67719
11.3649 19.3005 4.5373 0.148035 0.414546 -0.897907
24.459 21.193 4.77616 0.234429 -0.102195 0.966747
22.7864 22.4116 10.7022 0.27698 -0.669387 -0.689349
23.4284 18.8449 10.7105 0.424768 -0.735946 -0.527216
14.6005 18.2203 8.86539 -0.483315 0.141048 -0.864009
24.3725 18.4523 6.72949 -0.00946716 -0.598103 0.801363
14.2916 19.2159 9.08802 -0.869926 0.0172613 -0.49288
11.5572 17.9428 8.63844 0.541895 0.757383 0.364309
14.4674 20.0757 7.37184 -0.617428 0.00836174 0.786583
11.26 19.2388 7.12305 0.104654 -0.868124 0.485188
15.711 21.8597 7.64706 -0.710958 -0.507086 0.487239
16.2326 19.3522 6.26762 -0.586053 0.322822 0.743187
16.7917 20.3229 16.5338 -0.978452 0.206399 0.00564247
17.1597 19.2444 4.40676 0.879789 0.0434199 -0.473378
17.4189 21.6537 8.56479 -0.0941985 0.714187 -0.693588
18.17 19.8552 9.82194 0.61754 -0.186148 0.764195
20.0026 19.3748 5.42434 0.327145 0.943057 -0.0601654
19.748 17.0177 4.8358 -0.925035 -0.0752957 0.372345
19.3417 21.1196 6.84993 -0.160185 0.78434 -0.599293
21.1872 19.8322 10.9689 -0.449282 -0.286621 -0.846164
20.2179 18.4262 16.2249 0.522409 -0.799577 0.296252
21.3863 18.568 16.2282 -0.509965 0.350965 -0.78534
20.0012 19.4925 8.44441 -0.83664 0.530828 -0.135113
11.3543 20.2143 5.15955 0.266044 0.571073 -0.776593
21.2738 22.1158 8.02337 0.111534 0.20255 -0.9729
23.9305 20.1504 5.69821 -0.211149 0.53496 -0.818067
20.7474 10.1091 13.079 -0.204863 -0.665231 -0.717983
23.7125 18.4393 9.10764 -0.439571 0.598462 0.669792
22.1409 20.718 5.92191 -0.612029 -0.0669747 0.787994
23.1537 21.5833 6.97222 -0.0767277 0.679521 0.729633
24.0552 20.9948 7.20447 -0.34351 0.325807 0.880824
11.6564 20.8986 6.66794 0.206359 -0.0876078 -0.974547
12.0095 22.867 6.37093 0.392984 -0.596481 -0.699839
12.5563 22.7506 7.42594 0.293455 -0.484116 -0.824327
11.4553 21.8995 5.80093 -0.342809 0.516509 0.784666
12.9848 10.1993 10.9882 -0.313432 0.648982 0.693241
13.6581 21.927 17.5359 0.554996 0.29356 -0.778333
14.5712 20.8434 6.14664 0.859986 -0.111081 -0.498082
15.4473 22.1204 8.77621 -0.0149758 0.69083 -0.722862
17.102 19.3677 17.0463 0.945501 -0.239345 -0.220775
17.2221 21.2069 15.7764 0.936381 -0.301032 0.180473
17.2006 20.035 15.4729 -0.953468 -0.102224 -0.283637
18.4475 19.8362 6.70842 0.671091 -0.221389 0.707547
18.4091 21.3532 7.73168 -0.297926 0.953227 -0.050983
18.4797 22.1419 5.59985 0.168344 -0.943193 -0.28644
21.1644 21.5144 17.0071 -0.304217 -0.562872 0.768523
16.8819 20.6952 6.47805 0.293674 -0.95311 -0.073055
21.0865 19.815 6.91796 -0.104082 0.246814 -0.963457
19.8395 23.5332 6.18155 0.912292 -0.0798419 0.401682
20.288 21.709 7.505 0.244427 -0.291739 0.92474
21.1769 18.9702 6.16199 0.790786 0.094104 -0.604816
21.0099 22.2452 11.66 0.000343728 0.421561 0.9068
22.061 23.7627 6.35253 -0.956232 0.290278 -0.0368732
21.1542 21.6097 6.49559 -0.0729614 -0.408536 0.909821
23.165 22.0369 5.92529 0.110007 -0.682525 -0.722536
21.3418 21.0991 9.35256 -0.106259 -0.194745 -0.975081
24.0432 22.0056 6.72508 -0.0540118 -0.628966 -0.775554
11.0717 22.0388 9.07591 -0.0128951 -0.824419 -0.565833
24.4549 23.567 7.59952 -0.159138 0.445707 0.88092
13.2498 22.2727 8.07303 0.282152 -0.633141 -0.72078
10.7723 13.2314 9.08169 -0.32775 -0.224041 0.917816
11.528 22.4686 7.55268 0.293079 -0.622607 -0.725579
10.7931 10.8945 7.59463 -0.398408 0.490415 0.775089
12.8571 22.1307 9.37725 0.161506 -0.79157 -0.58935
13.5215 12.3933 5.92954 -0.774066 0.0522666 0.630943
15.125 10.1522 10.4993 -0.319297 0.168635 0.93253
14.4069 11.4925 7.46145 -0.87903 0.393924 0.268571
18.5625 23.296 11.6466 0.609923 -0.227798 0.759013
14.2677 13.2742 5.11883 -0.575914 0.470578 0.66849
18.8458 10.4459 12.1236 -0.765939 0.350158 -0.539191
17.0984 11.4066 11.2529 -0.124085 0.0263553 -0.991922
18.8258 22.1612 10.1079 0.540571 -0.454192 0.708162
17.2147 10.8225 9.10845 -0.452814 -0.63373 -0.627173
17.7286 20.9149 5.41466 -0.543224 0.699456 0.464403
18.3747 10.667 13.251 -0.630366 0.124503 -0.766249
18.589 22.679 6.77312 0.955974 0.0213204 -0.292675
18.5308 11.0036 7.40796 -0.718382 -0.406003 -0.564879
19.9874 19.9755 6.70385 0.116966 -0.633475 0.764871
20.6567 10.7479 10.2289 -0.494351 -0.0967602 -0.86386
22.4808 11.387 12.2178 -0.72027 -0.0367177 -0.692721
22.4257 10.6139 8.32422 -0.235737 0.348224 0.907286
22.798 23.5967 9.24921 0.120176 -0.798126 -0.590384
20.9572 13.492 12.8593 0.703142 -0.152795 0.694439
23.3428 10.9434 11.5279 -0.267606 0.116937 -0.956406
23.9062 11.3264 9.88474 -0.0913158 0.370212 0.924448
23.6691 10.4654 7.14775 0.410266 -0.527024 -0.744263
23.2706 14.7289 7.49244 0.196566 0.150285 0.968905
11.8829 11.2153 7.86295 0.185404 -0.634053 -0.750735
20.8611 14.0083 8.07154 0.915433 0.100282 0.389776
24.4788 16.3172 9.71668 0.250759 0.49132 0.834101
24.2119 11.2872 6.54702 0.316314 -0.750293 -0.580523
12.865 11.4913 8.33768 -0.285991 0.782981 0.552404
12.6113 14.0517 5.86091 -0.583202 0.359267 0.728562
16.9589 14.0188 5.02054 0.879577 -0.0932848 -0.466521
14.3767 11.1781 6.37249 -0.85309 0.436154 0.286368
15.0156 11.4911 8.59801 -0.441853 0.579409 0.684873
14.8675 12.9107 7.28637 -0.50145 0.864011 -0.0450862
12.6183 13.7026 8.11166 0.938014 -0.24078 -0.24931
12.3741 13.7888 9.22637 -0.596027 0.801346 0.0509572
18.0802 13.7785 9.55083 -0.313132 -0.0606946 0.947768
18.4365 12.7611 10.3367 -0.680502 -0.497367 -0.538092
16.1741 10.7929 9.66168 -0.0693633 0.848693 0.524317
17.9667 13.492 7.42096 0.942905 0.324847 0.0735186
19.7797 11.4282 9.11286 0.646418 0.511588 0.566058
19.6181 11.109 10.3961 -0.60961 -0.0215373 -0.792409
21.3767 11.6083 10.1264 0.438092 0.243449 0.865337
21.5624 12.7138 10.781 -0.755419 -0.0512323 -0.653236
19.1299 12.212 8.55422 -0.790167 -0.448035 -0.418212
20.8195 12.8701 6.11275 0.786699 -0.566748 -0.244748
20.844 12.5977 7.26193 -0.114525 0.985236 -0.127255
22.8483 13.9446 8.12596 0.760502 -0.551137 0.343344
22.8984 12.5363 8.02029 -0.599498 0.727077 0.334607
23.2046 12.9557 9.29722 0.669733 -0.667084 0.326277
22.7544 13.7644 5.95028 -0.291374 0.16755 0.941822
20.8564 16.9341 11.8549 -0.378282 -0.302791 -0.874769
11.0915 12.2309 9.73172 -0.182102 -0.331591 -0.925682
11.226 14.8858 6.47455 0.289068 0.574208 0.76598
24.1301 12.7314 8.0119 -0.232382 -0.616854 0.751991
12.4657 13.4456 6.85506 0.800992 -0.193823 -0.566431
12.1373 15.5367 10.6147 -0.276217 -0.800135 -0.532436
12.8364 17.5664 5.68453 -0.209233 -0.787774 0.57934
14.5576 14.0781 4.39815 -0.790201 0.196351 0.580541
14.7922 17.5625 10.5225 0.20429 -0.540822 -0.815952
14.4004 15.2272 7.98507 0.884965 -0.431326 -0.175485
15.7078 10.6524 5.15803 0.815921 0.0752373 0.573247
13.2319 14.189 7.00567 0.789342 -0.300796 -0.535221
15.0218 14.8565 10.0781 -0.0748069 0.781243 0.619729
13.7197 15.1362 7.13255 0.835342 -0.513127 -0.197243
20.7935 15.5883 16.9023 0.366055 -0.383217 -0.848026
19.2012 13.3553 8.34201 -0.806776 -0.487186 -0.334308
16.3326 13.4254 9.01709 -0.906883 0.281513 -0.31355
18.4356 12.8523 9.12221 -0.870321 -0.429456 -0.241058
19.509 14.2794 5.69389 0.751394 0.106952 -0.651128
16.4632 12.2655 7.1051 0.444317 0.371058 -0.815413
19.8031 15.106 9.98646 0.700313 -0.0339687 -0.713027
19.1862 12.7718 7.28444 -0.705776 -0.6918 0.152622
19.5595 15.508 7.59525 0.949833 0.310987 -0.0332405
18.2363 12.8453 6.50135 -0.739143 -0.669058 -0.0776404
20.9316 15.1672 12.662 0.0316579 0.297389 0.954231
24.0896 14.7189 9.76953 -0.0683893 -0.267856 0.961029
23.6797 16.2552 6.97573 -0.546772 -0.207907 -0.811058
22.0955 15.4785 7.64329 -0.973364 -0.136443 0.184242
10.8482 18.4109 10.7405 0.405805 -0.796464 -0.448294
24.4323 20.5987 10.7187 -0.434874 0.63785 0.635635
23.4799 13.9028 17.4166 0.0170073 0.223463 0.974564
10.9565 16.1086 17.5374 -0.413471 -0.0232024 -0.910222
15.3758 16.974 11.2127 -0.218907 -0.631003 -0.744255
12.3041 17.0887 8.469 -0.305762 -0.73874 -0.600644
15.4526 16.7597 4.92937 -0.851462 0.323362 0.412856
14.3663 16.6678 6.12989 0.799158 -0.549712 -0.243234
14.1776 17.2733 8.71271 0.0433421 -0.16142 -0.985934
13.9583 14.9998 10.3434 0.166936 -0.721992 -0.671461
14.3977 16.0689 4.96001 0.760185 -0.491912 -0.42443
15.4511 13.6385 5.02241 0.715185 -0.325083 -0.618734
17.2996 15.2725 6.24706 -0.694581 -0.0178494 0.719193
16.2217 17.6321 10.9717 0.507448 -0.0874937 0.857229
16.3285 19.446 10.5786 -0.346867 0.0912648 -0.933463
16.8017 15.8887 8.86843 -0.804604 0.155266 0.573153
16.1345 18.5175 9.89118 -0.574066 0.0584226 -0.816722
18.4168 14.8231 9.95551 0.741295 0.251716 -0.622191
22.932 19.5389 8.64995 0.749406 -0.595048 -0.29036
19.8735 16.1047 5.41861 0.762916 -0.0255166 -0.645994
17.9292 15.8635 11.6056 0.85627 -0.0973033 -0.507281
21.3041 16.6161 13.9104 0.371344 -0.913618 0.165546
22.6027 18.5687 5.99797 -0.859964 -0.494605 0.125808
21.3524 15.9694 11.8538 -0.130999 -0.317202 -0.939267
17.7519 16.2771 9.43616 -0.861169 -0.181597 0.474775
22.033 14.2851 10.0974 -0.239716 -0.39866 -0.885215
10.7818 17.2319 17.7829 0.175743 -0.123683 -0.976636
24.0939 15.2286 6.96592 0.183696 0.185466 0.965328
22.4522 15.8302 8.57736 0.965507 -0.17034 -0.196928
11.1111 18.9748 13.3625 -0.628916 0.255174 0.734405
24.3731 18.9657 9.87792 0.401334 -0.797842 -0.449865
12.3969 18.2939 7.78907 0.460897 0.408051 0.788079
13.0372 19.3075 9.6152 0.363445 0.905897 -0.217389
13.2254 16.6338 8.51097 -0.229147 -0.195557 -0.953546
23.6602 17.0105 10.0321 0.521288 0.452722 0.723396
14.4748 18.0888 7.22187 -0.834885 -0.549806 0.0261013
18.196 20.6381 13.7865 0.738641 0.672698 0.043431
17.6551 20.7072 11.8832 -0.249219 0.403901 -0.880201
14.5348 21.0043 9.27703 0.5622 -0.283854 0.776762
15.8643 18.9831 12.1743 0.825337 0.183963 0.533832
17.6291 18.5162 14.1081 0.409961 -0.655176 0.634567
16.6977 18.0484 12.9624 0.318151 -0.164961 0.933578
18.3731 20.3974 11.0173 0.472147 -0.373031 0.798702
18.6238 18.2178 7.83325 0.776902 0.629405 0.016528
19.0439 22.1196 12.739 -0.661848 0.296714 -0.688417
18.281 16.7739 10.3161 -0.758124 0.129923 0.639037
18.2068 17.865 6.52913 -0.67792 -0.486053 0.551522
17.7577 19.025 7.06169 0.931479 -0.354713 -0.0807768
16.7062 18.9121 8.33735 -0.83841 0.259357 0.479377
16.6612 17.5836 7.97702 0.6233 0.469811 -0.625119
22.1315 20.1777 4.72041 -0.381115 -0.31279 0.870008
22.3769 22.2758 16.5603 0.383625 -0.843715 0.375468
20.4449 17.9563 11.3697 0.416914 0.182067 0.890525
17.526 16.5445 7.61719 0.8792 0.0775964 -0.470092
22.871 18.0109 11.2374 -0.471163 0.851672 0.22948
23.2712 17.2446 6.93209 0.440278 0.155478 0.884298
21.8384 22.114 9.97074 -0.134558 0.338441 0.931317
23.9647 21.0708 8.99701 0.398552 -0.798216 -0.451673
24.2539 22.4661 12.3851 -0.220262 0.803141 0.553579
15.1675 19.2559 7.87212 -0.985505 -0.117332 0.122532
11.5074 21.5056 10.9704 0.111942 -0.679478 -0.725106
15.3249 19.8238 10.7637 0.478731 -0.0376143 0.877155
15.8861 20.3302 7.62247 -0.922306 0.237461 0.304899
12.5283 21.907 10.705 0.0379544 0.933959 0.355358
15.021 20.0531 8.69398 0.974286 -0.141884 -0.175031
16.7932 21.0568 12.5976 0.36332 -0.177753 0.91455
16.5982 21.4248 9.47446 -0.257227 0.387571 -0.885225
15.8934 20.6285 9.43171 -0.125254 0.309162 -0.942725
17.6552 22.6951 13.9776 0.258879 -0.286032 -0.922587
18.5427 21.3354 11.7374 -0.210286 0.144614 -0.966885
17.5115 21.0303 7.27775 -0.342886 0.938366 -0.0435663
21.4946 19.0097 11.8133 -0.28301 -0.48471 -0.827624
17.4849 22.1358 9.61776 0.218756 -0.648861 0.728783
22.4532 20.9919 9.67775 0.0336659 0.184603 0.982236
20.5019 20.4943 7.85987 -0.136584 0.317525 -0.938362
21.5115 20.0459 9.68457 0.217156 0.475581 0.852447
20.6779 20.6486 10.3569 -0.356517 -0.480185 -0.801448
17.7962 17.3617 9.53527 -0.887126 -0.048367 0.458987
20.522 22.8357 7.91719 -0.297446 -0.0448923 -0.953683
23.2405 19.969 4.44247 0.446363 0.61798 -0.647195
21.9164 22.7227 8.82897 -0.415361 0.416883 0.808507
22.1509 18.1619 9.39987 0.430492 0.654269 0.621779
22.8495 21.7094 8.58189 0.0074723 -0.541463 -0.840691
22.8697 22.3616 13.6921 0.170362 0.330467 0.928315
22.1478 11.8561 8.69344 -0.474026 0.381788 0.793434
11.6689 20.4474 8.48467 -0.37662 -0.832653 -0.406013
24.132 22.1424 8.27838 0.575031 -0.423345 -0.700085
10.8587 23.3062 11.6971 0.632422 -0.530833 -0.564145
13.9474 23.387 8.91135 -0.671611 0.26267 0.692779
12.1836 20.0746 9.44816 -0.522498 -0.8433 -0.125861
12.0478 22.1704 8.52777 -0.0397983 0.661122 0.749222
14.807 21.9474 6.57445 -0.989954 -0.130482 0.0544534
13.5693 21.9613 10.1572 -0.0654853 0.814867 0.575937
16.7719 22.1925 12.3581 -0.297318 0.250748 -0.921264
19.2967 23.5294 13.4338 0.711149 0.552073 0.435295
16.6863 20.8446 8.33039 0.168205 -0.498446 0.850446
19.209 10.2525 11.1079 0.600138 -0.45806 0.655756
19.7096 21.0246 12.3104 0.441679 0.230179 0.867143
16.6012 21.1652 5.15148 -0.622814 0.210767 0.753446
20.5 21.5779 5.2215 -0.348808 -0.217601 0.911582
19.0725 23.1122 10.5633 -0.744835 0.253817 -0.617088
20.0344 22.1255 12.0522 0.0826564 -0.732596 -0.675627
18.3743 23.686 7.71114 0.770772 0.232193 0.593294
19.1438 19.2609 6.07916 0.378079 -0.299529 0.875979
19.6289 22.3711 8.38785 -0.689248 0.35372 -0.632312
23.1173 10.9346 14.637 0.845187 0.104897 0.524076
21.5259 23.508 8.09493 0.342225 0.361025 0.867492
20.8029 22.8402 10.5274 0.0168455 -0.384669 -0.922901
21.8684 23.3972 10.5657 -0.520778 0.448854 0.726168
22.0961 22.1123 11.749 -0.264622 -0.777255 -0.570832
21.674 23.6084 12.4914 -0.124523 -0.489318 -0.86317
23.3759 23.6111 8.09832 0.0243165 -0.688457 -0.72487
23.4423 13.0261 11.8721 -0.540609 0.174004 -0.823082
12.8722 18.5738 15.9788 0.783158 -0.510861 0.35452
11.4123 10.5385 8.47503 -0.402262 0.614091 0.679027
24.3534 23.1994 10.5412 0.45251 -0.887781 -0.0841452
11.9129 11.9753 11.0649 0.239716 -0.505273 -0.828996
11.7914 10.1043 11.8724 -0.369937 0.317161 0.873244
13.9194 10.2845 6.81761 -0.021238 -0.492022 -0.870324
14.1401 22.2499 8.57916 0.443449 -0.294688 -0.84647
13.0458 10.9764 10.1153 0.295352 -0.369664 -0.880974
12.5098 12.3695 10.0169 0.405742 -0.718843 -0.56448
13.9825 11.256 9.00759 0.52991 -0.840163 -0.115414
17.6058 23.7828 12.0237 -0.345578 0.438517 -0.829625
15.4583 14.0252 11.8751 -0.395198 0.574694 0.716621
16.1167 10.1777 13.3688 -0.499324 0.564927 -0.656912
18.3416 12.8142 12.8243 0.813763 -0.171586 0.555292
19.2432 22.8892 9.32457 0.610966 -0.205564 0.764502
16.8751 12.7166 11.2925 0.599413 -0.538972 -0.591788
19.1037 11.9684 10.727 0.777995 0.490324 0.392818
19.4662 10.1032 9.78956 0.557121 -0.21078 0.803236
18.2462 21.2582 6.35847 -0.609615 0.768371 0.194872
20.8946 12.4702 12.6257 -0.712294 0.114095 -0.692546
24.3236 11.2196 13.3367 0.0404368 -0.921547 -0.386155
20.0536 12.446 7.91762 -0.420195 -0.756264 -0.501499
21.3589 11.1838 12.7493 0.362864 0.0705526 0.929167
22.5343 12.7818 10.1115 0.748559 -0.367996 0.551578
22.9186 11.2577 6.68364 0.31958 -0.806378 -0.497618
11.1806 10.1331 9.59356 -0.456999 0.541329 0.705773
23.4648 11.3144 5.56088 0.787104 -0.517713 -0.335321
23.1318 14.1208 10.9714 0.348427 0.364202 0.863687
23.8007 14.4513 13.5073 -0.443452 -0.0503485 -0.894883
11.205 13.7887 10.1352 0.139195 -0.46972 0.871773
12.3733 10.7639 8.9645 0.400097 -0.803645 -0.440541
24.4503 12.6692 11.5233 -0.326286 -0.268864 -0.906228
11.0007 11.1977 14.6379 -0.0179863 -0.96219 0.271786
14.0242 12.5191 8.27389 -0.950973 0.263097 0.162574
14.9844 10.1951 7.31486 0.565505 -0.0337106 -0.824056
12.366 12.0767 12.4332 -0.618239 0.550954 0.560563
13.4726 13.0543 9.92842 -0.607333 0.401953 0.685259
17.6552 14.5268 7.1451 0.96717 0.144313 -0.209182
15.3728 11.6588 12.1483 -0.678874 0.295922 0.671982
14.7662 14.7013 11.2814 0.00761993 -0.718547 -0.695437
19.973 11.9651 13.0266 0.850269 -0.20907 0.483045
13.24 14.5815 8.20706 -0.872882 0.242517 0.423395
18.5693 11.4965 12.3824 -0.730007 0.424935 -0.535276
15.8212 15.4157 13.9712 -0.622039 0.638526 0.453157
16.776 13.6576 10.7845 -0.435036 0.588761 0.681252
17.5609 15.3241 12.7002 -0.33375 0.726268 0.600955
20.4234 10.5861 8.40451 0.830485 0.0162422 0.556804
18.2523 13.4239 11.7464 0.456261 0.397103 0.796326
18.914 12.6043 11.714 0.694516 0.477184 0.538463
19.2218 14.053 10.0002 0.708188 0.185557 -0.681203
20.7931 12.1376 8.7432 0.184464 0.699209 0.69071
21.1151 13.8323 10.9953 0.127388 -0.249861 -0.959866
23.2304 13.5575 13.5267 0.192952 0.056796 0.979563
23.1572 12.6933 6.74269 0.537699 -0.585216 -0.606962
23.6781 16.6036 12.4611 -0.331474 -0.416559 -0.846524
23.1639 15.3881 12.5385 -0.390176 -0.5309 -0.752269
24.1865 13.6153 11.2029 -0.597382 -0.28834 -0.748328
11.3108 14.8611 8.14941 -0.161167 0.515065 0.841863
11.2684 11.8578 7.29137 -0.122279 0.503001 0.855592
11.8377 16.1504 9.86407 0.00840057 -0.758826 -0.651239
13.0462 12.9109 12.3563 0.467629 -0.618408 -0.631582
14.3417 16.03 7.0053 -0.699789 0.654185 0.286944
11.933 14.2469 11.3866 -0.244045 0.317985 0.916148
12.9503 14.7077 10.6742 0.147252 -0.660167 -0.736544
13.643 14.8946 14.027 0.44698 -0.602284 -0.661409
15.0658 16.5288 12.2916 -0.124802 0.634594 0.762703
14.0344 15.0504 8.9977 0.616351 -0.751739 -0.23452
16.9317 13.808 8.24554 -0.88441 0.437238 -0.163224
15.648 13.747 7.4514 -0.785955 0.295597 0.543045
15.1238 12.8838 9.07914 -0.691845 0.576252 0.435068
16.2872 14.4645 6.50093 0.811922 -0.212836 -0.543584
16.8876 14.8825 11.7537 -0.657911 0.618482 0.429689
17.4448 14.3446 13.4228 -0.173667 0.447558 0.877229
16.0236 12.8553 10.1138 -0.778385 0.623859 -0.0701224
20.2298 13.3776 10.2216 0.231041 0.120192 -0.965492
18.472 14.5851 13.5239 0.135591 0.0711805 -0.988205
20.3881 13.8762 14.9611 -0.166402 -0.131815 -0.977208
20.3777 16.2431 12.5271 0.0487486 0.677304 0.734086
18.6627 14.4402 11.3659 -0.769902 0.61178 -0.181595
21.0398 14.5832 10.1067 -0.248262 -0.34754 -0.904202
23.471 15.9937 14.6953 -0.143294 0.552015 0.82143
23.1923 15.1865 10.819 -0.48243 -0.266611 -0.834374
21.6788 15.1868 9.44592 0.0810003 0.292109 0.952949
11.7204 16.5028 15.0858 -0.265145 0.649027 0.713066
13.0137 15.6556 10.0316 0.27822 0.721702 0.633829
14.2529 17.0067 11.6371 0.142698 -0.859598 -0.49064
12.3601 15.7395 8.44105 -0.254453 -0.489935 -0.833797
12.1594 18.2421 11.0989 0.115617 0.631497 0.76671
24.3469 16.5392 15.5496 0.202096 -0.416219 -0.886521
16.025 15.1926 9.84051 0.160952 -0.685414 -0.710143
16.1364 16.5177 11.9736 0.00679665 0.714189 0.69992
13.0757 16.7772 12.0263 -0.0820362 0.730739 0.677709
17.6273 16.5146 14.203 0.258543 -0.877548 -0.403813
16.264 16.6737 10.385 -0.56739 0.168174 -0.806093
15.8003 14.6364 10.837 -0.104852 0.627198 0.77177
19.0705 19.9157 14.0436 -0.722476 -0.580615 -0.375386
16.9008 14.591 10.1645 -0.311476 0.568029 0.761791
18.0713 18.2138 13.0084 0.574463 0.435922 0.692795
16.5831 12.7722 8.0968 -0.962496 0.267768 -0.0436076
20.0246 19.5981 15.1704 0.843465 0.27473 0.461618
22.0914 17.3939 13.7988 0.141846 0.503474 0.852288
19.9638 15.8569 11.0395 -0.656387 0.350055 0.668294
17.946 15.7686 10.4318 -0.944971 0.0366928 0.325089
20.0719 17.5424 12.5928 -0.304782 -0.576759 -0.75793
21.5299 15.5607 15.1764 0.694444 -0.370009 0.617123
21.3319 17.5513 11.1003 -0.425344 -0.515445 -0.743908
21.9404 16.8472 11.5736 -0.213051 -0.496761 -0.841331
18.8348 15.4908 12.2003 0.507273 -0.383221 -0.771891
21.9701 15.222 12.4226 -0.156998 -0.527805 -0.834729
23.8108 17.4914 11.9779 -0.404501 0.571907 0.713653
10.9737 18.0795 11.9711 0.440685 -0.492662 -0.750387
10.8506 19.2982 12.1426 0.582753 -0.297712 -0.756153
12.0046 15.4941 12.8284 -0.431999 0.479966 0.763551
15.3358 22.9058 7.06243 0.898421 0.267844 -0.347992
14.1246 16.4689 10.2794 -0.241209 0.857256 0.454896
12.4095 22.1656 12.5014 -0.123769 -0.506483 -0.853321
12.0114 16.667 12.5807 -0.257584 0.662326 0.703545
15.9648 19.0281 15.1103 0.977519 -0.206424 -0.042965
14.6574 16.2342 8.27317 0.551816 -0.0180145 -0.833771
12.61 19.9989 11.9882 0.554405 0.50339 0.662747
13.9816 16.3283 12.4017 0.0145976 -0.745793 -0.666018
14.612 19.493 13.3803 0.278036 0.623444 0.730762
15.1966 15.3016 9.09193 -0.219973 0.828272 0.515341
14.8299 20.0111 12.2878 -0.0744669 -0.530808 -0.844214
18.7767 18.9304 12.4895 -0.548166 -0.398062 -0.735568
16.6485 22.2783 10.3753 0.133652 -0.689446 0.7119
18.8448 17.7145 10.3434 0.468528 -0.150602 -0.870518
19.5007 18.5352 9.09987 0.818749 0.467426 0.333411
18.7974 17.6981 12.3425 -0.556579 -0.526524 -0.642645
16.9526 17.8882 9.0184 -0.891859 -0.271612 0.361682
19.4241 16.8465 10.6738 -0.705532 -0.16938 0.688139
22.2929 19.0151 15.5003 -0.628656 -0.735082 -0.253863
19.8997 15.8502 8.88522 0.890018 -0.0851166 -0.44791
21.6135 19.012 10.1177 -0.564535 -0.260863 -0.783103
17.5369 16.9598 8.64458 -0.898309 -0.132905 0.418781
22.2856 17.0959 9.95892 -0.0452958 0.334679 0.941243
23.5394 18.8692 12.0122 0.319107 -0.659308 -0.680796
23.5737 20.2837 12.1862 0.0924119 -0.239792 -0.966416
22.5176 18.6723 12.72 -0.135151 0.805932 0.576374
22.0087 22.8482 13.236 0.38465 0.753157 0.533666
23.079 17.434 13.3639 0.197572 0.345551 0.917366
23.7659 22.798 11.2973 0.502722 -0.84713 -0.17217
12.7475 19.2111 10.6622 0.573116 -0.783578 0.239884
24.4972 21.4111 9.868 0.510706 -0.73763 -0.44168
11.8402 20.7803 11.8124 -0.135533 -0.51773 -0.84474
11.8044 22.2459 9.99367 -0.034522 0.914106 0.404004
16.0811 20.1303 12.8217 -0.484854 0.526633 -0.698266
12.5597 23.4621 12.6213 -0.37382 0.164868 0.912731
13.7412 20.309 11.6186 0.318496 0.428719 0.845435
15.7289 23.0537 11.2783 -0.368984 -0.466808 0.803704
16.752 20.2215 11.7891 0.301106 -0.391264 0.869625
16.0662 21.1998 13.7018 -0.517561 -0.836516 -0.179923
18.4841 19.2289 9.08634 -0.92219 -0.364841 -0.12828
16.5548 22.8331 8.17477 -0.250725 -0.334246 0.908525
17.6707 21.7361 12.1425 0.167068 -0.270864 0.948009
20.3049 19.5086 14.003 -0.259389 -0.706162 -0.658826
21.6915 19.8813 15.2504 0.594876 0.540347 0.595103
20.2492 21.6524 10.1175 -0.0994375 0.539463 0.836117
20.4296 19.0062 11.0656 0.0155668 0.388202 0.921443
23.1883 21.4016 14.0915 0.120773 0.251036 0.960414
21.0019 17.862 9.85426 -0.847001 -0.212944 -0.487078
23.1271 10.5745 13.4908 -0.812555 0.169667 -0.557644
20.5126 22.8838 13.6264 0.116347 0.826378 0.550966
21.9304 21.2006 12.6585 0.381607 0.335227 0.861394
20.7074 22.0405 14.4565 -0.334441 -0.921862 -0.195752
23.1874 22.0872 11.7748 -0.0753359 -0.752101 -0.654728
23.2874 20.3633 7.84993 0.094994 -0.209628 -0.973156
22.9283 11.764 13.7183 0.798823 -0.102878 0.592704
11.1601 22.2064 13.3057 -0.324559 0.354179 0.877051
13.5612 23.3363 7.64664 0.0143256 -0.709135 -0.704927
11.4491 23.1448 12.7229 0.52695 -0.341555 -0.778244
10.9191 10.6099 11.4782 -0.352755 0.509426 0.784888
13.3725 22.5374 12.2259 0.0671186 0.444911 0.893056
13.5188 10.0693 12.9152 0.239592 -0.290559 -0.926375
14.3501 23.142 10.1436 -0.323816 0.367489 0.871834
12.1363 10.305 10.1715 -0.300412 0.604354 0.737908
15.7585 23.7262 7.96623 -0.561704 -0.128615 0.81728
17.4472 10.3431 10.0659 -0.41362 -0.621229 -0.665577
18.4114 22.0922 14.714 -0.441825 -0.542315 -0.714622
16.0824 10.4544 11.3145 0.520013 0.19081 -0.832573
19.0192 20.3175 13.0406 0.596044 0.554456 0.580784
18.1744 22.5432 10.7953 -0.643631 0.34618 -0.682567
19.0864 20.9637 10.184 -0.770523 0.285732 -0.569782
16.6908 23.1799 12.5989 0.106314 -0.349794 0.930775
22.5154 20.7133 11.6227 0.340762 0.627486 0.700102
19.5189 21.1453 8.22715 -0.266758 0.669531 -0.69323
18.7833 21.8516 8.91001 0.660782 -0.604406 0.445041
20.8387 11.9454 11.2682 0.592994 0.0603704 0.802941
21.3817 20.355 13.0422 -0.390801 -0.399312 -0.829352
22.6021 10.2601 12.0899 -0.697965 0.271458 -0.662688
20.3429 10.547 12.0575 -0.226514 0.401703 0.887314
22.971 11.5954 9.35369 0.469044 -0.163353 -0.867936
22.4519 22.0869 15.0306 -0.297078 -0.622018 -0.724457
23.2462 11.9791 11.7601 -0.673337 0.113587 -0.730558
12.2869 19.8016 14.85 0.817643 -0.521098 -0.244778
11.8989 19.5307 13.826 0.74718 -0.648225 -0.146722
13.6013 19.2563 15.3494 0.65807 -0.652846 -0.375148
10.9492 14.7387 16.1252 -0.0868838 0.43974 0.893913
11.0195 11.5119 10.7763 -0.325393 0.255173 0.910498
12.9837 23.4941 14.5327 0.943179 -0.312943 -0.111712
15.5711 21.643 12.0167 -0.237891 -0.401341 0.884496
11.9655 13.3559 12.1118 -0.46387 0.312849 0.828825
12.0731 11.0679 12.9432 -0.613458 0.539625 0.576605
12.3058 13.6802 14.937 -0.446572 0.743192 0.498236
14.655 22.8093 13.5987 0.48156 -0.863293 -0.151083
15.1968 12.3105 11.1328 0.963272 -0.205056 -0.173375
17.2229 23.0386 11.2653 -0.413396 0.361012 -0.835927
14.877 12.4865 10.0832 -0.659725 0.6127 0.435157
16.9397 13.4143 13.5585 0.734847 -0.677544 -0.030544
16.1538 11.8703 13.1178 0.826886 -0.561695 0.0275305
17.0175 10.3821 12.9237 0.399871 -0.390455 0.829246
16.454 10.251 15.6852 -0.738695 0.66661 -0.0998063
18.6606 23.4402 14.4735 0.553094 -0.113244 0.825387
21.4723 13.0882 11.999 0.706305 0.177759 0.685226
17.8269 19.6215 8.11401 -0.969466 0.243898 0.025464
17.4415 12.0778 15.431 0.523075 -0.67129 -0.52513
18.7734 13.4796 15.6398 0.818256 0.447273 0.361116
22.7446 12.7718 14.2471 0.486453 -0.0257903 0.873326
22.8668 12.4766 12.7219 0.712366 0.1064 0.693696
19.996 12.767 14.5621 0.892259 0.132515 0.43164
13.5932 21.2279 14.3118 -0.666469 0.519726 0.534514
22.3754 11.8517 14.6875 0.728616 -0.126288 0.673179
22.2874 13.854 11.6281 0.259397 0.270645 0.927073
24.1441 13.3743 15.3145 0.308723 0.341222 -0.887839
11.3639 15.6907 15.7043 0.115795 -0.681919 -0.722204
11.8325 12.8961 8.78226 0.139981 -0.0864395 -0.986374
13.3511 12.1365 10.6342 0.625441 -0.237064 -0.743387
24.0107 12.2611 14.9702 -0.0890705 0.649004 -0.755553
13.5676 10.8826 12.1867 -0.455046 0.411934 0.789458
14.0276 10.6672 10.3565 -0.393454 0.522967 0.756108
11.7812 14.7906 13.6076 0.389506 -0.582324 -0.713571
12.394 12.0555 13.8704 0.912995 -0.375403 0.15973
14.7283 11.3475 11.2899 -0.788877 0.298036 0.537446
13.7207 14.4327 11.382 0.156096 -0.54425 -0.824273
14.9315 11.1506 9.77513 -0.494982 0.497244 0.71256
14.0363 13.0688 12.6598 -0.444235 0.688444 0.573324
16.4526 14.2247 12.4795 0.626686 -0.566554 -0.535053
14.3675 10.9088 12.9624 -0.558224 0.125445 0.820152
15.3248 13.0547 12.3599 -0.590334 0.639006 0.493129
14.8268 11.6218 13.735 0.879334 -0.434531 -0.194819
16.5693 11.462 15.2578 -0.593945 0.77604 0.212111
20.3186 12.9028 13.5023 0.798884 -0.293637 0.52494
17.8192 13.3386 16.3558 -0.665809 0.123291 -0.735865
14.935 15.5117 15.3026 0.595135 -0.53172 -0.602568
18.0807 12.7964 14.353 0.190974 -0.980689 -0.0421606
18.9168 13.5895 14.1177 -0.543723 -0.0130397 -0.839164
21.6049 14.5038 13.2947 -0.00603511 0.357444 0.933915
18.7402 11.7731 13.5254 0.882422 0.197172 0.427148
24.0962 15.4083 15.4481 0.352273 -0.211191 -0.911758
23.0487 15.245 15.2376 0.142903 -0.611952 -0.777878
22.5802 15.2936 13.9018 -0.12302 0.492054 0.861829
21.5551 14.271 15.508 -0.235434 -0.0770235 -0.968833
23.7308 14.452 15.8689 -0.0150358 0.225512 0.974124
10.8699 15.5541 10.6553 -0.280828 0.415628 0.865095
24.3561 13.5158 13.1595 0.320795 -0.43663 0.840503
13.5852 17.2692 14.5206 -0.513441 0.442592 0.735181
13.4637 12.3079 13.1525 -0.549471 0.627552 0.551598
12.8199 16.6117 15.0318 0.299451 -0.456241 -0.837958
13.1372 13.6247 11.6126 -0.487618 0.633385 0.600876
12.5482 14.5132 14.2291 -0.316912 0.745812 0.585945
13.9153 13.1656 13.9318 0.632688 -0.577114 -0.516377
12.919 14.9865 13.2726 -0.311637 0.782859 0.53853
14.063 15.5195 13.2293 -0.247353 0.602988 0.758434
14.9405 12.2855 15.3932 0.595918 -0.679859 -0.427403
14.6851 13.072 14.6622 0.530676 -0.671284 -0.517455
14.4247 13.7148 11.8055 0.44739 -0.489811 -0.748283
14.8644 14.8395 13.8923 -0.45694 0.616319 0.641371
14.4996 10.2194 14.5981 0.468384 -0.875926 0.115629
15.3296 14.046 14.66 -0.803803 0.497802 0.32572
17.2385 14.647 15.5303 -0.698242 0.597364 0.394479
16.1066 16.1898 13.2179 0.476016 -0.808066 -0.347043
17.0459 12.9111 14.5857 0.0215542 -0.998737 -0.0453926
19.3867 15.6866 15.6627 -0.299752 0.952525 -0.0533444
20.6006 14.6364 13.9305 -0.122789 -0.260972 -0.957505
20.1289 14.441 11.2957 -0.0364184 0.114038 0.992809
18.9781 17.6993 14.6939 -0.292288 0.937135 -0.190643
11.765 13.649 13.9146 0.514292 -0.695576 -0.501675
22.4305 15.951 11.8658 0.1042 0.500059 0.8597
22.7159 16.686 14.3276 0.0121356 -0.464249 -0.885621
14.9757 16.9167 15.7617 -0.503373 0.583778 0.637039
20.4626 18.096 15.1684 0.495973 -0.670086 0.552264
12.1642 17.5975 12.0945 -0.102302 -0.608363 -0.787038
11.1305 16.7797 11.877 -0.288091 0.465284 0.836968
14.0588 18.1296 14.0321 -0.907209 0.402929 0.120912
12.0075 17.1755 14.3278 -0.207339 0.678889 0.704358
13.1174 17.5583 9.9581 0.69722 0.618575 0.362282
13.0345 16.2292 12.9653 0.0424377 -0.641875 -0.765634
12.4635 17.9646 13.7592 0.887135 -0.412073 -0.207818
14.6786 17.4185 14.8726 0.60617 -0.588945 -0.534511
17.2919 16.0286 15.0692 0.463375 -0.861308 -0.208404
13.9289 13.7182 8.71673 0.725945 -0.477432 -0.495038
18.3203 15.0534 15.6542 0.700323 -0.63561 -0.324881
13.9314 10.2166 15.9179 0.694412 -0.624618 -0.357273
16.4796 16.2342 14.2664 -0.539872 0.721375 0.43377
15.1004 15.8387 13.1042 0.328866 -0.607974 -0.722644
16.3507 15.3507 14.9126 0.174551 -0.881282 -0.439175
17.0486 16.9266 12.7657 -0.381205 0.15503 0.911399
19.7402 18.3991 12.025 0.416833 0.642978 0.642518
19.8725 15.4845 13.138 0.471799 0.644495 0.601691
19.926 17.7599 14.1076 -0.477697 0.850885 -0.218635
19.5684 17.7152 15.7069 0.337722 -0.860297 0.381881
20.1722 17.8875 8.49305 -0.924495 -0.28767 -0.250112
19.5539 14.2252 13.4478 -0.021129 0.267031 0.963456
21.5096 17.0794 14.9148 0.581844 -0.692917 0.425821
22.7608 14.1218 15.9933 0.128808 -0.456611 -0.880293
11.2258 15.6507 12.1363 0.602632 -0.414542 -0.681901
24.5224 14.7946 11.6471 -0.459044 0.202751 0.864968
22.5045 18.9222 14.1651 -0.0368156 -0.75273 -0.657299
23.7513 17.1754 14.7963 0.00939286 -0.514745 -0.857292
24.4945 18.001 13.848 0.538058 -0.109443 -0.835772
13.0197 17.4799 11.1983 0.327561 0.679127 0.656879
13.4564 18.3911 12.9239 0.858048 -0.493018 0.143832
13.9779 16.7378 15.3583 -0.363779 0.450107 0.815517
10.8299 20.5269 11.9804 0.0635829 -0.694058 -0.717106
13.5633 19.4758 12.3561 -0.463932 -0.622308 -0.630476
15.0741 22.332 15.4358 -0.989543 0.109057 0.0943961
18.6062 15.9699 14.8034 0.307698 -0.942655 -0.129319
16.0647 18.8368 13.6773 -0.644906 0.376385 -0.665155
11.687 20.8843 13.423 -0.827215 0.502242 0.251931
19.2011 21.0844 15.7925 0.063114 -0.986281 -0.152534
19.3793 18.7721 10.8532 -0.267316 0.496615 0.825782
15.3618 18.0544 12.9902 -0.647382 0.244708 -0.721814
18.7513 16.2894 13.7989 -0.283746 0.923001 0.259917
16.0356 19.9007 14.2366 -0.780104 -0.625366 0.0188481
21.4653 18.2596 13.6453 -0.205062 0.330228 0.921357
19.7648 19.8011 10.7578 -0.165274 0.240481 0.95648
18.1058 16.9285 12.9363 0.406239 -0.482746 -0.775839
19.9567 20.3536 17.4236 0.178151 0.382726 0.906523
19.2354 16.9223 13.0668 0.216498 -0.814962 -0.537556
20.3903 16.8362 8.86507 -0.996864 0.0627591 0.0481939
20.7106 16.1461 9.74352 0.979001 0.0318619 -0.201348
19.3052 22.5739 14.0987 0.746347 0.461721 0.479355
11.2446 20.0386 12.9194 -0.766238 0.514732 0.384618
23.3886 19.1105 13.6167 -0.305445 0.940702 0.147589
21.4537 21.9014 13.7545 -0.527564 -0.665125 -0.528474
21.5223 21.0658 14.9689 0.294129 0.712348 0.637219
14.6862 20.3234 15.7087 0.895202 -0.436355 -0.0905999
23.7641 21.7404 12.9278 -0.103244 -0.548966 -0.829444
11.0205 16.9041 14.0522 -0.112989 0.315661 0.942121
10.8126 15.1966 13.3077 0.249873 -0.804426 -0.538945
14.0287 19.1649 10.7979 -0.00698064 -0.446711 0.894651
13.5917 21.1176 10.8658 0.445133 0.625317 0.640964
14.5435 23 11.6118 -0.322008 -0.718752 -0.616203
23.6214 20.1841 14.4831 0.337304 0.774744 -0.534788
15.6126 22.7585 12.9519 0.423754 -0.90576 -0.00567106
15.8788 21.0311 14.7922 -0.549166 -0.833871 0.0554639
13.5802 19.3759 13.7489 0.743827 -0.205642 0.635951
17.7699 19.6261 14.6511 -0.935817 -0.236856 -0.261046
15.7951 18.0428 14.6309 0.849095 -0.475742 0.229579
18.2936 18.7486 10.3845 -0.0426034 -0.459376 -0.88722
17.4922 18.9283 12.3126 -0.39805 -0.566466 -0.721576
14.4264 22.2137 14.5063 -0.960693 0.223075 0.165244
19.2775 20.0796 4.65561 0.0184796 0.520367 0.853743
21.319 19.3177 13.4224 -0.442543 -0.466776 -0.765686
22.4887 20.1596 12.6613 -0.0178697 -0.529174 -0.848325
19.373 21.3016 4.66151 0.176365 0.442838 0.879085
21.5 10.3827 14.4013 -0.0290285 -0.894019 -0.447088
18.502 20.5256 8.87346 -0.777868 0.160221 -0.60766
21.0464 23.8143 15.4477 -0.443585 -0.889583 -0.10897
20.553 11.581 14.3174 0.702405 0.566924 0.430377
20.5248 21.5238 15.4373 -0.499798 -0.831009 -0.244183
21.9462 23.3911 15.1501 0.360326 0.931564 0.0485133
23.336 23.6737 14.9213 -0.829375 -0.321534 -0.456894
12.6826 20.6363 14.119 0.808567 -0.370398 -0.457192
12.616 21.5508 13.5612 -0.822586 0.331825 0.461784
12.1517 18.6854 14.78 0.944419 -0.286409 0.161378
11.9501 10.7079 13.978 0.944128 0.293453 0.150028
13.8691 22.0035 13.5715 -0.707363 0.660699 0.251224
14.4651 22.2901 12.5407 0.0773106 -0.968974 -0.234761
11.3491 11.6783 12.3411 -0.487526 0.631208 0.603238
13.0702 21.1539 11.8361 -0.473928 -0.542599 -0.693526
15.4433 22.7289 10.0249 -0.289619 -0.329774 0.898538
14.7619 21.7369 10.4169 0.0696903 -0.230593 0.970551
17.4294 21.9576 15.0331 0.322327 0.466073 0.823942
15.4077 17.8672 15.6123 -0.705762 0.707859 0.0289095
15.7485 21.3025 10.6173 -0.15472 -0.64953 0.744427
18.0742 20.8059 14.8649 0.998777 0.0467544 0.0161099
15.4425 23.3681 13.9381 -0.456641 0.866027 -0.203657
17.5609 11.0791 14.0848 -0.231784 0.856358 -0.46144
15.6232 13.1122 13.6655 0.845875 -0.531953 0.039011
19.4801 12.6637 15.4792 0.787371 0.489494 0.374757
20.7133 20.9639 12.0507 0.22817 0.768931 0.59723
20.211 20.1642 13.0815 -0.493959 -0.500654 -0.71088
19.6465 22.0116 15.0192 -0.178885 -0.755081 -0.630756
20.2768 10.7081 14.9576 0.586905 0.693764 0.417413
18.0872 10.6551 15.4371 0.81535 -0.123525 -0.565638
22.5859 20.7631 14.9012 0.193669 0.531544 0.824593
19.6309 11.6672 14.8912 0.755808 0.47307 0.452723
13.6769 20.2868 14.912 0.860907 -0.480614 -0.166882
21.5743 12.6788 8.13022 0.332192 -0.671224 -0.662651
11.8953 22.9372 14.2706 0.785952 -0.618189 -0.011043
11.3473 22.2946 15.0555 0.763436 -0.562948 -0.316631
14.2409 21.36 15.0899 -0.661722 0.418701 0.621943
11.7497 12.5287 14.8105 -0.361539 0.927093 0.0989369
11.6625 10.8378 15.4861 0.809624 -0.185986 -0.556703
22.34 14.1826 14.2562 -0.0318179 -0.352783 -0.935164
12.8629 23.6805 15.7461 0.681239 -0.609245 -0.405874
11.9753 23.1114 15.4109 -0.757539 0.604485 0.24644
12.6953 22.8379 16.34 -0.919518 0.359864 0.158066
15.5656 13.3868 15.5812 0.917382 -0.348256 -0.192686
12.9561 21.7305 16.7168 0.80953 -0.462214 -0.361966
15.7727 14.4567 15.6424 0.852401 -0.411178 -0.323025
14.4698 20.5373 10.8193 -0.374714 -0.184173 -0.908663
13.1227 14.6212 15.2067 -0.780268 0.384319 0.493438
21.3678 19.6218 16.4577 0.984653 0.168412 -0.0457712
16.0366 10.4883 14.5879 -0.870683 0.478172 -0.115163
15.906 23.2751 15.0574 -0.704603 0.572731 0.418943
16.186 11.7953 14.275 -0.379973 0.861402 0.337056
21.4847 12.7231 15.811 0.314246 -0.869321 -0.381485
