20.3638 19.4537 8.32588 -0.420616 0.629301 -0.653501
18.0577 12.4716 11.1715 0.380539 0.836546 0.394185
21.1164 13.8139 13.983 0.427428 0.125902 0.89524
19.868 18.8295 6.50011 0.989203 -0.114099 -0.0919752
16.4615 15.1047 13.6005 -0.280802 -0.873972 0.396641
15.0807 10.4704 11.8254 0.735259 -0.54048 0.408994
11.9914 21.5519 18.7639 -0.233208 -0.869618 0.435176
16.1848 19.2022 15.9142 0.508709 -0.334427 -0.793331
19.0995 10.05 9.86457 0.927856 0.106881 0.357294
23.9923 11.3051 18.026 -0.0841256 0.949092 0.303558
14.1671 18.1599 10.7763 0.105306 0.963235 0.247161
13.5824 13.9721 9.43152 -0.894912 0.434868 0.100109
13.2205 22.4233 16.8628 -0.570127 0.789767 -0.226326
11.8214 14.8399 6.29213 0.296753 0.309752 -0.903322
22.4188 20.8771 17.0646 -0.0410971 -0.809192 -0.586105
12.6462 16.2777 11.0803 0.386775 -0.333904 -0.8596
14.839 11.6961 18.5464 0.721335 0.0828958 -0.687608
18.0242 21.4465 5.76349 0.696809 -0.0926676 -0.711246
14.8524 18.2584 6.5353 0.595551 -0.700874 -0.392548
23.4842 14.3752 18.1011 -0.224802 -0.959309 -0.170854
11.3899 15.7841 19.0732 0.215348 0.175106 -0.96071
10.938 11.919 6.57118 -0.784511 0.599281 0.159392
11.5663 20.8576 12.2315 -0.134406 0.375477 -0.917034
10.6001 21.8683 17.351 0.454656 0.86501 0.212239
15.5859 21.6789 10.6691 0.491196 0.729115 -0.476569
21.9801 12.1675 17.2812 -0.0619895 -0.995369 0.0734733
12.7899 17.6465 12.6951 0.0456794 0.395886 0.917163
13.6608 16.3731 11.1247 0.187893 -0.582308 -0.790957
12.5871 11.1856 13.5864 -0.125379 -0.733115 -0.668448
24.2463 10.071 9.94012 0.0393585 0.0101567 0.999174
16.2165 14.8926 6.37628 -0.848573 0.515505 0.119072
13.0286 11.9146 5.58124 -0.682867 -0.214456 0.698356
16.5686 17.9469 14.5416 0.267646 -0.147796 -0.952115
14.1714 19.8434 7.53268 -0.144916 -0.394843 0.907248
17.5037 13.854 8.24843 -0.463984 0.841899 -0.275545
14.1664 21.5843 10.5691 -0.0980088 -0.398737 0.911813
14.8887 21.5593 7.72871 -0.80974 -0.108605 0.57665
11.8732 16.126 7.19387 -0.115399 0.274584 0.954613
13.068 12.1766 17.7864 0.926714 -0.359947 0.107886
15.007 15.523 17.6438 -0.960723 -0.231314 0.153314
17.4304 19.7083 7.27729 -0.491092 0.710518 0.503977
23.539 15.8541 12.2825 -0.638034 -0.149323 0.755391
22.705 21.3578 18.5126 -0.333007 -0.779718 -0.530233
18.5928 20.7017 11.3693 -0.0301038 0.997581 -0.0626601
20.659 9.72994 18.7828 0.356617 0.92261 -0.147018
10.9069 11.1073 18.9679 0.427671 -0.306208 -0.850491
11.6157 10.2158 13.1704 0.109075 0.727085 0.677827
20.9875 21.6717 15.6204 -0.812989 -0.518568 -0.264831
20.1157 10.534 8.12982 -0.384073 0.845811 0.370258
17.0613 9.81872 18.7322 0.62457 -0.290653 -0.724868
18.3326 22.1903 6.43946 0.787257 -0.581206 -0.205976
20.415 19.72 11.3878 -0.377008 -0.826678 0.417694
15.0195 13.884 17.5529 0.525854 0.838341 -0.143743
16.178 11.3165 13.1197 -0.364072 0.797065 -0.481808
19.5391 9.51384 18.7023 -0.367776 -0.910996 -0.186621
18.342 12.9893 6.68209 -0.467746 0.830725 -0.301842
15.3136 12.5196 10.7076 -0.87758 0.479237 -0.0136095
17.8426 9.18793 5.71459 0.616079 -0.701344 -0.358557
21.7613 12.8669 5.79535 0.025519 -0.780924 -0.624104
17.3039 17.6826 10.4907 -0.106649 -0.993722 0.0337959
18.5398 10.0433 16.1737 -0.71835 0.669074 0.190559
21.596 17.8552 18.9206 0.139236 -0.0741426 0.98748
24.1587 20.6277 15.6371 0.679842 0.361762 0.637921
24.2077 16.1056 7.56321 -0.779235 0.540384 0.317456
17.9301 14.5564 15.0667 0.41077 -0.806798 0.42467
13.0106 12.9709 18.699 -0.631759 -0.0977904 0.768971
13.8768 20.1594 16.6243 0.022295 -0.707191 -0.706671
13.5957 21.8018 15.7167 -0.493202 0.454735 -0.741598
11.542 11.3827 8.32724 -0.739358 0.387926 0.55033
11.746 22.1566 7.05185 0.0468533 0.575759 -0.816276
12.8975 22.2003 5.50956 0.797155 -0.593106 0.112999
13.3292 9.2714 7.36008 -0.566737 -0.428831 0.703501
22.5071 10.6662 6.55922 -0.203697 0.0661036 0.9768
11.8944 12.7508 15.9007 -0.406955 0.421672 0.810297
22.5054 12.5314 18.3758 0.0960832 0.966927 0.236262
15.4903 9.89671 13.8787 -0.356179 -0.32213 0.877137
21.7816 17.8802 7.33802 0.0942206 -0.897528 0.430774
23.0641 11.3188 12.9272 0.475295 -0.864803 -0.161897
13.0739 10.3035 11.0708 0.459722 0.82851 -0.31973
14.5829 17.5193 7.42372 -0.691699 0.621414 -0.367964
17.2445 18.4637 16.0771 -0.00854058 -0.751849 -0.65928
15.4338 19.5374 8.82372 0.314431 0.624906 -0.714581
22.7719 19.8513 18.6109 0.2061 -0.772383 -0.600788
22.9862 9.76566 16.7268 -0.253208 -0.696555 -0.671339
14.69 13.129 11.6472 0.819335 -0.436286 0.371948
21.3747 14.8259 14.6534 -0.538813 -0.0592597 -0.840338
13.5669 13.3695 15.3761 0.551814 0.698722 0.455291
22.0043 18.9903 18.7895 -0.676537 0.579585 0.454288
13.3165 20.7924 12.8547 0.0524434 0.23386 -0.970855
16.8972 17.8675 8.70053 0.161117 0.913038 -0.374704
16.4569 10.719 16.9264 -0.893115 -0.448121 0.0391553
13.9127 15.6901 15.3093 0.745491 0.45206 0.48978
19.2731 22.6452 6.91111 -0.665321 0.742834 0.0744677
17.4458 19.2032 9.01613 -0.101157 -0.836827 0.538041
19.2131 20.5615 8.17151 0.172633 0.831137 -0.528592
20.8156 20.5497 8.04317 -0.591126 0.65687 -0.468072
15.8527 21.725 5.83082 0.922822 0.296837 0.245535
12.0113 18.7951 9.33413 0.883787 0.45765 0.0973495
18.4705 13.5439 5.45982 0.875496 -0.468759 0.11735
23.2697 19.3473 14.506 0.459816 0.0302892 -0.887498
17.8818 16.5607 17.3068 -0.805226 0.415459 -0.42309
21.0955 22.2887 18.5318 -0.412844 -0.864276 0.287379
19.6408 12.7446 16.6093 -0.690211 -0.647538 -0.32296
14.4077 16.3012 5.7473 0.769432 0.63402 -0.0774195
10.8927 16.7568 12.1046 -0.661676 0.174259 0.729259
19.3641 11.4065 10.5946 -0.522002 -0.490651 -0.697693
24.1662 12.6915 5.74961 -0.419706 0.666611 0.616017
24.0783 19.3302 16.9155 0.0868158 0.976152 -0.198971
16.5996 17.0314 11.7032 -0.448636 0.73134 0.513681
13.8966 13.7002 13.76 -0.276187 0.293917 -0.915059
22.473 9.01777 18.7284 0.432137 0.756545 0.490813
17.2853 15.4241 17.257 0.886419 0.321901 -0.332628
20.3212 13.5481 8.55089 0.133581 -0.866211 -0.481492
16.4831 12.2358 15.2882 -0.999057 0.0265395 0.0343723
11.2777 15.5353 8.43375 0.540895 -0.311131 -0.781429
22.7023 16.2792 7.41053 -0.45113 -0.106839 0.88604
11.8097 12.5631 8.43081 -0.582979 0.806338 -0.0997736
20.3041 12.9194 7.27099 0.872747 -0.433762 -0.223969
19.482 20.4557 10.4652 0.019884 0.412432 -0.910771
18.2945 18.7788 10.8756 0.195381 0.936722 -0.290479
15.024 20.9555 9.9384 -0.870894 -0.31098 0.380572
14.004 10.8753 10.0031 0.652894 -0.418738 0.63118
20.9607 15.0724 7.8169 0.323191 -0.138056 -0.936209
20.6396 20.2211 12.2306 0.95505 -0.126869 0.267924
13.6857 22.6606 18.7594 0.834294 -0.372498 0.406446
17.6395 14.6776 16.512 0.141918 0.589085 -0.795511
18.1217 10.7735 18.5125 0.402331 0.364498 -0.839804
18.7227 20.3187 12.3981 -0.53252 -0.844247 0.0605764
15.6037 16.8361 12.2598 0.294526 -0.800784 -0.521536
14.332 18.6288 13.2639 -0.699641 0.27639 0.658871
13.1403 9.71808 15.4305 0.553057 -0.508768 -0.65976
22.2682 19.2043 16.7984 0.0533912 -0.520003 -0.852494
18.7783 14.9832 18.9995 0.95231 0.252874 -0.170762
24.0288 18.5149 14.5893 0.385578 -0.112001 -0.915852
23.9199 13.6113 14.9178 0.100793 -0.749081 -0.654766
15.4347 15.0827 13.4664 0.164776 -0.838216 -0.519849
14.4045 15.6086 13.4491 -0.169849 0.866099 0.470131
19.3631 20.7026 13.31 0.934211 -0.284246 -0.215531
16.5345 20.9129 19.1195 -0.878826 0.247785 -0.40776
16.8303 9.48553 16.6395 -0.991105 0.0647885 0.116244
16.9713 22.2435 8.09568 -0.98047 -0.119756 -0.156003
18.9017 14.3312 6.60031 0.132993 0.82107 -0.555119
18.6979 10.3417 7.60139 -0.856413 0.500568 0.126441
18.8929 14.4843 16.0223 0.42401 -0.705028 0.568464
11.7816 9.13839 7.94662 0.323589 -0.210023 0.922594
22.2085 11.2803 9.83139 0.767428 0.599614 0.226976
14.1032 17.524 8.48845 0.0193678 -0.94213 0.334688
20.1327 16.8437 17.2078 0.295308 -0.953899 -0.0535684
11.134 9.0685 14.0316 0.320744 -0.302769 0.897471
21.3322 10.4783 17.7619 -0.37112 -0.763512 -0.528506
11.3477 15.5993 16.3794 0.687458 -0.66593 -0.289724
14.1774 16.9175 17.3889 0.877875 -0.454411 -0.151146
13.2601 21.2537 10.1645 -0.133391 0.461434 -0.87709
19.2205 16.432 16.7952 0.139734 -0.899064 0.414921
14.0383 14.3682 17.3763 0.0169672 0.444495 -0.895621
23.2547 11.6011 18.9676 0.268348 0.517059 0.812797
11.693 17.8111 17.3954 0.917846 -0.351261 -0.184862
15.6745 22.7217 17.4163 0.887617 -0.365339 -0.280472
20.6574 14.7747 11.5738 0.0115858 0.536258 0.843974
17.8786 11.338 14.4945 0.142776 0.988995 0.0387757
19.5729 14.7838 11.3584 0.03663 0.641012 0.766656
23.1132 13.5854 17.0582 -0.324616 -0.938529 -0.117422
14.6191 10.6174 16.5887 0.121359 0.942655 -0.310922
18.6927 17.8815 14.8375 -0.515029 0.61096 0.601226
18.7264 22.5567 11.9647 0.932996 -0.130393 0.335433
16.7262 13.0569 16.6148 -0.652056 -0.12922 -0.747078
23.1457 18.966 5.46635 0.212917 -0.880484 -0.423573
23.3147 20.2557 16.319 -0.051128 -0.955389 -0.290892
18.1669 17.6107 15.9622 -0.220864 -0.55276 -0.803539
13.081 22.6725 6.41635 -0.800461 0.554657 0.227197
18.2195 11.9624 9.76402 0.0355923 0.935923 0.350401
16.5211 20.3321 11.8592 0.193045 -0.115616 -0.974354
14.9134 16.8666 13.3235 -0.238123 0.925002 0.296088
19.1052 20.7403 5.86851 0.910948 0.136445 -0.389302
13.8553 15.0191 12.4896 -0.484245 0.728145 0.485089
16.6498 22.7895 18.1124 0.857979 -0.464437 -0.219478
12.3479 11.3628 18.1015 0.938009 -0.330364 -0.104879
19.2156 18.4995 15.8948 -0.0698991 0.367406 -0.92743
22.448 21.4058 9.887 0.549854 -0.519929 -0.653708
14.0646 11.5848 6.38361 -0.886017 -0.46218 0.0369264
13.6554 15.943 8.26405 -0.903305 0.427071 -0.0406243
16.3641 16.6571 8.17295 -0.276322 0.955202 0.105991
16.0634 12.4689 7.40713 -0.88616 -0.398059 -0.237213
16.122 11.2955 11.7427 0.28433 -0.941991 0.17835
15.2198 14.5241 12.1638 -0.393082 0.897866 0.198299
21.956 16.1143 12.9727 -0.352314 -0.61195 -0.70809
12.885 10.3022 14.4485 -0.263637 -0.497097 -0.826674
17.6895 15.7401 13.4516 0.402136 0.867041 -0.294156
13.0767 19.8793 15.4601 -0.0384535 0.569964 0.820769
22.8528 12.4648 9.32209 0.542067 -0.552535 -0.633142
21.0854 16.5025 12.1476 -0.0820974 0.789505 0.608228
20.9387 13.8555 7.12657 0.0121937 0.298963 0.954187
23.7543 12.1705 10.8134 0.450253 0.850026 0.273366
22.6748 18.3915 12.2569 0.059932 0.688104 -0.723133
18.4795 9.5185 18.671 -0.257134 -0.7693 -0.584858
21.7707 15.3734 13.8083 -0.401917 -0.260333 -0.877889
14.8163 10.7353 9.38033 0.703335 -0.171162 0.689945
20.9844 18.8116 14.0149 0.111398 0.614722 0.780838
18.319 20.066 9.21351 -0.163661 -0.787872 0.593694
18.2368 17.5054 9.96518 0.122485 0.978159 -0.167938
18.0533 9.27327 7.67235 -0.943415 -0.0336577 -0.329902
16.7866 15.7746 18.3103 -0.986558 -0.142888 0.0792902
20.457 17.172 14.1971 0.333091 0.8535 0.400734
17.9221 20.6775 18.6864 -0.732511 0.569575 -0.372844
18.3163 21.9954 17.0174 -0.650131 0.744413 0.152244
20.2286 21.3631 9.99681 0.0493313 0.349684 -0.935568
13.7004 9.77043 16.4325 -0.411241 0.910583 0.0414648
15.2062 9.6603 15.9002 0.379225 0.624829 -0.682479
16.9087 11.9761 8.38601 -0.955488 -0.150324 -0.253859
16.7012 10.2749 15.8614 -0.920555 0.373169 0.115426
11.4761 15.1203 9.82388 -0.489018 -0.0372521 0.871478
18.1627 9.60951 11.1667 0.540185 0.530474 0.653297
21.588 21.1846 16.6823 -0.0769856 0.496752 0.864471
20.3209 22.6961 6.25464 -0.547687 0.680026 0.487446
13.1721 21.3433 14.5496 0.227727 -0.375761 0.8983
14.1831 21.6925 14.6465 -0.215766 0.476555 -0.852256
22.8929 14.9036 9.49796 -0.534894 -0.843764 -0.0441698
16.3179 21.9393 15.3692 -0.325044 -0.573553 0.75192
18.2216 17.8545 7.20042 -0.313765 -0.949463 0.00841112
15.8765 19.6871 13.4677 0.288228 -0.124297 -0.94946
23.9525 17.395 14.2069 0.505117 -0.277409 -0.817252
14.4392 19.8684 17.7917 -0.514174 -0.500605 0.696433
14.1378 16.9188 15.2378 -0.509075 0.609209 0.608035
14.5823 18.0765 9.28289 -0.387091 0.91894 -0.0755616
20.5935 18.0106 5.73758 -0.425769 0.364908 -0.827987
14.8284 13.5965 12.9682 0.715421 0.00453428 0.698679
10.7736 17.0346 17.4357 0.890695 -0.352031 0.287639
22.8527 13.5923 12.4271 0.622505 -0.577865 -0.527787
12.7813 11.6541 15.1529 0.598158 0.551162 0.581745
17.4606 20.0572 10.0555 -0.109244 0.35255 -0.929395
17.8342 21.0549 15.2423 0.0896444 -0.0990946 0.991032
14.001 11.6471 13.6991 0.759291 0.20723 0.616873
15.7296 10.2281 17.8823 -0.971414 -0.13705 -0.193836
13.5319 21.3879 6.65393 0.754663 -0.358238 -0.549681
22.8792 12.5503 14.818 0.140175 0.975849 0.167539
19.3965 10.6542 16.0097 0.492992 -0.725849 -0.479689
23.6993 21.5686 5.61204 0.320114 0.925959 -0.20032
10.5954 18.1303 18.847 0.506998 0.170168 0.844983
22.2124 14.9987 5.9345 -0.751849 -0.659157 0.0153575
21.7181 18.3118 12.9391 -0.337757 -0.179603 -0.923939
21.9579 19.3856 7.51919 0.36865 0.260456 -0.892334
15.3081 19.1737 19.1087 -0.342481 0.739229 -0.579868
13.0365 14.5111 15.6434 -0.240258 -0.740926 -0.62714
11.0157 14.2413 5.84884 -0.338376 -0.590765 0.732461
22.9016 22.516 11.2965 -0.878822 0.126115 -0.460182
16.1159 13.8303 17.1386 0.72132 0.55893 0.409017
20.8686 16.8558 15.4065 -0.59315 -0.572263 -0.566294
12.2291 15.0267 15.1109 0.0923384 0.899658 0.42672
12.6893 12.3768 10.379 0.820382 -0.382326 -0.425206
15.1352 9.55299 9.26871 0.730586 -0.249144 0.635744
22.2425 11.5803 5.85209 -0.044647 0.450607 0.891605
14.1434 17.9407 16.4722 0.377794 -0.919004 -0.112711
11.7932 9.58457 17.0772 0.221849 0.735806 0.639822
12.7571 15.9681 5.64714 0.0625597 0.122522 0.990492
18.5112 11.5649 11.631 -0.355635 -0.848673 -0.391508
14.7879 12.9463 15.8458 -0.726557 -0.645649 0.235057
20.1905 21.507 16.8188 0.607821 0.257516 0.751159
15.4606 14.414 7.0344 0.858483 -0.171933 0.483162
22.05 15.5438 16.4158 0.532553 0.832688 0.151715
16.4848 13.1284 14.0406 0.43553 0.817127 -0.377647
16.0183 13.4842 6.61513 0.727865 0.110247 0.676799
20.1995 16.7675 12.9806 -0.0549071 -0.933881 -0.353344
20.7679 14.8215 18.7074 0.930716 0.347733 0.113353
22.2456 9.06809 14.2165 -0.0503541 -0.989908 0.132464
20.0156 10.6358 6.96787 -0.623916 0.707874 0.331124
14.7189 14.6709 18.5555 -0.868402 -0.286495 0.404722
20.1861 9.8337 9.04477 0.749592 0.0377108 0.660825
18.9747 20.5934 18.055 0.617565 -0.294897 0.729143
11.2831 9.50417 10.1265 0.314704 0.144158 -0.938179
16.9152 19.8852 18.7302 0.951212 -0.224793 0.211339
17.3239 21.2961 8.46308 0.877714 -0.104058 -0.46775
19.067 19.677 13.2407 -0.953027 -0.000785684 0.302884
11.7125 17.4019 9.39965 0.593221 -0.415378 -0.689601
14.9477 12.8534 14.6917 -0.858093 -0.508172 0.0737418
17.232 13.2026 15.1804 -0.97244 0.232651 -0.0153219
12.5523 13.4315 10.0345 -0.260201 -0.742107 -0.617716
23.7966 18.3059 8.59113 -0.935227 0.337927 0.105618
20.5836 10.8974 14.89 -0.274698 -0.961355 -0.0183723
17.4076 16.3656 9.58105 0.161865 -0.986102 -0.0374417
15.0462 11.1811 17.4552 -0.771447 -0.248621 0.585711
22.4455 22.5158 12.3572 -0.928231 0.318637 -0.191981
15.5199 19.2819 6.50101 -0.57192 0.763034 -0.301141
23.5943 22.5069 6.4295 -0.0197363 0.675737 -0.736878
24.3466 13.7106 9.05102 -0.781418 0.599014 -0.17484
23.1504 20.941 10.9917 0.979287 -0.156782 0.128123
21.4515 17.5475 9.4976 -0.15821 -0.911623 0.379358
19.6881 13.3776 12.9766 0.499854 0.0653528 0.863641
23.6987 22.567 13.5348 0.146768 0.931043 -0.334093
16.5541 20.1155 8.65874 0.0184215 -0.638081 -0.769748
23.9579 18.6782 6.11821 0.293576 0.900803 0.319948
18.4601 13.9021 17.0587 -0.0939552 -0.995181 -0.028044
19.6739 11.6978 15.3659 0.0874334 0.947057 0.308932
21.8764 12.7386 15.0168 0.298308 0.917088 0.264502
22.5014 16.4976 12.1513 0.515988 0.267607 0.813722
17.1138 22.7137 15.6299 0.444434 0.5691 -0.691811
22.5935 17.9772 14.6066 0.377818 0.513852 0.770201
12.3799 12.5805 12.6023 -0.886375 -0.462507 -0.0206431
16.1916 18.696 13.7729 0.14042 -0.349787 -0.926246
18.4031 16.1132 5.87158 0.175273 -0.138043 -0.974794
10.6951 20.4062 17.7085 0.65264 0.477537 -0.588235
16.3147 9.83694 8.88284 -0.893894 0.149588 -0.422584
14.2369 13.4722 16.693 0.796399 0.480293 -0.367515
20.6232 15.6197 13.8556 0.45187 0.4448 0.773283
20.3418 18.0899 12.4106 -0.107744 -0.953186 -0.282538
15.8205 17.1685 9.15241 -0.0978141 0.986037 0.13477
21.4186 11.9602 7.78311 0.357189 -0.55916 -0.748169
22.6146 15.0683 17.1751 0.400847 0.757741 0.514928
15.5283 9.01832 8.23742 0.687204 0.431827 -0.584189
18.7138 15.2011 12.3332 0.169134 -0.949421 -0.264562
13.6187 9.65872 5.70671 0.972479 -0.124408 -0.196997
17.9438 20.7809 10.5641 -0.668234 0.0769822 0.739958
23.0583 10.4218 15.7812 0.232559 0.724109 0.649294
11.0687 9.07488 5.53531 0.356212 -0.275179 -0.892967
10.86 13.6062 18.8318 -0.995447 0.0909286 0.0285923
17.2397 18.3443 12.5556 -0.524081 0.771587 -0.360546
23.1701 10.7257 11.8418 -0.649526 0.748563 0.133303
13.7052 16.4338 6.593 -0.104299 -0.683594 0.722372
15.9962 12.9913 17.8264 -0.884396 -0.462078 -0.0657856
14.6306 22.7149 10.2179 -0.513117 0.267542 -0.815557
11.192 17.027 8.21868 -0.646507 -0.653684 0.393353
13.2633 17.7322 14.6828 0.382536 -0.862705 -0.330766
23.4958 17.9986 7.62574 -0.635469 -0.561831 0.529647
19.3586 15.0832 8.99681 0.736593 0.591383 -0.32817
22.7503 20.1197 11.7449 0.813057 -0.45132 -0.367761
23.9355 15.7206 6.46444 0.633402 0.757 0.160479
23.5305 11.4915 13.8999 0.1014 -0.970906 -0.216932
18.5893 12.127 18.5637 0.936059 0.347627 0.0542993
21.6329 14.5163 11.7686 -0.0896336 -0.0489301 0.994772
17.486 22.0964 14.4953 0.169184 0.373787 -0.911954
23.8473 13.582 13.4765 -0.226973 0.539558 0.810778
23.9491 17.1167 6.85572 -0.218543 -0.230274 -0.948269
19.4969 16.9429 8.53691 -0.28657 -0.954797 -0.0790011
11.2779 21.015 7.34301 0.889824 -0.283694 -0.357394
15.8346 17.7222 7.35741 0.766414 -0.641562 -0.031746
19.9994 16.9534 16.0156 -0.334878 -0.781716 -0.526096
20.4664 17.0669 9.21668 -0.0562305 -0.998302 -0.0151811
22.684 16.7617 14.8344 -0.059877 -0.727848 -0.683119
16.2767 19.2132 9.26389 -0.255507 -0.730661 -0.633128
12.4864 18.5681 17.0583 0.868283 -0.359888 0.341416
12.5417 21.4576 16.9919 0.701782 -0.298413 0.646878
23.9693 16.0854 13.3191 0.522608 -0.506369 -0.685909
15.9036 18.4302 17.3031 0.419577 -0.0900175 -0.903245
17.7413 20.1847 16.6375 0.322204 -0.357735 -0.876476
11.6274 20.5996 10.6426 0.250234 -0.408196 0.877929
10.618 10.0003 18.9005 -0.351736 0.0932856 0.931439
20.0279 20.3484 8.90754 0.0627984 0.89062 -0.450391
13.4473 22.1635 10.8777 -0.0884799 -0.45442 0.886382
17.3815 18.7471 13.9212 -0.292003 0.905826 0.306941
15.9628 21.0619 8.20443 -0.487314 -0.395951 0.778298
14.9489 12.9664 7.35849 -0.0663745 0.188312 0.979864
17.2507 16.874 12.509 -0.647768 0.688438 0.326267
14.7699 16.6229 11.1874 -0.469997 0.844526 0.256667
21.7144 11.6959 12.5077 -0.147726 0.830667 0.536814
15.9464 22.4753 7.0748 -0.979474 0.114717 0.165741
17.5446 15.5129 6.58051 -0.418909 0.810822 0.408758
20.8153 12.3875 6.17576 -0.580815 0.788888 -0.20077
11.7043 16.9799 14.7026 -0.709423 -0.514892 -0.481254
16.8628 12.9139 13.0219 -0.337943 -0.810636 0.478189
20.7747 14.4721 15.4288 0.199375 0.747858 0.633213
10.9323 19.8487 12.9484 0.564555 -0.0975809 -0.819607
17.259 17.8258 18.8589 -0.0847406 -0.358077 -0.929838
22.6848 20.2657 9.94716 0.788543 -0.300885 -0.536347
10.6076 11.5586 7.63803 0.808659 -0.472371 -0.350621
15.3338 11.093 13.7901 0.577637 -0.487112 0.655025
21.8885 15.4261 10.4285 -0.00252167 0.101953 0.994786
23.9857 21.5795 18.3917 -0.360235 -0.923891 0.129056
16.3636 16.652 10.0377 0.268662 -0.932139 -0.242773
21.6921 22.2812 13.4305 -0.147979 -0.883819 0.443808
19.2701 11.656 12.849 -0.482855 -0.648289 -0.588704
23.2008 11.7226 6.76002 -0.217876 0.746698 0.628468
16.9763 14.6742 12.7442 0.575732 0.728953 -0.370351
15.0093 11.613 12.005 0.464546 -0.619786 0.632505
11.5763 17.334 13.5939 -0.507978 0.407376 0.758949
12.3343 22.6839 15.2772 0.0329949 0.291701 -0.95594
24.1872 11.6791 17.1678 -0.353333 -0.880694 -0.315489
17.7991 14.7322 18.0691 -0.676131 -0.643691 0.358481
16.5555 10.4339 10.3738 -0.0169062 0.88259 0.46984
13.0709 14.3335 18.2144 -0.172238 -0.557892 0.811844
13.556 16.1744 17.9677 0.0474009 -0.271595 -0.961244
16.8112 11.0532 5.80949 -0.369143 0.183336 0.91111
18.9712 12.0611 14.5571 0.209071 -0.975925 -0.0621283
13.6646 9.81586 9.86131 -0.215157 -0.349432 0.911924
20.9504 9.41639 8.51937 -0.45908 -0.863715 -0.207949
13.7855 11.0493 17.1417 -0.0584844 0.936994 -0.344416
14.3109 10.6163 5.50899 0.66062 0.0564629 -0.748594
21.3464 19.8503 16.5631 -0.34111 -0.600591 -0.723142
21.7538 17.1444 14.7959 -0.189122 -0.731678 -0.65489
18.6148 16.114 16.0133 0.666964 -0.715222 -0.208844
19.1097 22.6743 17.3879 -0.131152 -0.823945 0.551284
11.6976 22.1044 10.1456 0.18741 -0.374311 0.908168
11.7019 22.3479 11.7908 -0.103874 -0.683088 0.722912
11.713 11.4063 16.9413 0.162975 -0.919052 -0.358862
13.1961 19.8857 12.3989 -0.0406576 0.296284 -0.954234
15.9332 18.6222 10.0886 0.7494 -0.512858 -0.418779
12.8457 15.1441 6.73965 -0.154468 0.466252 0.871062
14.9472 17.4185 15.5558 -0.475083 0.856935 -0.199899
15.0772 11.6959 9.77956 0.932327 -0.137249 0.334559
17.5823 13.4744 10.7556 0.158626 0.799809 0.578916
18.3985 22.0074 7.58678 -0.920986 -0.267129 -0.283596
17.6609 21.421 11.8042 0.171243 -0.745154 0.644532
20.081 15.6105 10.8575 0.826287 -0.518876 -0.219128
20.2696 19.7632 14.0521 0.732621 0.246198 -0.634549
23.8465 9.06658 10.0133 -0.130536 -0.0434576 -0.990491
17.3008 10.2885 7.11452 0.623237 -0.572553 -0.53269
23.2274 10.1595 9.57604 0.299234 0.906322 0.298394
10.6669 21.7512 9.83569 0.222429 -0.510129 0.830839
19.3479 9.09236 15.1027 -0.246448 0.891798 -0.379421
12.7995 16.3883 14.846 -0.157881 -0.697941 -0.698536
21.9153 21.3613 15.0949 0.763249 0.4893 0.421944
18.998 13.5387 9.35274 -0.643611 -0.74061 -0.193034
19.9494 14.2156 7.29375 0.165562 0.486971 0.857583
22.9387 14.5123 16.0688 0.175157 0.924194 0.339389
14.2155 11.5663 7.64246 -0.826281 -0.493947 -0.270697
18.1398 16.8883 18.6617 -0.757515 -0.184651 -0.626159
19.6614 11.3439 17.6774 -0.410014 -0.670492 -0.618327
12.8657 19.0883 6.95609 0.683836 0.555142 -0.473483
11.1926 19.5976 18.1578 -0.0629454 -0.524652 -0.848987
13.5465 12.3183 11.0911 -0.159024 0.900036 -0.405766
16.7182 13.4817 9.96526 -0.298402 -0.950827 0.0829772
16.0466 18.4972 11.6783 -0.320142 0.405727 0.856093
21.1624 19.5687 9.51779 -0.096361 -0.935014 0.341267
19.2773 16.1508 7.24566 0.555234 0.735982 0.387357
21.2271 10.992 16.6003 0.116533 0.992134 0.0457211
24.285 21.3719 6.49657 -0.418659 -0.907507 -0.033992
23.8572 11.7758 16.032 0.193015 -0.707156 -0.680202
11.8567 11.3975 9.34717 -0.137928 0.951265 0.275809
22.7917 11.9483 15.6894 -0.213003 -0.911956 -0.350666
14.5786 21.2615 9.0258 0.800094 0.428797 -0.419503
14.823 19.7409 9.94931 0.783627 0.545266 -0.29768
21.6645 21.7472 12.4982 0.844825 -0.454089 0.282973
11.0734 17.972 15.3334 0.899733 0.253725 -0.355112
17.1696 17.9919 7.12229 0.0675721 0.874343 0.480582
15.9681 14.7343 11.2233 -0.618246 0.690815 0.374896
13.2518 20.0641 18.3635 0.111027 -0.398672 0.910348
12.36 16.8229 10.0882 -0.507065 0.363848 0.781345
11.5983 14.0717 13.8577 0.575894 -0.737092 -0.353612
22.6622 14.5195 10.5098 0.365717 0.925925 -0.0944116
21.8129 19.0954 15.2071 -0.122296 -0.771795 -0.624
22.8786 16.6595 10.8421 -0.938239 -0.0712037 -0.33858
20.5183 18.1535 17.7056 0.000191779 -0.579837 0.814732
20.1693 15.5139 17.9948 -0.998466 -0.0117515 0.0541119
23.9046 16.1348 17.4464 0.611611 -0.522348 0.594209
23.0629 17.633 11.5213 0.463104 -0.70705 0.53443
23.9042 12.3372 15.1801 0.132275 -0.830751 -0.5407
19.3313 22.5284 5.77429 0.564493 -0.794141 -0.225138
16.3008 11.1323 15.0773 -0.925994 0.365215 -0.0956671
19.3882 17.8921 7.4242 0.485294 0.861289 0.150571
23.3077 15.2501 13.8156 -0.827615 -0.352665 -0.43667
20.9989 16.8235 11.1236 -0.110108 0.853137 0.509936
19.5947 13.0938 10.3602 -0.482694 -0.559432 -0.673827
20.6611 12.5365 11.3222 -0.457651 -0.120827 -0.880884
21.0089 12.3665 18.403 -0.00749877 0.7421 0.670247
23.0851 11.7588 17.3645 -0.398541 -0.858801 -0.321911
23.7132 9.51402 15.9203 -0.348971 -0.854592 -0.384568
18.056 17.9527 8.81457 -0.2832 -0.958602 -0.029645
16.4136 18.7847 18.9865 0.131668 -0.358436 0.924222
21.7078 20.3906 13.8608 0.230569 0.320536 -0.918746
14.5484 12.7758 9.71404 0.997081 -0.0517392 -0.0561478
14.5811 22.2953 11.9735 0.408721 -0.343739 0.845453
19.7759 19.687 16.1598 0.0660193 -0.866788 0.494288
23.6627 14.7054 12.6528 0.553176 0.438491 -0.708323
10.8573 20.7502 13.7975 -0.100573 0.234883 -0.966807
13.5887 21.9442 7.73636 -0.499688 -0.479176 0.721597
10.8342 22.0178 11.363 -0.109914 -0.433537 0.894407
12.5658 13.5431 16.0807 0.730058 -0.670339 0.132894
13.5183 20.4629 8.36821 0.528499 0.455044 -0.716675
15.7192 22.2847 18.6226 -0.857794 0.512976 0.0323314
17.2186 16.7224 15.6755 0.472842 -0.70078 -0.53416
22.4376 18.7212 6.29488 -0.880833 -0.107422 -0.461079
22.7994 18.0391 16.5165 0.96229 0.120359 -0.243951
22.0676 9.90611 17.177 0.389264 0.525793 0.756317
21.6185 10.5377 5.50435 -0.638597 0.463673 0.614167
13.0521 10.9329 5.42965 0.682534 0.292418 -0.669805
20.3805 16.2269 18.83 -0.175966 0.726754 -0.663976
21.4083 18.2154 8.27623 0.992 -0.123014 0.0283524
11.6048 15.7564 10.9567 -0.575274 -0.0971897 0.812166
15.8742 20.0673 5.67517 -0.755194 0.61766 -0.219494
14.9064 22.452 13.6403 0.0175674 0.916038 -0.400706
22.362 18.4152 17.5654 0.913664 -0.297503 -0.276965
13.7452 17.5103 18.4227 -0.779977 -0.403746 0.478147
22.1453 13.5204 7.7987 0.473761 0.400797 0.784163
16.0172 22.3569 13.9677 -0.299969 -0.929581 0.214237
23.5464 15.3964 8.09982 -0.381035 0.110079 -0.917984
13.3487 17.8632 11.3839 0.208865 0.698258 0.684698
16.437 19.6431 6.93655 -0.532649 0.790533 0.302231
14.3629 22.2958 17.9257 -0.543445 0.609564 -0.577147
22.337 22.4396 17.0815 0.118075 0.636186 0.762448
11.4517 19.9351 16.5232 0.352975 -0.119374 0.927986
13.1298 14.5964 11.6564 -0.884048 0.332179 0.328811
15.1075 20.9923 12.8742 -0.335575 0.151943 -0.929679
12.6162 20.8953 6.15696 -0.183848 0.981629 0.051026
23.1732 14.6086 11.4787 -0.783648 -0.567703 0.252208
12.4131 18.019 10.3973 0.0608477 -0.068145 -0.995818
23.5988 22.575 16.8744 0.512358 0.62108 0.593085
12.428 13.6017 11.4082 -0.89408 0.0269523 -0.447096
15.6057 17.3504 16.7349 0.519347 -0.0432832 -0.853466
20.1755 14.1996 12.3254 -0.697467 -0.330276 -0.63597
20.6262 22.0785 7.32409 -0.519554 0.781858 0.344618
22.772 21.7395 6.20447 0.122198 -0.970401 0.2083
19.2146 15.5282 14.477 0.189314 0.889381 -0.416128
14.4214 16.393 7.48937 0.778211 -0.47783 -0.407512
14.4264 15.2743 11.2129 0.210342 -0.534295 -0.818709
17.0956 22.3905 18.989 -0.794884 0.504795 0.336662
16.794 22.0316 12.3214 0.131472 -0.948463 0.288327
12.3837 19.773 13.5696 -0.356452 -0.39889 -0.844884
16.3495 15.738 10.7638 -0.539916 0.789181 0.292719
19.4487 19.9071 6.39635 -0.79861 -0.139146 0.585543
11.8046 11.6253 15.8895 0.837458 -0.543575 0.0564805
18.6364 14.1565 11.0126 0.0738573 -0.927152 -0.367334
14.1582 20.2546 11.9003 0.00548115 -0.072359 -0.997364
13.4329 18.1318 9.84644 0.13875 0.981431 -0.132441
14.9074 11.3904 10.7365 -0.714979 0.65725 -0.238386
22.2267 22.0396 9.1521 -0.0302926 0.678643 0.733844
20.4874 14.1894 16.4724 -0.308941 -0.718583 -0.623052
19.2027 19.0375 9.9436 0.0455193 -0.825663 0.562324
17.9447 12.7623 16.1162 -0.92736 -0.372523 -0.0350728
23.8135 19.3874 7.38988 -0.560668 0.478293 -0.675934
11.6166 21.6263 17.7887 -0.454583 -0.720954 0.523049
17.4194 16.5867 7.92963 -0.0696101 0.997109 0.0304534
11.3646 14.4428 8.62491 -0.588303 0.473227 0.65571
11.2074 14.3474 15.0705 0.00678228 -0.912682 -0.408614
21.8687 20.6741 7.20017 -0.213556 0.28156 0.935477
23.4112 10.1619 18.3748 0.239305 0.635516 0.734066
20.6524 18.3518 7.30563 0.331253 0.916912 0.222586
12.8868 22.6908 13.3948 -0.564869 0.154409 -0.810605
23.9089 13.36 10.109 0.725062 0.671048 -0.154854
21.8228 16.3388 15.6749 0.568626 0.762617 0.308349
19.9905 19.3258 5.35895 0.895261 -0.160516 0.415623
10.7848 17.7985 11.6136 0.634623 0.146098 -0.758887
11.6646 16.0553 12.6391 0.552964 -0.424599 -0.716901
16.0481 16.0648 14.6318 0.730623 -0.663302 -0.161928
10.8783 21.8832 13.5366 -0.41917 0.314791 -0.851589
16.4323 21.3398 11.4078 0.46509 0.166302 -0.869503
18.2467 13.6198 12.4307 -0.394828 0.866843 -0.304458
20.7237 16.4054 7.00777 -0.322476 -0.756148 -0.569429
15.1913 14.2041 14.3172 0.675838 -0.107025 0.729238
16.8536 14.251 14.6601 -0.73232 0.634872 0.246262
15.7305 12.6657 13.2703 0.318411 0.661792 -0.678708
20.8956 19.681 6.59781 -0.8743 -0.0170854 0.485084
17.5185 20.0611 14.8943 0.499667 0.274318 -0.821634
18.8253 15.2936 10.2795 0.0489007 -0.991716 -0.11878
23.9906 15.3013 10.2984 0.249575 0.855656 0.453393
11.5799 16.2044 9.4581 -0.774801 0.241046 0.584449
18.3414 18.2127 12.1875 -0.172728 0.88091 -0.440639
12.677 11.8242 7.33435 0.201619 0.830198 0.519732
18.3033 22.5434 9.7452 0.569159 0.519633 -0.637213
21.2123 16.8825 13.4825 0.232765 0.885957 0.401125
16.3502 11.5596 9.31773 -0.249153 -0.957388 0.146048
18.9202 14.4683 7.97711 -0.387769 -0.92085 0.0408764
15.5668 20.25 10.6898 -0.717364 -0.519039 0.464744
11.476 19.9941 7.79821 -0.689035 0.114527 -0.715622
20.1789 10.2851 16.7561 0.173842 0.858169 0.483037
23.5236 9.41057 12.4427 0.92448 -0.221742 -0.310107
13.8639 12.0459 8.54449 -0.739977 -0.586174 -0.329899
11.0616 11.7827 11.6431 0.762095 -0.571038 -0.305168
24.0143 9.31549 14.8129 -0.170858 0.896312 0.409184
22.5452 20.5546 15.5221 0.138189 0.690591 0.709921
14.5732 19.1494 12.0436 -0.455754 0.359533 0.814263
17.8052 14.8029 10.3272 0.224923 -0.955708 -0.189823
19.3066 18.3789 11.5065 0.120542 -0.871256 0.475796
14.9498 10.7241 7.92291 -0.890343 -0.455169 0.0104845
19.3929 21.8917 10.4895 0.0195917 -0.760315 0.649259
14.9886 19.9405 15.7658 0.338262 -0.686145 -0.644037
23.9372 20.2576 12.405 -0.449761 -0.642671 0.620233
18.728 14.0799 18.0292 -0.839206 -0.529266 0.124945
21.5432 22.276 6.69197 -0.395839 0.864256 0.31044
11.4308 20.5263 8.91065 -0.559098 0.636846 -0.530882
17.8812 12.7416 5.41462 -0.741751 0.45029 -0.497036
19.2686 10.7887 11.3698 0.493816 0.561357 0.664096
13.9381 20.2042 14.6809 -0.112832 -0.254503 -0.960467
11.666 16.741 6.03728 -0.972833 -0.111757 -0.202747
17.0228 12.1024 17.0088 0.981205 -0.0608235 -0.183134
17.8836 9.82198 13.5035 -0.610804 -0.513595 0.60261
14.0604 11.2267 12.4976 -0.707206 0.653666 -0.269408
11.8621 13.7599 5.97756 0.380333 0.577102 -0.722703
21.8829 12.7625 16.0836 -0.490777 -0.789406 -0.368749
22.8115 9.41567 6.73713 0.475744 0.692642 -0.542139
22.0611 9.90033 9.72432 -0.584534 -0.669759 -0.457976
12.8199 20.7248 7.52273 0.616115 -0.290175 -0.732257
15.8047 22.3508 16.3723 -0.219854 -0.77845 0.587945
14.7839 17.7815 18.9825 0.580176 -0.0146085 -0.81436
12.4142 21.5173 15.4875 -0.569492 0.345804 -0.74572
20.5922 11.3488 11.4999 0.231062 0.444246 0.865596
14.0565 22.6993 8.3197 -0.19918 -0.682542 0.703182
13.0137 9.05887 9.03831 0.325868 0.624532 -0.709768
23.0386 21.7299 14.6308 0.0688067 0.996869 0.0389475
16.7987 16.188 16.5125 -0.864626 0.298755 0.403939
19.997 18.5697 14.6728 -0.261187 -0.718414 -0.644719
12.4191 15.7037 13.225 0.452942 -0.739887 -0.497404
16.6906 15.5607 15.5373 -0.437924 0.89867 0.0247952
22.4768 14.4669 14.3689 0.649995 0.242875 0.720082
20.2033 22.3508 14.3342 -0.92065 0.327436 -0.212577
21.544 22.7897 15.187 -0.992848 0.096755 -0.0699311
16.7342 9.54786 12.9685 0.16563 -0.930955 0.325407
14.4706 16.4023 9.89597 0.469228 -0.808077 0.356142
15.6141 20.917 6.59082 0.970171 0.0671061 -0.232949
21.2307 11.6429 9.10888 -0.392566 -0.892692 -0.221344
21.7982 13.8069 18.8347 -0.616006 -0.145871 -0.774118
17.9839 15.0428 8.70218 -0.241737 0.970092 -0.0220318
23.2842 11.0465 7.60801 0.449908 -0.480531 -0.752777
18.5362 16.3203 9.30317 0.146842 0.973157 -0.177211
24.0564 21.6465 16.002 -0.814037 -0.315033 -0.487953
20.1574 14.9826 14.4659 0.221487 0.594955 0.77264
21.5235 19.3249 13.0588 -0.387498 -0.132184 -0.912345
10.8707 10.0599 16.936 -0.151406 -0.876673 -0.456641
23.1863 9.83139 10.6005 -0.345691 -0.872101 -0.346319
16.1826 13.3621 8.14572 -0.796629 0.465623 -0.385458
22.9484 21.1594 7.30462 0.813687 -0.580237 -0.0352014
13.0608 17.3721 6.90506 -0.271103 -0.803677 0.529724
20.2127 10.261 17.9122 0.259141 0.906422 0.333535
14.0502 12.5323 12.2295 -0.830417 0.262041 -0.491673
22.3172 14.3129 17.9495 0.177834 -0.949016 -0.260277
19.3648 16.3713 6.20902 -0.432437 0.849403 0.302511
11.3308 16.9332 18.7819 -0.95739 0.275325 0.0871836
22.8896 12.8832 5.93917 0.480852 0.122743 -0.868168
15.1946 17.8106 11.5402 0.750455 -0.441908 -0.491462
14.6777 10.611 14.3891 0.253361 0.25834 0.932238
19.7939 12.044 7.63382 0.771154 -0.636114 0.0261029
20.5255 21.3756 11.7523 -0.969821 0.243612 -0.0100296
11.9452 20.7124 15.977 0.424279 -0.199788 0.883217
21.0508 13.2315 15.4986 0.546207 0.758987 0.354398
20.3641 11.8444 5.37375 0.869473 -0.415299 -0.267476
22.3909 21.6873 11.6343 -0.937731 0.263547 -0.226283
15.1545 14.7926 15.6808 -0.987214 0.106294 -0.118786
17.8572 10.5195 10.3076 0.485095 0.84519 0.224359
16.0417 16.4882 19.1077 -0.570272 -0.351247 0.742573
13.4973 19.1808 17.3958 -0.773764 0.617529 -0.141231
20.645 12.388 17.2537 -0.692003 -0.596279 -0.40692
22.2071 10.89 16.267 -0.174393 -0.937272 -0.301842
11.3739 21.0308 6.1598 -0.229784 -0.929183 0.289513
23.7702 20.549 8.24133 -0.707824 0.705835 -0.0279511
18.985 14.0075 13.2975 0.497195 0.644678 -0.580678
14.2437 17.9458 14.5228 0.436678 -0.862721 -0.254998
22.5107 9.84338 7.66298 -0.977215 -0.206974 0.0470296
14.0841 11.4826 14.9321 0.671356 0.41651 0.613026
11.4676 10.9051 12.3922 0.699427 0.628136 0.34095
15.2846 20.0573 12.3882 0.402938 0.460512 -0.790929
11.378 10.4585 11.0358 -0.858503 0.352242 0.372691
17.2478 19.7552 12.5312 0.459465 0.24022 -0.855094
16.8519 15.502 11.7583 -0.288714 0.749244 0.596052
11.1007 9.1603 15.7059 0.711268 0.619793 0.331595
12.6949 18.0903 18.2592 0.925751 0.361517 -0.110863
21.2442 21.3946 9.74944 -0.131502 -0.805435 0.577912
11.0195 22.0825 8.2295 0.289048 -0.432527 0.854032
11.5651 12.8283 11.7689 0.915733 -0.340362 -0.21351
21.2101 19.792 17.8255 -0.591952 -0.387047 -0.706956
13.2312 18.1204 8.77364 0.175965 0.984393 0.00258254
21.2981 17.847 10.6174 -0.647604 -0.630553 -0.4278
15.3381 10.3198 6.10756 0.33111 -0.918863 0.214609
20.0927 15.5711 7.44957 0.307762 0.631694 0.711509
24.0183 15.3422 15.3704 -0.14834 0.741271 0.654609
18.912 10.2274 17.8609 -0.608815 -0.583816 -0.537125
14.8793 19.0686 14.1907 -0.472551 0.374247 0.797894
15.5338 12.0945 5.5665 -0.249799 0.747151 -0.615927
21.3996 13.2966 11.0316 -0.779328 0.148695 -0.608719
17.9967 22.3061 15.9252 -0.418717 -0.776243 0.4713
19.695 15.6904 9.78935 0.289599 -0.873568 0.391167
10.6804 18.6699 10.7021 -0.90442 0.0233537 0.426003
16.4701 15.4062 7.21898 -0.594092 0.791044 0.145961
19.4664 18.1146 5.80083 0.24407 -0.549053 0.799356
19.2528 9.68163 13.5357 -0.489964 0.7053 0.512335
19.5228 13.8802 15.4087 0.39974 0.910754 0.103606
20.3096 12.4967 12.6899 0.641699 0.42075 0.641242
16.8564 11.8562 12.3993 -0.453561 0.852421 -0.260118
13.0891 18.9139 16.0322 0.533318 -0.683093 -0.498956
22.8644 9.07491 8.30695 0.484122 0.819164 0.307566
17.4098 21.4647 17.4211 -0.82207 0.0575529 -0.566471
15.0255 18.3401 8.3318 0.159708 -0.970152 0.182481
20.0301 17.8319 15.3789 -0.302432 -0.744404 -0.595313
15.8553 15.5354 16.5443 -0.662467 0.74846 -0.0307489
21.2452 21.8335 8.29494 0.367449 0.712359 -0.597935
16.9883 11.875 14.1933 0.403251 0.915088 -0.00185298
23.2022 13.4082 11.0553 0.572289 0.771529 -0.2779
12.6477 11.5662 11.1164 0.0401447 -0.212972 -0.976233
16.8897 11.4543 15.9921 -0.998429 -0.00454595 -0.0558448
14.8025 9.58134 11.3974 -0.720418 0.452753 -0.525369
18.7742 20.3683 14.9858 0.249253 -0.652888 0.71527
20.0683 14.3667 5.89525 0.856702 0.15816 0.490965
18.1092 19.2844 7.98906 -0.199398 -0.979457 -0.0300851
13.4992 21.8234 18.2504 0.681375 -0.455419 0.572994
18.144 17.595 6.07193 -0.447118 -0.89055 0.0837058
15.5224 16.8491 6.6285 0.968641 -0.237368 -0.0734203
18.8151 20.2985 16.4806 0.0337323 -0.734489 0.677782
12.3068 18.925 14.1649 0.763511 -0.0316592 -0.645018
19.8367 15.133 16.5683 -0.460338 -0.720926 0.51803
12.3378 19.2532 10.4405 0.782538 -0.569787 0.250954
23.6616 16.729 18.2846 0.486912 -0.563472 0.667395
19.4784 12.4661 17.6136 -0.747647 -0.552373 -0.368658
19.1241 16.5716 11.8782 0.835408 -0.547643 -0.0467045
19.9176 13.5397 18.6891 0.846829 0.351622 0.399053
12.9273 13.7406 17.3624 0.538747 0.369212 -0.757254
15.6284 9.74374 10.7519 -0.786876 0.0620307 -0.613986
15.0684 14.4027 8.31335 0.0313309 -0.67773 0.734643
17.1495 10.93 8.57104 0.967028 0.238086 0.0903972
14.7252 19.0751 16.5825 -0.227297 -0.0782579 -0.970676
13.5292 22.5965 12.2783 -0.116995 -0.697963 0.706512
24.1395 19.1928 11.8931 -0.500099 -0.823485 0.267906
19.465 12.6808 11.3772 0.615419 0.518415 0.593722
15.8514 15.0246 9.9775 -0.159266 0.971723 -0.174322
11.3919 19.0285 7.0837 0.221338 0.0205058 0.974982
21.9571 17.4021 11.9209 -0.0508638 0.0069842 0.998681
21.5905 10.9669 8.17864 -0.533434 -0.656487 -0.53336
17.9683 14.5755 7.37363 0.163516 0.986413 0.0158861
22.229 10.5818 10.9973 0.417988 0.893968 0.161576
16.3533 9.9174 6.71896 -0.363397 0.833242 0.416713
19.5661 16.8984 10.7418 -0.737863 0.489722 0.464468
22.9784 16.1326 15.699 -0.347704 -0.896282 -0.275284
21.5194 17.0051 8.59975 0.933032 -0.042954 0.357219
16.8705 12.2395 6.47138 -0.99161 0.129075 0.0070211
15.9994 15.4234 12.5505 0.106503 -0.88675 -0.449812
12.9638 17.952 7.74961 0.571887 0.762464 -0.302645
17.8183 19.8014 6.12346 0.912476 -0.342251 -0.22417
11.5627 15.2503 17.4957 0.97356 0.11271 0.198687
14.5382 13.8102 10.3079 0.891 -0.311189 -0.330577
24.2279 17.4205 10.6669 0.769527 -0.638446 0.0146797
21.3854 13.7408 16.9131 -0.200122 -0.925862 -0.320517
16.8922 13.2972 11.5661 -0.0794145 0.957312 0.277933
14.8066 11.0082 6.92128 -0.854076 -0.514027 0.0795571
17.1474 11.3411 9.92818 0.183669 -0.795764 -0.577083
22.2608 16.2354 9.58999 -0.890785 -0.058414 -0.450655
11.9498 14.387 16.8895 0.950289 0.30371 -0.0686378
11.0477 17.9395 6.99089 -0.209004 -0.393103 -0.895426
21.3052 10.7261 13.9875 0.751811 0.304046 0.585095
18.4051 22.585 14.6767 -0.123357 0.958847 -0.255724
19.0913 10.3017 6.36744 -0.829631 0.355646 0.430381
20.271 14.0101 17.693 0.80202 0.565103 0.193451
16.1284 21.2273 17.8768 -0.706596 0.687037 -0.169418
16.0852 20.1029 15.4209 0.368661 -0.348101 -0.861925
13.6609 10.0559 18.4164 0.952177 -0.305409 -0.00915101
12.9236 15.1634 8.72886 -0.219354 0.308451 0.925604
13.4768 19.6619 10.7102 -0.0334898 -0.463853 0.885279
11.709 14.6777 11.2281 0.50792 -0.0879659 -0.856901
17.1369 18.4874 17.7498 0.115119 0.423445 0.898578
19.3943 10.1971 12.6743 -0.047337 0.701843 0.710757
15.1493 17.4439 10.2701 0.308493 -0.950375 0.04024
21.6811 14.4536 8.72666 -0.0426676 0.0810886 0.995793
11.2548 12.4863 14.9326 0.395212 -0.715066 -0.576618
17.5782 9.99428 8.27666 0.960444 0.0345428 0.276323
17.846 14.0746 13.2742 0.295314 0.926084 -0.234857
24.1209 19.1293 18.5774 0.47196 0.324243 0.81983
14.6781 15.4552 16.5857 0.510692 -0.857863 0.0571301
18.5089 11.8792 7.99772 -0.547518 0.812274 -0.201087
14.3866 13.7953 7.11042 0.167701 -0.211352 -0.962916
13.8975 9.67753 13.8682 -0.116609 0.593612 0.796258
19.4153 22.2669 16.4074 -0.696577 -0.509534 -0.505128
18.0492 16.207 11.1533 -0.20249 -0.934464 0.292875
22.3592 16.7427 6.04039 -0.751223 0.322397 0.575955
10.7519 19.4175 14.641 0.323399 -0.167039 -0.931403
17.8445 12.2636 12.3499 0.224832 -0.926124 0.302895
14.9342 20.4604 14.5433 -0.305854 -0.290664 -0.906624
18.3188 11.2128 5.74585 0.745737 0.160466 -0.646627
12.9671 10.5181 9.19676 -0.257518 -0.0344861 0.965658
16.2226 17.6361 18.1813 -0.26646 0.138296 0.953873
19.0297 21.6177 9.28213 0.444036 0.0655255 -0.89361
11.0664 10.4024 6.35128 0.586439 -0.697623 -0.411596
13.1248 20.9473 18.905 -0.5151 0.381448 -0.767574
13.94 15.4577 18.7332 0.896281 0.43699 -0.0756343
14.6446 20.2989 8.53352 -0.536449 -0.414714 0.735007
14.8101 15.3442 14.7196 0.599795 0.428347 0.675844
19.7089 12.4187 6.49452 0.551177 -0.818861 0.160223
14.8277 21.2888 17.5303 0.266879 -0.615283 0.741757
13.0265 13.26 14.055 0.43902 -0.886009 0.149161
12.5419 21.6318 12.5923 0.144925 0.737543 -0.659566
21.1799 9.78196 14.4983 0.774959 0.318662 0.545796
11.6538 15.5759 14.5052 -0.481199 0.495175 0.723359
21.6212 16.0345 7.36799 0.445064 -0.116772 -0.887853
15.6367 13.6287 11.0142 -0.742402 0.632076 0.222077
23.1928 14.4737 7.63548 0.538521 -0.234787 -0.809241
23.236 10.462 14.5602 0.116065 0.868152 0.482537
20.4633 22.6591 11.4056 0.935318 0.352738 0.0275146
10.631 13.9124 17.7895 0.400167 0.815154 0.418797
24.2922 19.219 9.04191 0.963512 0.126503 -0.235884
11.7164 18.3887 13.3571 -0.47105 0.122026 0.873626
17.0568 15.7391 5.66165 0.799286 -0.237339 -0.552097
22.3457 20.4206 8.4799 0.390304 -0.152709 -0.907933
17.1969 22.3133 9.40299 -0.609924 -0.555576 0.565092
22.6627 21.778 13.5716 -0.11116 -0.968864 0.221237
15.4478 16.6326 18.022 -0.907422 0.134246 0.398199
11.5666 11.4706 10.4335 0.428877 -0.842226 -0.326679
17.8652 20.719 7.14264 -0.955826 0.281638 -0.0841225
16.6672 20.2675 16.6911 -0.144897 -0.866722 0.477282
12.2084 20.2881 18.3384 0.157099 -0.532911 0.83146
21.6407 19.6791 11.4867 0.198724 -0.9498 0.241638
10.7756 13.7479 7.61036 -0.911854 0.015653 0.410216
23.6443 22.6925 7.61965 0.0755499 0.757634 -0.648292
20.9447 22.5093 16.6026 -0.483773 -0.0333284 -0.874559
20.971 10.0636 11.2286 0.151825 0.561267 0.81359
17.0588 13.852 16.0758 -0.994557 0.0856892 -0.0592718
18.1622 17.737 17.8726 0.426197 0.129285 0.895344
16.5252 16.8517 13.6616 -0.960855 -0.153056 0.230938
12.2781 21.6382 9.08113 0.0518649 0.331818 -0.941917
15.8367 22.2762 12.926 0.310287 -0.934643 0.17368
22.5401 18.0342 9.45965 0.598262 -0.460428 -0.655811
19.3245 18.6992 12.6254 0.0822667 -0.824283 0.560169
18.232 19.0313 16.7098 -0.272424 -0.214209 0.93803
22.6849 13.8301 6.93929 0.661207 -0.735938 0.145604
10.9485 10.6424 14.5268 -0.58655 -0.684651 -0.43268
18.5281 22.6095 13.3 0.0672404 0.731731 -0.678269
17.9362 21.6194 12.9557 -0.901744 -0.164389 0.399793
20.0946 22.5755 9.1966 -0.85203 0.0232815 -0.522976
20.0645 22.0676 18.1806 -0.575299 -0.689862 0.439457
23.2524 20.0607 17.4452 -0.0318607 -0.938305 -0.344337
10.7069 14.6056 16.2373 -0.486074 0.817864 0.307946
14.9572 15.2746 5.66314 -0.931374 -0.252323 0.26244
16.9617 11.397 17.7967 0.958177 0.231393 -0.168386
21.5807 12.4242 10.3462 -0.887973 0.299751 -0.348787
11.7797 18.7402 19.0053 0.216855 0.0876095 0.972265
15.1283 9.77491 7.13752 -0.628524 -0.423866 -0.652147
21.6137 11.6989 11.2643 -0.217044 -0.75524 -0.618469
22.2212 19.348 9.60595 0.0598074 0.234132 -0.970363
16.6403 12.5332 5.4684 -0.633111 0.772998 -0.0405601
22.7162 20.105 13.2693 -0.129444 -0.575124 0.80776
24.3001 14.0704 11.4827 -0.494023 -0.214229 0.842643
12.5552 21.0854 11.4357 -0.0971164 -0.602523 0.792171
14.1132 9.95137 12.2076 -0.587124 0.725193 -0.359695
20.6357 22.148 10.5373 -0.648838 0.720182 -0.245654
23.6046 18.1499 13.279 0.451828 0.782701 -0.428054
17.7705 9.81556 12.3507 -0.180246 -0.95643 0.22968
20.2989 20.4174 14.9042 -0.789736 0.200596 -0.579723
23.174 13.3159 8.92675 0.109137 -0.396412 -0.911563
21.5083 9.09667 5.72751 0.516932 -0.820222 -0.244983
10.8278 14.22 12.9088 -0.398745 0.350171 0.847574
24.2389 20.4886 9.37237 0.482388 -0.769459 0.418611
14.2694 20.2626 19.012 -0.0586325 0.580764 -0.811958
18.5113 11.0824 15.3447 0.247004 0.948007 0.20068
23.4482 21.8622 10.1395 -0.30773 0.137381 -0.941503
21.0602 19.0628 10.8262 -0.415551 -0.73257 0.539127
20.2002 18.0944 10.5796 -0.0992004 -0.682437 0.724182
18.4354 18.1217 13.2941 -0.370099 0.88587 -0.279753
23.8296 16.3334 14.8437 0.723794 0.674496 0.145527
19.7846 20.9218 6.83216 -0.932486 0.351104 0.084831
11.7224 11.9068 5.574 0.417958 -0.813541 -0.404304
12.5837 20.4778 9.98757 0.01668 0.256969 -0.966276
15.4794 11.9215 8.78199 -0.00871955 -0.99434 0.105889
12.4844 9.15029 10.3077 0.0654468 -0.626937 0.776316
16.9088 16.6709 14.6295 -0.794458 0.471044 0.383347
19.6152 13.2481 14.4493 -0.279211 0.947863 -0.153611
17.3029 18.2795 11.4978 0.165791 -0.976948 0.134487
19.1257 16.802 18.0141 -0.258212 0.547834 -0.795742
20.2059 20.3437 16.8966 -0.526491 -0.312382 0.790712
10.9913 16.9352 16.0231 0.864233 -0.29788 -0.405424
12.5034 18.8065 8.26328 -0.613107 -0.715648 0.334586
11.3863 18.7462 12.0827 0.426599 -0.0539006 -0.902834
22.378 10.2319 8.79384 0.35401 0.911287 0.210318
17.746 21.4576 9.41852 0.590984 0.46294 -0.660625
15.7689 15.3949 8.17506 0.564099 -0.825526 -0.0172786
14.7988 21.8746 15.8761 0.456241 -0.734536 0.502295
14.1093 10.5435 15.662 0.296419 -0.86699 -0.40058
22.9036 13.0506 13.5842 -0.501713 0.466182 0.728669
15.5493 13.8523 18.5532 -0.895063 -0.253192 0.367092
18.1862 12.3347 13.5417 0.861853 0.461367 0.210596
24.2129 12.7656 8.13057 0.311101 0.034498 -0.949751
20.1893 12.3801 8.98256 -0.291876 0.811155 0.50679
23.0672 12.1405 12.004 -0.671729 0.58257 0.457594
21.7766 15.9858 17.393 -0.759927 -0.390761 -0.519439
21.6428 16.8332 16.7198 0.911448 0.323948 0.253615
13.7073 17.1577 13.3869 -0.186889 0.825823 0.532061
14.1314 21.3164 13.0891 -0.13873 0.277329 -0.950707
12.691 17.0477 13.965 -0.551206 0.766325 0.330028
22.2734 9.82162 11.9435 -0.871119 0.224626 0.436686
19.1104 18.8888 8.10725 0.0898183 0.852292 -0.515297
13.8399 15.4176 9.23526 0.269356 -0.916348 -0.296233
11.2477 18.9204 15.8695 0.95372 0.0688701 -0.292703
23.8926 17.8907 9.62217 -0.681173 0.671243 0.292296
13.1762 12.7365 8.9117 -0.397036 -0.85886 0.323608
18.1178 11.1558 13.5427 0.826155 0.542459 0.152338
17.0851 13.341 6.25769 -0.313632 0.469265 -0.825485
10.7085 21.4906 15.0177 -0.682904 -0.433265 -0.588152
13.2714 10.1145 12.9444 -0.418589 -0.558392 -0.716227
15.7804 20.1438 17.5362 0.21816 0.788522 -0.575012
23.6318 20.9844 13.1632 -0.200598 -0.630384 0.749918
17.6289 11.5565 7.18466 -0.959968 0.147527 0.238111
12.4965 17.8453 5.57472 -0.969279 -0.240775 0.0502609
10.7492 11.0002 13.5552 -0.057053 -0.831326 -0.552849
23.7927 14.6847 5.56759 -0.523905 -0.688526 0.501453
23.4929 19.3429 10.3394 0.855441 -0.275432 -0.438585
17.2552 10.6907 11.3983 -0.0818484 -0.968294 -0.236026
11.5486 17.5925 12.2544 -0.60296 0.170654 0.779305
22.1888 10.481 13.1628 -0.870062 0.392827 -0.297789
13.1177 16.0209 12.1672 -0.381594 0.593265 0.708818
21.3004 10.5914 15.5528 0.496927 0.840444 -0.216143
22.7167 18.9503 13.2591 0.388859 -0.483279 0.784366
20.4277 21.9002 13.0201 0.465145 0.749851 0.470493
15.1825 22.0223 14.797 -0.568776 0.785838 -0.242803
20.739 21.1311 13.5622 -0.546423 0.199828 0.813321
19.1989 18.7993 13.8716 0.879302 0.28416 -0.382206
12.1064 20.9682 14.255 0.42451 -0.287215 0.858661
23.2366 16.3437 8.79381 -0.63783 -0.767741 0.061202
10.587 20.7049 5.48122 0.500371 0.798876 -0.333805
10.7103 11.1524 9.87972 -0.178576 0.297793 0.937779
18.302 19.3658 14.5707 -0.789724 -0.470635 0.393496
12.5873 12.502 16.7119 -0.427897 0.79808 0.424232
11.9082 10.1032 14.764 0.103802 0.425601 0.898938
11.9924 13.53 12.598 0.822169 0.539617 -0.181251
12.08 19.7648 6.75326 -0.396967 -0.133533 -0.908067
16.7717 17.1686 5.83311 0.578301 -0.623931 -0.525622
14.2849 18.7821 19.1026 -0.432304 0.0943216 0.896781
21.6212 15.8498 5.65058 0.554539 0.422204 -0.717099
11.2122 12.6386 13.6885 -0.332547 0.894606 0.298485
17.4222 12.5551 17.9856 0.955326 0.225311 -0.191276
16.8478 15.0238 8.97777 -0.066888 0.99385 -0.0882546
15.7494 19.1219 7.62464 -0.579446 0.776953 -0.246142
19.6899 10.7497 9.31329 -0.858968 -0.067769 -0.507525
20.2038 11.7078 9.85837 -0.950122 0.0721103 -0.303427
22.5657 17.4094 18.3559 -0.534023 0.0941113 -0.840215
12.5387 14.2464 7.02063 -0.201206 0.530514 0.82345
20.7755 14.7891 9.76288 0.177662 0.979405 0.0959258
12.6704 10.0717 7.58025 -0.276855 -0.234936 0.931749
11.7486 9.98283 18.7165 0.111477 -0.706753 -0.698622
11.4143 12.627 18.4009 0.930952 -0.337592 0.139139
17.8587 19.6452 17.8707 -0.997668 -0.0203199 -0.0651609
21.2867 18.4826 16.1742 0.105837 0.463438 0.879786
19.6507 11.1549 6.0624 -0.774293 0.544919 0.321766
12.6745 19.0667 18.6606 0.356283 -0.160979 0.920406
21.5081 21.0255 18.4675 -0.484266 -0.240451 -0.841231
17.9283 17.2829 14.3095 0.486528 -0.767795 -0.416871
16.2747 22.4646 11.2311 0.537871 0.359729 -0.762423
22.9182 15.2613 18.7708 0.00442625 0.976825 -0.213996
11.5908 10.2278 7.8363 0.287527 0.00512196 -0.957759
12.1607 12.7887 14.2758 0.213696 -0.548955 -0.808073
