14.5099 22.0697 6.50982 0.922012 -0.0466893 0.384335
22.4941 19.9071 8.20115 0.436015 -0.679456 0.59011
16.7868 15.0088 6.21869 -0.238385 0.799488 0.551354
15.2736 12.7332 19.2046 -0.218103 0.895246 0.388543
15.9596 11.4006 17.804 0.0533657 -0.812532 -0.580469
14.2719 11.9943 12.1957 0.301424 0.825683 -0.476856
21.0688 15.8859 8.25061 0.688857 0.603031 0.40228
15.3588 12.646 10.6178 -0.788942 -0.372933 0.488356
16.2309 17.0254 7.93358 0.511558 -0.0324021 0.858638
19.2541 20.5642 17.8468 0.97006 -0.147512 -0.192935
21.8088 12.6802 10.8495 0.31708 -0.817013 -0.481612
22.4153 11.5183 7.78123 -0.974645 0.182978 -0.128786
18.5362 10.9484 17.6934 0.896222 -0.397105 -0.197722
17.0593 21.8181 8.61343 0.25341 -0.91015 -0.327736
12.8065 11.5499 11.9371 -0.495886 0.420521 -0.759776
19.434 19.2467 6.0337 0.256295 0.640746 0.723711
14.0163 12.4388 9.32363 0.440961 -0.849214 0.290496
13.384 13.4784 10.3948 -0.557386 -0.126645 0.820538
13.5483 18.2374 9.89418 -0.478598 0.824806 0.301063
11.5387 21.1696 7.91283 0.520049 -0.211482 0.827541
12.2123 14.4542 17.7811 -0.692823 0.317732 0.647335
13.1766 13.6267 8.03632 0.299505 -0.687908 -0.661119
18.6549 21.409 16.27 -0.579914 -0.118981 0.805943
15.1758 10.0931 6.6569 0.722657 0.468518 0.50819
19.5573 15.4954 14.7153 0.336164 -0.362972 0.869049
14.4652 10.5301 15.3996 -0.516979 0.522688 -0.677886
18.4145 16.685 7.95784 0.406495 0.304287 -0.861493
21.6759 17.1644 10.2167 -0.9371 -0.293633 -0.18874
20.4721 16.4587 18.489 0.460896 0.133053 0.877423
14.9281 12.1773 14.7903 0.303064 -0.87242 0.383451
21.0875 22.523 14.9453 0.433471 0.157226 0.887346
19.9287 18.3671 16.2986 0.387104 -0.340411 0.856896
11.8728 17.9843 16.4338 0.835195 -0.25402 0.487773
15.1998 10.3995 13.6739 0.0682395 -0.940029 0.334199
12.6852 11.06 18.7923 -0.248113 -0.765962 -0.593079
21.6956 12.9054 7.77253 -0.488285 0.671898 -0.556893
13.7181 18.0604 8.72643 -0.487172 0.732634 0.4753
22.683 12.0713 11.3072 -0.704102 0.514826 0.489075
19.9871 10.6112 18.5905 0.366601 -0.0584445 -0.928541
15.9474 23.0981 18.1365 -0.217001 0.947445 0.235072
22.4175 23.046 10.4289 0.813621 -0.207318 0.543175
20.7154 22.9485 18.8421 -0.714205 0.11454 0.690501
18.8983 13.4963 16.9214 0.266102 -0.945184 -0.189253
12.5195 21.9368 11.1832 -0.325094 -0.139602 0.935321
17.403 10.5056 10.5103 0.832325 -0.494222 0.250958
11.0046 19.8056 12.8922 -0.269313 -0.268659 0.924821
10.9121 16.2633 18.7302 0.0781006 -0.925156 -0.371466
11.9094 14.256 8.094 -0.583515 0.607656 0.538761
11.7503 15.2956 15.02 0.824275 -0.23193 -0.516507
22.1794 11.9908 6.49986 -0.119991 0.895229 0.429147
18.5977 14.0314 7.73601 -0.0344881 -0.199641 0.979262
18.4154 12.7263 10.5457 0.637136 0.29744 0.711046
18.7682 17.8035 6.04395 0.200399 -0.0780374 0.976601
16.1366 22.0527 7.92696 -0.0147951 0.689304 0.724321
16.5215 12.8778 17.9866 -0.0685179 -0.851419 -0.519991
10.7677 12.6545 18.6142 -0.159484 0.389946 0.906922
11.7975 17.5483 7.4401 -0.486424 0.286664 -0.825358
18.4703 17.5136 9.37925 -0.12313 -0.992303 -0.0131671
13.3101 12.3327 18.9098 -0.0741687 -0.679724 -0.729709
16.6398 9.98557 16.3182 0.892785 0.449936 0.0222035
20.2222 21.1435 7.5633 -0.228116 -0.587145 -0.776675
15.649 12.9319 14.3289 0.250698 -0.548951 0.797373
16.4355 16.2434 19.1929 -0.881792 -0.183993 -0.434269
18.7888 20.1902 13.6641 -0.785106 0.60604 0.127763
22.7578 14.3231 8.23731 0.366444 0.2286 -0.90192
19.1509 18.9197 7.009 -0.34884 0.65152 0.673671
15.0317 14.1896 18.9063 -0.00860004 0.774661 0.632318
18.2786 12.5984 15.0756 -0.370564 0.916214 -0.152427
12.8292 12.6131 10.4478 0.943116 -0.198826 -0.266459
16.859 18.5883 12.2395 0.40026 -0.621181 -0.67374
19.736 15.452 10.2799 -0.17673 -0.97391 -0.142357
11.0796 18.1025 17.5194 -0.837487 -0.278982 -0.469878
15.5217 20.8025 17.3713 0.278273 0.960278 0.0207517
10.9912 19.4021 7.24602 0.708111 -0.29157 -0.64309
19.9935 13.772 14.883 0.208793 -0.867365 0.451756
19.8298 16.0183 16.3746 0.668254 0.520494 0.531528
12.1344 18.3669 15.4646 0.919294 0.119411 0.375019
10.8804 17.1263 17.9623 -0.00428318 0.753397 0.657552
13.2767 20.867 18.7736 -0.618535 -0.332783 -0.711807
10.2087 16.6692 7.57543 -0.859763 -0.386999 -0.333226
20.8406 12.9663 8.21935 -0.526596 0.444862 -0.724427
17.6357 15.2369 17.039 0.713832 0.342976 0.610582
13.112 15.1692 8.30328 -0.556455 -0.503157 -0.661204
12.8296 18.7791 19.2543 -0.204148 -0.521506 -0.828465
11.556 13.9578 13.8005 -0.303572 -0.0905251 0.948498
11.8888 14.6991 9.79341 0.313015 -0.460599 -0.830584
19.3243 20.9561 10.6665 -0.403847 -0.306554 -0.861935
16.0116 17.4286 15.8243 -0.3541 -0.451072 -0.819236
20.6392 15.7206 15.9692 0.315536 -0.180237 0.931639
10.6378 16.1686 11.6014 0.170392 0.173705 -0.969945
13.3931 20.1239 15.753 0.00245019 0.976994 -0.213251
12.838 15.1999 16.3947 -0.753095 -0.26406 -0.602594
18.5609 20.4166 15.8154 0.705261 -0.187253 -0.683771
10.579 15.1421 7.00762 -0.652293 0.541482 0.530389
21.939 15.707 7.6088 0.423494 0.488809 0.762705
20.3 17.5778 14.4483 0.737455 0.198022 -0.645714
11.0229 18.6732 7.94949 -0.935768 0.197186 0.292327
14.7319 14.8387 16.9764 0.860355 0.0370343 0.508348
22.2433 20.3104 16.7371 0.971081 -0.0664752 0.229311
10.5972 19.3418 11.8357 -0.599997 -0.356152 0.716351
15.182 11.9586 9.23611 0.276649 -0.822325 0.497239
10.4248 22.1434 13.4979 0.582013 -0.802679 -0.130257
20.7874 13.2882 18.4316 -0.123194 0.729424 0.672877
11.3197 19.0985 9.35101 0.349156 0.711745 0.609515
22.8729 15.1317 13.4925 -0.477741 0.105915 -0.872093
12.7072 19.1581 14.7027 -0.620464 -0.76 -0.193453
18.3317 21.9973 6.09614 0.895951 -0.415651 -0.156543
14.4959 22.7177 7.33437 -0.89295 -0.168983 -0.417234
22.9489 22.0053 18.0544 -0.786801 -0.0603745 -0.614247
17.6749 13.4384 9.0802 -0.121874 -0.228683 0.965842
16.2718 10.4934 10.9915 -0.731294 -0.399535 -0.552794
17.2841 14.7656 10.3632 0.232096 0.93748 0.259351
9.73873 16.0862 11.2636 -0.337558 0.669995 0.661181
19.304 10.0921 11.9033 -0.23887 0.509414 0.826704
13.7617 18.438 13.5993 0.651867 0.186311 -0.73509
13.6104 21.0474 8.04799 0.294319 -0.628593 -0.719894
16.9766 13.4579 7.52992 0.152036 0.692144 0.705565
20.6621 20.7361 13.7074 0.777021 -0.552926 0.30085
17.4334 23.1233 9.33823 0.686025 -0.0955806 -0.721273
21.5354 20.94 6.05062 0.764984 0.587353 0.264228
15.9162 18.3806 8.96017 -0.507664 0.192231 -0.839836
21.0528 22.1176 16.4253 0.421198 -0.836726 0.349973
20.7534 19.4083 7.05813 0.150068 -0.848144 0.508067
20.1064 21.798 9.34986 0.513302 0.855272 -0.0709276
13.6153 17.2303 11.9528 -0.761007 0.305649 0.57223
16.4657 22.1305 16.1513 -0.740146 -0.568936 0.358464
12.5228 16.2609 19.0191 0.66588 0.688235 0.287987
16.0756 20.5206 12.6363 0.397854 -0.186579 0.898277
10.966 22.5758 17.986 0.329518 -0.871569 0.363023
12.3836 10.693 12.4714 -0.0236397 -0.0137275 0.999626
14.3931 11.3765 11.4601 0.925017 0.344066 -0.161125
20.5701 11.0191 9.35248 0.861408 -0.377061 0.340296
14.3478 20.0202 17.6563 0.352164 -0.918337 0.180658
11.7265 13.4533 8.52801 0.952299 -0.210571 0.220875
16.1353 17.5621 18.8881 0.752755 -0.653387 -0.0802818
12.329 15.9676 15.4784 -0.560986 0.191003 0.805489
14.0292 22.9067 8.14866 -0.741673 -0.668366 0.0566317
17.6478 19.2859 9.64205 0.509717 0.848536 -0.142038
11.7005 22.1733 15.6752 -0.0423349 0.432392 -0.900691
18.7149 14.6876 8.85297 0.240244 -0.385357 0.890945
19.5718 11.4521 14.615 -0.732517 0.64877 -0.206196
20.0963 11.9731 9.73501 -0.705482 -0.660028 0.258182
22.1903 19.147 12.9673 -0.524869 -0.244193 0.815403
20.081 21.2271 17.0699 -0.909735 0.413709 -0.0350239
18.8172 17.3887 10.4886 0.438007 -0.854032 0.280677
17.489 21.2486 15.9359 -0.836306 0.0524702 0.545746
17.8805 10.3592 14.9 0.716257 -0.267729 0.644435
11.3656 11.191 12.0888 -0.485229 -0.0149789 0.874259
10.2116 21.8461 7.6304 -0.478522 -0.250106 -0.841703
18.3472 16.817 18.7387 0.249197 0.449315 -0.857914
17.8568 20.6529 8.91811 -0.640498 0.517777 0.567159
12.7854 21.7143 17.2422 0.571882 -0.609952 0.548552
13.6417 23.0432 18.8288 -0.820504 -0.381581 0.425639
18.9856 17.6552 16.0418 -0.23418 -0.39201 0.889656
14.7381 21.4031 7.34632 0.502434 0.636257 0.585437
19.04 9.97098 18.1348 0.969843 -0.241189 -0.0351153
22.1622 16.9478 15.9598 0.144149 -0.747729 0.648169
12.6027 16.6795 14.2681 0.660732 0.747163 -0.0719715
15.6808 10.089 19.1532 -0.777737 0.499743 -0.381289
14.2696 18.3272 16.1399 0.121079 -0.992131 0.0318772
21.4047 19.8602 18.4953 0.964171 -0.128755 0.231941
12.5825 21.0315 16.1108 -0.0144495 0.995903 -0.0892607
10.5462 19.2762 17.4887 0.920104 -0.172477 0.351653
15.8442 18.9425 16.3476 0.0480753 0.697746 0.714731
11.4658 11.6898 8.03995 -0.467632 -0.505659 0.725002
14.3731 20.1417 10.9957 -0.606676 -0.726751 -0.322145
14.6052 11.4158 15.8647 -0.53679 0.404398 -0.740485
16.2842 22.8668 7.43557 0.660805 0.191457 0.725728
14.8903 15.1399 13.5034 0.877158 0.384 0.288336
11.2341 11.1567 16.0758 -0.394843 -0.88947 -0.230093
18.3776 13.1681 18.512 0.14229 -0.479039 0.866184
16.7429 17.3179 14.6693 0.530947 -0.76957 -0.354763
19.517 22.324 6.49201 0.579704 -0.448408 -0.680348
21.7293 19.2318 16.9831 0.716535 -0.33766 0.610379
17.7406 14.4896 7.39686 0.11037 -0.0372451 0.993192
11.1643 22.2569 17.1008 -0.0720141 -0.933331 0.35172
15.5873 19.9682 6.06314 -0.232958 -0.880471 -0.412918
13.3771 19.9974 6.38079 -0.231651 0.42559 0.874764
11.3196 20.2083 6.80148 -0.429758 0.258631 0.865112
22.1573 10.6042 8.10058 -0.416315 0.357045 0.836182
16.4124 10.9015 8.19804 0.0746668 -0.698215 0.711983
12.8985 18.9519 16.7068 0.848397 0.106811 0.518473
10.2488 11.5792 6.59612 -0.74033 0.486496 0.463933
18.9098 15.5354 10.8976 -0.562063 0.807794 -0.177633
19.177 14.138 12.1805 -0.626444 0.254276 0.736825
14.2686 14.1483 14.3899 -0.658535 -0.748692 0.0761052
11.8481 16.5402 17.2276 0.190002 0.506484 -0.841055
12.8372 14.1951 18.6565 -0.964748 -0.0542771 0.257519
14.2509 13.023 10.6813 -0.378439 0.117778 0.918103
16.7281 23.0746 13.0785 -0.0855337 -0.992626 0.085897
20.6087 14.011 13.9391 -0.462606 -0.127693 -0.87732
13.6238 20.2965 10.1457 -0.351921 -0.719805 -0.598358
17.7247 22.9812 6.91405 -0.212728 -0.274114 0.937874
17.5645 17.4379 7.04032 -0.386397 0.922132 -0.0192469
20.63 14.8808 10.6063 -0.210058 0.326537 0.921547
19.787 12.06 12.8876 0.0951436 0.98746 0.125975
13.3374 10.4766 14.3394 0.256676 -0.302008 0.918101
20.311 18.7463 11.596 0.082463 -0.89117 -0.446112
9.91063 16.2358 14.4549 -0.68319 -0.646752 0.339062
16.8466 18.5788 7.80355 0.96646 -0.161253 0.19988
17.331 12.4994 8.78554 -0.521586 0.395229 0.756136
12.5205 14.9964 10.7392 -0.0364842 -0.994751 -0.0956023
18.7115 20.3462 12.2926 0.681938 0.0608171 -0.728877
21.7213 22.0247 6.7585 0.693938 -0.164013 0.701106
15.3759 10.283 14.9371 -0.409427 0.688076 -0.5991
11.8387 13.424 15.176 0.143173 0.697715 0.701923
17.1908 21.1443 7.4061 -0.0920631 0.932387 0.349542
22.5509 14.372 6.37168 0.0240391 -0.809615 -0.586469
13.8046 18.5954 6.67411 -0.134328 -0.980488 -0.143526
18.3349 10.8384 19.1131 0.770319 -0.0228334 -0.63725
10.6584 13.2643 15.0083 -0.346455 0.854063 0.388001
22.2853 12.6788 14.3705 0.302004 -0.365042 -0.880646
17.1667 16.1385 8.80551 0.130292 0.64599 -0.752145
19.4058 13.0908 10.162 -0.0314272 -0.744725 -0.666631
21.9831 19.9861 17.6435 -0.980314 0.0346275 -0.194383
20.2295 12.0325 7.77771 0.679384 0.556073 -0.47877
10.043 12.9229 10.1041 -0.224593 0.50682 -0.832281
15.0394 17.5953 8.49267 -0.279492 -0.0700689 0.957588
10.5485 10.7182 18.7822 -0.702513 0.652227 0.284738
15.9725 13.891 19.2421 0.172448 0.737118 0.65339
14.1215 12.4643 12.9777 -0.386237 0.75926 -0.52378
22.9665 14.3491 12.7735 0.0833105 0.53898 -0.838188
10.5944 13.7876 10.1368 -0.542197 0.506304 -0.670581
22.7422 22.3787 6.04099 0.951356 -0.29948 0.0723482
19.1717 16.7998 19.2989 0.112621 0.550315 -0.827327
16.524 12.5734 16.7351 0.464189 0.78799 0.404477
17.0683 19.2207 11.5579 -0.846299 -0.380945 -0.372369
19.966 21.2223 18.26 -0.84011 -0.197081 0.505345
15.0628 13.7941 17.0693 0.26876 0.45881 0.846913
18.7055 13.0733 15.9042 0.966699 -0.246678 -0.0681333
19.3286 10.9483 7.54413 0.326893 0.606409 -0.724851
18.4487 12.1469 16.1015 0.964288 -0.263859 -0.0229589
21.9224 16.8001 7.43155 -0.318365 -0.127637 -0.939336
19.2344 19.6698 17.2079 0.859652 -0.0160181 0.510628
18.7425 11.8369 10.4386 0.0483475 -0.0582667 -0.99713
22.9235 18.1604 16.0471 0.906754 -0.190061 0.376396
9.94868 17.5987 18.0084 -0.0895657 -0.995739 0.0219283
21.5597 17.9926 9.63873 0.997527 0.0423163 -0.0561228
11.0344 11.3206 18.2736 0.0891327 -0.623104 -0.777044
12.4221 13.2032 6.51275 -0.37215 0.906271 -0.200443
22.9777 20.6725 15.9786 0.836301 -0.0598723 0.544992
14.012 14.4769 15.4395 -0.744115 -0.0398414 -0.666863
21.8603 15.8578 6.36689 0.950264 0.00645349 0.31138
12.494 13.397 14.3379 -0.639531 -0.254347 -0.72547
15.4897 12.778 8.12146 -0.484341 0.820197 -0.304453
13.4646 11.3499 7.5311 -0.38589 -0.920473 -0.0617973
21.0761 15.1945 9.01989 -0.603093 -0.552004 -0.575821
14.8921 12.629 7.24985 -0.353476 -0.879461 0.318753
11.0842 13.6897 18.1509 -0.0963332 0.730641 0.675932
14.2541 20.0905 8.55903 0.97676 -0.189745 0.0996808
11.7037 15.6308 8.67202 0.77456 -0.570229 0.273671
16.2966 16.8781 16.7298 -0.105462 0.428625 0.897306
10.2565 21.2511 9.57488 0.462231 0.837529 -0.291354
15.8965 14.1385 12.0536 -0.784426 -0.513102 -0.348428
21.291 11.9122 9.97118 0.683959 -0.367022 -0.630472
17.4697 20.4128 17.4182 0.192893 -0.786952 -0.586087
22.977 12.5137 12.384 -0.724442 -0.689335 -8.70903e-05
16.9682 13.85 14.7334 -0.339418 0.649115 -0.680768
20.6898 13.1158 10.6808 -0.650481 0.126474 0.748919
17.8123 17.4198 12.0333 -0.549706 -0.700503 0.455103
21.1632 19.0018 9.9664 -0.462468 -0.141919 -0.875204
9.72185 14.329 10.5582 -0.388059 -0.586809 -0.71068
17.5595 18.6822 15.556 -0.527065 -0.297746 -0.795959
16.7637 22.2873 9.7574 -0.901302 0.412316 0.132852
21.2699 22.984 6.79707 0.984948 0.10618 -0.136396
19.7058 16.5309 7.39032 0.148143 -0.988831 0.0163649
19.1511 17.2489 8.39795 -0.596584 0.788627 0.148845
13.0363 16.8742 17.0107 -0.345078 -0.406676 0.845893
11.8942 22.4103 17.7321 0.144717 -0.988958 0.0319126
19.4852 13.7347 9.0973 0.526011 0.735499 0.427029
18.5944 13.097 7.31284 -0.289178 -0.164915 0.942963
18.137 14.1783 16.281 0.4071 0.590135 -0.697145
21.153 22.1381 11.1665 -0.808322 0.357343 -0.46789
18.6881 10.8887 16.0378 -0.687067 0.242886 -0.684796
11.7455 20.6891 15.6344 -0.254352 -0.852063 0.457487
9.93208 12.3211 8.77636 -0.434872 0.0412095 -0.899549
20.7624 10.1674 11.4838 -0.669013 -0.273408 -0.691136
19.1953 15.6722 9.51263 -0.451251 0.749388 0.484552
12.3631 19.474 9.10941 0.0307703 -0.833848 0.551135
16.8605 12.5676 10.4045 -0.0301891 -0.914743 -0.402907
17.2177 18.4358 10.6983 -0.942415 0.228178 -0.244518
18.8619 17.0693 13.2428 -0.276358 -0.905323 0.322517
21.2649 13.0021 6.10679 0.588318 0.615654 0.524264
20.5951 14.2895 7.55181 -0.700878 0.451088 -0.552531
18.791 16.9092 14.9061 0.504683 -0.315615 -0.803543
19.5436 19.2016 14.3492 0.814225 -0.500912 -0.293469
10.7201 23.1486 15.0285 -0.982098 -0.188163 0.00885281
14.0611 14.2712 10.5722 0.84989 -0.320589 0.418222
19.6701 20.0079 9.90429 -0.38755 -0.00735314 0.921819
21.0239 20.3736 7.54276 -0.660047 0.0229623 0.750873
11.5833 18.0187 11.4066 -0.539454 0.527715 0.65613
18.3029 15.3077 10.0331 0.580806 -0.733051 0.353978
10.343 10.4961 7.19395 0.516383 -0.0697357 -0.853513
12.525 22.6927 8.95712 -0.965676 -0.259448 0.0124807
21.2243 13.9883 10.5884 -0.5804 0.172495 0.795853
16.561 15.4746 8.3738 0.951414 -0.288041 -0.108826
17.0168 10.2608 6.18703 -0.248062 0.0307618 0.968256
20.332 10.5726 12.4853 -0.423594 -0.899689 -0.105491
22.7627 18.3928 8.84634 -0.821497 0.502703 0.269134
12.022 12.916 7.75306 -0.35941 0.520393 -0.774607
14.6318 21.3198 19.0521 0.609991 -0.0834985 0.787997
15.7288 20.4165 9.15649 0.809975 -0.584189 0.0516012
11.4725 17.6617 8.73158 0.552585 0.827662 -0.0981095
14.3733 14.4831 11.666 -0.100287 -0.913794 0.393603
11.4514 19.4124 14.1837 -0.572854 -0.682414 0.454037
17.5296 22.7855 17.6926 0.062265 -0.0395005 0.997278
15.2196 14.8484 8.81914 -0.462949 0.7338 -0.497208
14.8556 10.5991 17.3354 -0.34373 -0.546825 -0.763434
14.5234 10.5881 7.29673 0.849241 0.521287 -0.0839651
11.3022 17.0058 11.5186 -0.849918 0.434099 0.298661
21.5625 22.0877 8.91563 0.774623 -0.496196 0.392109
16.2222 14.419 18.1833 -0.350397 0.473093 0.808335
14.1212 11.8602 19.2809 0.619334 -0.216456 -0.7547
13.4384 14.6827 11.2271 -0.0499983 -0.911442 0.408379
21.7176 17.4534 11.4185 0.81684 0.104524 0.567316
13.3814 16.6829 11.087 0.838955 -0.461222 -0.288839
21.8724 14.405 11.8107 -0.923749 0.261903 0.279454
17.8926 17.4172 17.4375 -0.0585451 0.460018 0.885978
19.5557 19.9429 8.11769 0.328014 -0.471958 -0.818329
11.1507 12.614 8.2774 0.446403 -0.442378 0.777834
14.3175 21.8538 10.5637 -0.803207 0.384497 -0.454996
19.2586 20.7218 16.5614 -0.747672 -0.245145 0.617163
16.5142 12.4477 18.9557 -0.441947 0.595238 0.6711
13.5836 15.7802 12.7365 -0.982156 0.119354 -0.145342
22.8075 13.5098 15.2707 -0.194232 0.316116 -0.928625
15.0126 11.6558 6.65894 0.919547 0.361845 -0.153302
13.1464 11.9211 8.68291 -0.430151 -0.840085 0.330495
15.8979 16.009 7.58663 0.795872 -0.587377 -0.146888
16.1472 19.7638 11.8262 -0.333806 -0.246178 0.909928
19.3994 16.0319 12.5946 0.853951 -0.51371 0.0828821
12.5427 11.6318 10.2387 -0.266824 0.497805 -0.825224
13.5108 11.9506 11.0476 0.172742 -0.808061 -0.563203
21.5723 18.0049 8.60277 -0.854152 0.454926 -0.251925
16.9345 11.6837 15.7854 -0.420056 -0.723006 0.548466
14.2729 17.352 19.1999 0.623523 0.634142 0.457257
17.2644 18.6737 13.9638 0.763072 0.18651 0.618818
16.5554 22.6402 10.7552 -0.990528 -0.101442 0.092543
16.0594 21.0496 8.24684 0.77054 -0.563411 -0.298054
19.3573 14.6991 16.3672 0.0559656 0.0980383 0.993608
17.4944 20.4302 12.1512 -0.732654 -0.517776 0.441731
19.5364 18.2785 8.25676 -0.677716 -0.0511941 -0.733539
15.9651 10.7016 15.7111 -0.394567 -0.228439 0.890018
20.1408 22.3649 11.6816 -0.710757 -0.437718 -0.550661
18.6299 19.2949 8.63919 0.21003 0.586582 0.782182
19.9028 18.7644 9.79306 0.482532 0.80724 0.339892
16.9791 19.5321 13.5953 -0.578785 -0.0499527 0.813949
19.8538 23.0749 7.82084 -0.931885 -0.242536 0.269753
19.0478 18.9771 13.0981 -0.691167 0.541036 -0.479133
9.83825 10.3551 6.24276 0.407842 -0.696951 -0.589851
13.7535 12.9487 16.3915 -0.642983 0.456352 0.615074
20.3946 20.6668 9.94478 -0.193105 -0.122567 0.973493
11.6506 22.9633 7.12154 -0.875135 0.118745 0.469082
14.2302 13.6374 6.89885 0.0321103 -0.230877 0.972453
16.7943 22.1463 17.1097 -0.556672 0.824471 0.101801
10.7781 22.7463 12.4772 0.674162 -0.0192712 0.738332
14.2082 11.83 8.55528 -0.23259 -0.837504 0.494458
14.2364 22.4151 13.3084 -0.502232 -0.842287 0.195744
12.8721 21.2833 13.0391 -0.0357252 -0.684656 0.727991
13.7999 17.8516 7.55408 0.18935 -0.952707 -0.23769
9.89446 18.8765 10.3951 0.18562 -0.978245 -0.0926431
14.7662 16.3626 15.6122 -0.960382 0.133392 0.244691
13.3962 16.497 6.78573 0.798288 -0.186954 -0.572524
19.6587 14.6429 12.8394 0.12658 0.39734 -0.908899
22.1414 10.0943 17.993 0.20031 -0.0579913 -0.978015
13.603 21.5258 7.18439 0.58508 0.508876 0.631448
17.7061 17.747 14.5987 0.447086 0.122604 0.886049
22.0988 10.53 11.4093 -0.449459 -0.802504 -0.392394
16.612 10.8591 18.2656 0.268515 -0.691542 -0.670573
18.4588 22.0828 11.2184 -0.0407998 -0.957666 -0.284976
19.2431 18.7685 12.0977 -0.277578 -0.959331 -0.0513229
18.3416 11.3012 7.93443 -0.46205 0.02998 -0.886347
13.2194 18.6325 17.832 -0.844809 -0.347064 -0.40724
12.5616 11.662 7.84395 0.271585 0.876682 -0.397078
15.6507 19.905 15.8987 0.0715959 -0.82448 -0.561344
18.2183 18.7875 18.5387 -0.331715 -0.290075 -0.897676
11.6507 20.796 10.4352 -0.912578 -0.408298 0.0222479
21.2298 12.413 15.4215 -0.666543 0.414096 0.619874
16.972 16.5408 7.22198 0.529625 -0.66008 0.532721
14.0033 12.4054 14.0568 0.388079 -0.85881 0.334427
14.8826 18.4206 11.0831 -0.342608 -0.597847 -0.724706
11.9465 22.0459 6.69743 -0.997645 0.0501375 0.0468056
10.9006 23.1372 14.0655 -0.461525 0.860597 0.215331
14.8446 22.4543 15.6988 0.437521 -0.0206623 -0.898971
13.4508 15.7965 17.789 0.347994 0.927051 -0.13956
11.2804 13.915 16.7817 -0.0742964 0.569461 0.818654
15.6591 14.3704 14.1588 -0.544508 -0.0452127 -0.837536
12.0337 20.5043 11.4141 -0.124967 0.60431 0.786888
13.5323 10.4062 10.9488 0.906978 -0.0850833 0.412495
11.8309 15.946 6.92896 -0.943071 0.0923636 0.319508
11.7666 22.0679 7.98399 -0.826106 0.163668 -0.539223
15.5494 13.9883 15.9491 -0.396163 0.507604 -0.76511
18.2442 21.9334 12.1968 -0.769787 0.589928 0.243748
10.3867 18.5558 13.7764 0.362436 0.374289 -0.85355
13.1446 20.6258 9.38463 0.901093 0.284508 -0.327242
13.8361 15.4713 15.8746 0.753308 0.263977 0.602364
10.5946 10.3826 8.52253 0.747174 0.285808 -0.600038
10.0063 22.9198 17.2253 0.294604 -0.955299 0.024755
20.2176 19.6756 15.0115 -0.915959 -0.240474 0.321235
18.2985 10.7907 9.60519 0.0525237 0.201998 0.977977
18.6718 19.5513 10.2281 0.312699 -0.930296 -0.191752
14.7937 20.8949 8.13424 -0.562575 0.733535 0.381361
16.2241 16.2345 9.36078 -0.43847 0.436452 -0.785655
21.0058 22.1496 7.52567 -0.829598 -0.240064 -0.50412
14.9926 12.4245 16.508 0.430616 -0.487383 -0.759624
21.8839 15.8821 15.6754 0.276227 0.495721 -0.823383
12.0172 20.8069 16.9102 -0.884115 0.246795 -0.396779
10.0777 11.3404 9.92723 -0.533478 0.78112 0.324427
21.0006 11.8186 8.67249 0.968978 -0.209197 -0.1316
10.3505 13.9576 17.4852 -0.127553 -0.780868 -0.611535
22.6894 21.6547 15.9443 -0.603557 0.0305235 0.796736
22.0093 15.2475 18.4747 -0.156206 -0.229257 0.96075
14.005 10.4162 6.30483 0.708785 0.619588 -0.337244
20.8833 11.2123 17.3971 -0.274813 0.516315 0.811108
12.3809 14.1826 11.7629 -0.570904 0.733557 -0.36873
20.6849 11.9553 11.3863 0.332249 0.922127 0.198222
10.241 12.3453 13.4456 0.0442659 -0.944675 0.325006
22.4684 14.1688 15.9516 0.806801 0.590285 0.0252143
18.361 15.9512 14.4459 0.418383 -0.837466 0.351576
14.6616 15.1102 10.4582 0.866778 -0.367684 0.336905
15.5746 15.5658 11.7587 0.353268 0.910728 0.213954
19.6997 17.3706 11.1744 0.582365 -0.803991 -0.120204
21.5235 10.7729 7.32222 0.414903 -0.198968 -0.887844
10.904 17.7671 10.7589 -0.309592 0.919915 0.240643
15.1186 20.0183 9.84829 -0.910223 0.062421 -0.409386
11.8036 16.87 6.04916 -0.118602 0.0130168 -0.992857
18.9158 12.0894 7.65065 -0.0894273 -0.105092 -0.990433
15.9211 12.922 15.7699 -0.976756 -0.0453697 -0.209499
20.7346 11.4587 7.01508 0.558123 0.632183 -0.537442
15.4864 14.9227 12.7778 -0.851358 0.241033 -0.465931
12.8343 12.4719 12.3211 -0.527839 0.33808 -0.779159
10.5295 12.6859 15.9433 0.706287 0.118095 0.698006
17.5471 11.5818 9.57664 0.313641 0.0798162 0.946181
14.9339 18.475 15.354 -0.105631 0.981419 -0.160185
22.3095 20.2512 13.4185 -0.0676335 -0.789737 0.609706
20.2558 17.2313 17.6831 -0.954983 0.249663 -0.160236
20.0971 14.5704 18.3412 0.0216849 -0.16129 -0.986669
22.9833 13.0094 7.25752 0.687293 -0.454789 -0.566388
9.73634 15.7623 15.5527 0.67964 0.724862 -0.112539
11.0503 17.4575 15.5423 -0.836632 0.528565 -0.143757
10.8251 11.583 7.36536 0.560948 -0.774237 -0.293079
13.441 14.5142 6.22054 0.781566 0.283026 -0.555924
21.5402 21.2638 14.1099 0.91307 -0.405299 0.0451186
19.4681 12.7103 19.0687 -0.0537481 0.438665 -0.897042
11.9073 18.1209 6.0328 -0.225419 -0.443741 -0.867341
15.0055 17.54 17.4403 0.782327 0.240406 0.574604
13.6437 21.691 14.6428 -0.711312 -0.018632 -0.702629
16.2961 20.2265 6.99597 -0.59959 0.626475 0.498017
12.2823 13.4987 16.6983 0.376982 -0.140766 -0.915461
18.6981 14.0329 14.7715 0.269382 -0.183601 0.94537
20.7739 12.4667 13.252 0.047306 0.965599 -0.255696
11.253 20.8347 12.6541 0.815875 -0.403895 0.413784
12.4191 13.1068 18.0577 -0.695448 -0.68024 0.231573
12.8043 16.8281 13.1049 -0.962369 0.271158 0.0178802
9.82546 16.6327 10.4858 -0.340081 -0.768561 -0.541903
16.0348 15.8796 12.9111 0.276083 -0.574179 -0.770777
12.1731 12.2097 18.9961 0.481874 0.875535 -0.0351611
10.9414 20.8092 11.4379 -0.670059 -0.654468 0.350275
15.6453 15.4153 9.50155 0.848958 -0.348941 -0.396876
12.3659 16.3605 8.3541 0.840087 -0.112842 0.530584
22.9421 19.5303 6.28791 0.729709 0.651277 0.208236
9.72987 12.5954 19.1596 -0.397984 0.618397 0.677639
20.3932 13.7999 8.58234 0.821669 0.129464 0.555066
21.4632 16.1221 18.1601 -0.655992 -0.121755 -0.744883
21.4116 14.9229 13.3847 0.748925 0.357469 0.557967
15.7148 19.2181 9.44822 -0.863498 0.0385251 -0.502878
10.6281 11.1062 16.8676 -0.0183223 -0.986983 -0.159776
21.7945 19.4043 7.67213 0.393373 0.412299 -0.821746
10.1026 12.3565 14.4443 -0.137222 0.927162 -0.348627
11.2194 18.9842 10.412 0.68535 -0.701597 -0.195082
13.6857 14.9895 14.2479 0.219198 0.71769 0.660964
16.3061 11.034 9.37232 -0.253583 -0.840577 0.478672
9.74233 15.1003 18.3382 -0.565797 -0.775914 0.278983
12.1355 17.4331 14.7461 0.553202 0.152738 0.818926
13.1665 17.3766 9.05056 0.6744 -0.735384 -0.0662875
19.1953 20.623 7.57085 -0.308651 -0.636457 -0.706864
20.6301 21.2844 12.0775 0.496243 0.8507 0.173358
18.743 22.956 19.1594 0.446075 0.466159 0.764011
19.4037 16.1476 18.4154 -0.339512 0.628646 -0.699668
21.8642 22.3495 14.1544 -0.684616 0.685877 -0.246728
13.6472 21.7567 11.8924 -0.205177 0.40971 -0.888842
18.818 18.6999 16.033 0.361074 0.174634 0.916039
16.6291 18.3629 18.0263 0.595973 -0.329327 -0.732366
16.5951 17.336 11.3022 0.120805 -0.256183 0.95905
19.1871 10.1701 9.85311 -0.0963256 -0.664584 0.740979
20.214 15.1503 13.7484 -0.806247 0.326539 -0.493293
20.7364 19.1188 17.4192 0.78195 0.0233163 0.622904
16.941 12.8871 14.3549 0.393424 0.400635 -0.827472
9.97019 17.6827 7.49693 0.946437 0.117101 0.300906
17.9138 17.9833 6.24602 -0.289891 -0.692455 -0.660658
12.0731 11.6106 6.64926 0.92697 -0.355651 0.119329
10.9645 14.5105 9.40218 -0.385126 0.918127 0.093389
9.87659 19.7154 13.0688 0.258436 0.723362 -0.64028
11.8026 17.5951 12.2487 0.86124 0.222816 -0.456748
17.3745 21.7787 11.5203 -0.346067 -0.934629 0.0818973
16.7046 13.8537 13.2225 0.532799 0.161367 -0.830714
19.2087 15.6908 8.08874 -0.80795 0.201227 -0.553828
11.6562 11.3085 15.1515 0.855129 0.472513 0.213276
12.8425 11.2961 14.6637 0.664848 0.0539538 0.745027
9.73151 22.0042 11.8951 -0.21473 -0.00577774 0.976656
14.8346 10.7509 10.6323 -0.589113 0.0914061 -0.802864
20.3915 11.6802 16.5193 0.903944 0.287426 -0.316657
21.7968 22.1004 10.2733 0.472285 -0.555911 0.68404
20.4354 17.537 11.9517 -0.471736 0.764343 0.439596
21.7415 14.0239 12.8402 0.527529 0.420721 0.738043
10.2641 10.4483 13.145 0.543712 -0.0930687 -0.834096
15.4524 10.2129 8.89876 0.314929 0.0483105 -0.947885
19.6555 17.1496 9.75821 -0.560032 -0.515865 -0.648264
17.071 16.8124 17.5828 -0.0865581 0.726253 0.681956
18.1781 22.2984 16.6985 0.428845 0.182822 0.884685
22.2623 17.7197 18.5713 0.235998 -0.968411 -0.0805317
20.8279 22.5617 17.4712 0.686623 -0.671968 0.277503
11.3553 11.3975 9.77576 0.53637 -0.458478 0.708594
22.4645 20.4493 11.2577 -0.789294 0.609944 0.0705928
20.7152 17.4312 19.2876 0.690475 -0.015015 0.7232
15.6055 19.4453 6.95219 -0.873189 0.486062 0.0358448
17.2161 15.9579 11.7821 -0.701994 0.424986 0.571481
10.1396 18.4368 6.88444 -0.988494 -0.000612059 -0.15126
20.0826 19.2771 8.58319 -0.758774 -0.266086 0.594525
20.6316 16.345 9.25822 -0.940421 -0.127177 -0.315332
21.8984 14.7078 7.97801 -0.0404897 0.765945 0.64163
22.7131 19.9404 15.1371 -0.83062 0.330612 -0.448068
11.3048 12.0617 11.1141 -0.505806 -0.161112 -0.847468
17.2426 10.3403 12.1266 -0.297837 -0.802762 -0.516591
12.6164 21.5501 9.48117 -0.851179 0.176484 -0.494315
14.6095 19.4691 7.74104 0.945772 -0.186022 0.26629
17.3995 19.6859 15.0706 -0.957313 0.259441 -0.127441
11.7276 15.0226 17.1176 -0.567841 0.628648 0.531375
15.4367 18.0697 14.4922 0.143087 0.975723 0.165805
11.619 13.4677 11.9679 -0.436872 -2.35886e-05 0.899524
16.5094 15.8836 14.4965 -0.407329 0.889115 -0.208705
10.9265 15.7254 6.25255 -0.596564 0.709765 0.374627
16.5873 20.6794 9.94913 0.874435 -0.471673 0.113522
13.4702 22.6006 12.4969 0.374165 0.279735 -0.884166
11.4305 20.8657 9.40047 0.104443 -0.916643 -0.385819
9.90041 21.2505 19.1673 -0.748284 0.241639 -0.617804
11.725 10.9445 16.9354 -0.293388 0.925349 0.240109
14.9538 13.0238 12.6313 0.0847428 -0.990408 0.109139
12.7044 11.602 13.2905 0.687805 -0.0984628 0.719186
16.177 18.0544 6.9481 -0.602702 0.486616 -0.63242
17.1877 11.57 19.2979 -0.311567 0.514031 0.799186
17.7264 17.0939 13.2004 0.545399 0.69958 -0.461658
22.9678 11.0703 8.99021 -0.690733 -0.55946 0.458141
22.2619 17.3466 6.3115 0.607778 -0.766197 0.208681
21.1859 14.642 16.3414 -0.400986 0.124069 0.907644
17.4376 10.5867 8.22483 0.100717 -0.0828815 -0.991457
10.4293 14.8065 8.44849 -0.0867045 -0.881503 0.46415
10.5679 20.673 8.79971 -0.513196 -0.825799 0.23385
20.5343 9.97526 10.0644 0.784519 0.412648 0.462873
9.96305 16.6076 8.57957 -0.314429 0.903908 -0.289973
14.847 16.7509 12.5068 -0.976245 -0.166499 -0.13865
16.7724 21.5026 6.56977 0.114699 0.92373 0.365469
12.8602 17.9897 6.95064 -0.224811 -0.900389 -0.372504
12.4008 11.7869 17.917 0.548813 0.73917 -0.390425
12.2172 22.2204 13.628 -0.0803582 0.0745482 -0.993974
17.4225 12.3456 17.6267 -0.10567 -0.639058 -0.761865
16.6399 12.8779 11.5384 0.188471 0.940314 0.283352
19.0985 21.9852 18.237 0.358428 0.625242 0.693254
22.7487 19.0428 7.55699 0.340993 0.862277 -0.374435
14.1028 19.1867 9.54619 -0.336748 0.107792 -0.935405
15.9454 17.8047 12.7012 0.993996 -0.0396655 -0.101976
12.5657 10.4686 6.73451 0.512915 -0.0752144 -0.855138
12.6188 23.0252 14.1982 0.875881 -0.4611 -0.142194
21.1973 10.0192 8.33035 0.634462 -0.211253 -0.743525
18.5219 14.8884 11.6725 0.465621 0.251627 0.848458
14.5618 14.6966 9.5957 0.215808 -0.897543 0.384504
11.8724 19.128 11.3686 -0.486408 0.0238666 0.873406
17.6536 19.7042 8.16611 0.466605 -0.321725 -0.823877
20.7108 19.6196 11.0224 0.242103 0.888516 0.389777
19.319 21.7423 7.34408 -0.610531 -0.537966 -0.581244
17.0572 20.2475 15.945 -0.831631 0.551033 -0.0689442
9.93282 10.447 18.1154 0.355286 0.868127 -0.346593
18.2201 13.7064 12.0488 0.256087 -0.928002 -0.270614
20.3995 13.1581 12.2174 -0.0438247 0.998268 -0.0392503
18.7835 10.8164 14.7241 -0.7948 0.408597 -0.448711
10.1274 22.743 6.90414 0.862105 0.125435 -0.490959
21.3945 11.8596 12.0329 0.00785476 -0.85703 -0.515207
22.373 22.5721 16.1555 -0.103643 -0.00805221 -0.994582
22.9858 22.2269 8.6948 0.730224 0.481499 0.484697
10.1226 11.5888 16.0507 -0.0768118 0.79719 0.598822
12.0199 16.5882 12.2969 -0.967232 -0.00977221 0.253708
10.6145 14.218 11.4312 0.36342 0.321105 -0.874539
17.8876 12.2442 18.7356 0.628722 -0.413314 -0.658696
22.5382 11.567 18.3727 0.057848 -0.939897 0.336522
21.5663 12.0116 17.9802 -0.0573502 -0.220515 -0.973696
11.1108 10.183 10.2328 0.326073 -0.849369 -0.415029
19.8579 13.536 16.843 0.14201 -0.220956 0.964889
15.9169 14.1536 10.174 0.662237 0.634055 -0.39927
13.5264 22.3362 17.54 -0.610825 0.567241 0.552386
11.1822 19.8366 8.29688 0.704474 0.518222 -0.484935
15.5911 12.83 11.5012 -0.417788 -0.767873 0.485618
17.1655 18.5418 16.6114 -0.244108 -0.565913 -0.787498
16.1701 21.6081 9.11645 -0.583394 0.805823 0.101498
21.1396 22.5842 13.1336 0.861298 -0.506808 -0.0362248
15.1176 11.0541 12.3457 0.685235 0.415357 -0.598274
15.974 12.6817 9.31796 0.178666 -0.84217 0.508752
14.6932 21.6551 11.8556 -0.20762 0.917312 -0.339753
19.9939 10.7941 16.0867 -0.582052 0.606386 -0.541767
18.3371 11.1784 13.0025 -0.0176249 -0.64666 -0.762574
17.9485 19.8345 6.60971 0.336865 0.86554 0.370625
13.5962 13.1993 18.3522 0.0919666 -0.383414 -0.918986
19.1173 13.5131 13.56 -0.860425 0.193955 -0.471221
21.6961 13.5309 14.0998 0.0225311 0.320295 0.94705
16.3928 11.813 14.3865 0.22559 0.141442 -0.9639
17.3079 14.4569 11.398 0.323365 -0.708941 -0.626768
21.1627 18.0334 15.092 0.101227 -0.434762 0.894838
19.9631 21.7555 10.516 0.573755 -0.517053 0.635186
16.8485 12.891 12.8904 -0.547763 -0.235627 0.802767
19.8872 22.6536 13.9531 -0.558277 -0.758824 -0.335428
11.7572 22.107 19.0283 0.726357 -0.676259 0.122798
12.9898 22.7889 16.5335 0.430085 -0.438337 -0.789232
13.6969 20.3477 13.0168 -0.87591 -0.444719 0.187101
18.9083 22.2185 8.78142 -0.977272 0.0299234 0.209866
12.3124 17.319 17.9081 0.711078 -0.123767 0.692135
9.90264 18.6565 18.8423 0.677791 -0.498562 0.540403
21.1012 20.1623 15.7008 0.979431 -0.176053 0.0985946
15.9775 13.0047 12.5321 -0.154042 0.866973 0.473951
15.3047 11.9342 13.9254 0.472858 -0.802335 0.364231
20.9791 17.5161 12.8228 -0.898005 0.297766 0.323917
10.4649 20.7049 13.4033 0.57286 -0.455372 0.681519
15.422 15.8594 10.8028 -0.663933 0.455337 0.593179
18.3566 16.7312 11.5089 0.978952 0.034097 0.201224
19.4726 11.5312 18.1741 -0.507258 0.395349 0.76576
16.7553 11.4751 12.262 0.632088 0.747347 0.204785
22.8094 17.1823 12.8773 0.802739 -0.329762 -0.496857
16.7211 13.9365 16.0671 0.475531 0.262778 0.839534
11.2996 18.8886 16.747 -0.794878 -0.094132 -0.599423
15.1986 11.3183 8.34349 0.347804 0.447034 -0.824132
21.6888 18.4217 11.3432 -0.697956 -0.174088 -0.694658
10.7517 12.0592 12.0774 -0.174243 -0.704568 -0.687913
13.5743 20.632 16.6354 -0.251991 0.967641 -0.0130685
10.5794 22.1255 16.2669 0.54232 0.753269 -0.372123
19.6523 13.8376 6.33521 0.211748 -0.0810428 -0.973958
18.7226 15.531 16.6893 0.669113 0.278532 0.68899
16.2598 20.8121 18.669 -0.0489438 0.998016 -0.0396119
15.4712 21.6422 12.8248 0.917776 -0.363292 0.160332
18.8765 11.0481 11.7265 0.120867 0.61044 0.782786
13.4489 10.157 12.8397 -0.315569 0.272246 -0.90901
22.3443 13.2379 8.71903 -0.864697 0.00647054 0.502252
22.597 18.073 17.2978 0.611212 0.639448 -0.466397
13.5 18.2974 12.2759 0.445913 -0.202436 -0.871884
19.389 19.8534 18.5176 0.534842 0.64795 0.542314
15.8289 17.2671 9.70134 -0.0455706 -0.232331 0.971569
14.5847 18.4961 8.64615 0.0769186 -0.0799759 0.993825
14.4264 18.5844 14.416 -0.465469 -0.882535 0.0668615
11.3298 16.4725 14.6562 0.0862224 0.134087 -0.987211
21.7423 20.9507 9.67235 -0.73266 0.424496 -0.531989
10.1693 14.4083 19.1092 -0.0314749 0.903358 0.42773
15.3693 11.6417 10.4904 -0.983368 0.0950096 -0.154791
18.6217 15.1402 13.4507 -0.471227 0.331362 -0.817401
20.0589 16.3227 6.43908 -0.153654 0.973854 -0.167327
9.86614 18.1571 13.0066 0.762525 -0.196642 -0.616349
18.2654 13.9932 10.2543 -0.420164 0.232239 -0.877227
20.8108 15.9543 13.2818 0.950999 -0.202529 -0.233628
20.2532 13.6894 9.97922 -0.142741 0.543443 0.827221
11.0487 17.8844 14.275 0.322195 0.754944 -0.571182
21.0088 15.0494 15.0644 -0.790193 -0.476861 0.384967
12.7639 14.3108 15.5828 -0.514392 0.00107595 -0.857554
17.4802 21.3404 10.3093 -0.714167 0.427786 0.554044
10.3593 17.3998 6.59948 -0.746031 0.485033 -0.456268
21.3315 12.328 14.1426 -0.455829 0.83781 0.300491
12.2364 9.92161 9.79384 0.0130228 0.98859 -0.150066
17.0539 14.8904 15.5759 -0.541653 0.840564 0.00798864
20.2175 16.8157 12.553 0.953304 -0.275143 0.124531
10.7772 15.1054 12.2625 0.229662 0.0234139 -0.972989
13.7159 19.5104 14.0073 0.471956 0.303579 0.827706
20.6741 10.5301 6.4372 0.797134 0.149576 -0.584982
15.7202 19.544 13.8977 0.154569 -0.93259 -0.326165
13.7055 15.9119 11.7639 -0.967939 0.0373647 -0.248392
15.2243 22.3679 17.0271 0.289683 0.887322 0.358809
12.4602 16.129 9.51868 -0.155117 0.926909 -0.341729
14.5588 13.5549 15.1864 -0.8935 -0.127249 0.430657
13.409 16.7612 8.06702 0.550583 -0.78126 0.294094
22.9548 18.8533 11.4179 0.71072 -0.633618 0.305622
11.0521 14.763 14.2614 -0.323186 -0.126973 0.937779
19.668 11.8997 11.8411 -0.201669 0.976499 0.0760193
14.2642 16.5927 10.0172 -0.757432 -0.539968 -0.367058
19.6394 11.4929 10.8219 -0.0884612 -0.996078 -0.0016707
13.3221 14.9604 12.137 -0.875945 0.283239 -0.390508
18.9173 21.3799 14.4397 -0.414869 0.574114 0.705887
20.1898 15.3915 17.5961 0.0917304 0.177363 0.979861
16.8775 17.9853 8.68294 -0.723794 -0.118843 -0.679705
20.9857 11.1807 10.5623 -0.873207 -0.237478 -0.425576
13.685 20.246 11.9357 0.368978 0.804203 -0.465953
19.8365 22.7666 16.4102 -0.48174 0.700034 -0.527142
19.9278 17.3326 16.2081 -0.370944 -0.509062 0.776696
13.251 17.8003 10.8035 -0.867441 0.497014 -0.0228702
10.4421 19.3201 9.64537 -0.236034 -0.963664 -0.125062
11.8855 17.0974 9.95328 0.0904465 -0.904385 0.417022
17.3879 17.4619 10.1748 -0.627928 0.0205385 -0.778001
13.4055 10.5485 8.42245 -0.891383 -0.301727 0.338227
21.4732 20.6208 8.5437 -0.290432 0.931791 -0.217751
14.3189 12.139 17.8316 -0.88889 -0.336067 -0.311343
13.6496 14.5273 9.11895 -0.322726 0.792745 0.51711
22.9029 15.2069 8.89014 0.168662 -0.101818 0.980401
22.1183 16.6535 17.368 0.398715 -0.607798 0.686737
16.1712 15.6623 17.2936 -0.540338 0.841397 -0.0092851
12.9243 16.9352 10.127 -0.177373 0.964821 -0.19406
17.4158 15.8232 15.1413 -0.62315 0.780551 0.0492352
15.4718 22.339 18.9529 0.417967 -0.670715 0.612736
12.5269 15.0965 6.0423 0.745649 0.00124848 -0.666337
18.0966 16.113 15.7322 0.884384 -0.0556681 -0.463428
21.8302 13.1294 18.0772 -0.215003 0.243233 -0.945839
18.7607 10.1792 13.4855 0.809294 -0.511218 -0.289308
17.1087 15.7274 13.1041 0.651988 0.420518 -0.630932
20.9981 15.1023 18.6552 -0.228777 -0.0989596 0.968436
11.8673 15.3446 7.6842 -0.861818 -0.506358 -0.02952
14.9527 17.656 11.8219 -0.499087 0.808595 0.311586
17.0192 16.5501 10.4686 -0.927704 -0.0374833 0.371429
20.8784 13.8412 17.3792 0.0317288 0.415504 0.909038
22.3019 14.9176 16.5899 -0.542028 -0.830285 0.12974
20.7536 21.7327 13.0882 -0.788388 0.575081 -0.218463
13.6241 18.5576 15.1532 0.402671 0.896841 0.183115
9.80858 17.144 16.2009 -0.265168 0.0330558 0.963635
21.0069 21.2635 6.94756 0.640089 0.0461279 0.766915
14.8396 21.02 10.1331 0.697685 -0.434446 0.569642
11.9733 20.6133 18.5827 0.512974 -0.129921 0.848515
10.3908 19.4455 18.54 -0.526372 0.837319 0.147751
15.3397 20.4357 13.1842 0.251174 0.770226 0.586228
12.0283 9.97426 19.0256 0.356125 -0.71761 -0.598507
12.7915 15.945 13.5717 0.94914 -0.190619 0.250594
22.4506 18.2907 10.704 0.42852 -0.543152 0.72205
10.7889 15.7317 13.9839 0.23363 0.160841 -0.95893
12.562 22.9438 15.4325 0.765504 -0.249502 -0.593087
20.5532 18.5149 18.8124 -0.878104 -0.468836 -0.0955348
18.3516 18.1523 16.96 -0.534681 -0.207451 -0.819195
12.7625 21.7318 7.61595 -0.180658 -0.944221 0.275336
14.3456 22.4827 14.6976 -0.45827 0.365441 0.810211
14.207 16.4073 16.9594 -0.807925 -0.266223 -0.525722
16.362 16.3357 18.0749 0.747947 -0.639228 -0.178779
20.4238 19.7398 12.8633 -0.335901 -0.93513 0.112704
22.0458 19.0423 14.9904 0.886332 -0.0464097 0.460718
18.1309 21.2526 7.94241 -0.1985 0.941255 0.273197
12.1834 19.5239 7.37201 0.274588 0.323729 -0.905429
16.0306 22.7148 11.8923 0.748164 -0.504 0.431548
20.7587 13.839 15.7163 0.456303 -0.598814 -0.658187
14.3666 17.0272 14.9619 0.481516 -0.675986 -0.55784
10.1811 20.4899 14.8475 -0.816375 0.577398 0.0120212
12.8701 13.3787 9.53725 -0.0802495 0.992873 0.0881054
22.4343 19.9825 9.27959 -0.206795 0.889417 -0.407643
21.5282 17.8187 7.64541 -0.395713 -0.817625 0.41821
21.984 16.1797 10.6743 0.468145 0.765733 0.441014
19.6026 18.9804 10.8988 0.183169 0.854159 0.486685
11.802 13.6066 10.1132 0.210169 -0.675617 -0.706662
21.4759 19.0577 6.47418 -0.387308 -0.861234 0.329043
17.2356 19.3028 18.7877 0.116267 -0.952407 -0.281787
18.3197 11.54 16.7891 0.697517 0.386682 0.603281
22.4108 23.1202 8.56206 -0.794727 0.116532 0.595676
18.0405 19.7631 18.0364 0.200873 -0.601853 -0.772931
14.3017 12.8575 19.2101 0.172095 0.156273 -0.972606
17.5339 12.0683 13.3362 0.373819 0.883867 -0.281138
14.1598 9.92916 9.86123 0.317861 0.346096 -0.882713
22.6549 16.6186 9.42682 -0.36098 -0.894612 -0.26337
11.6536 19.3675 15.3709 -0.83084 -0.555291 0.0368407
17.93 11.3384 11.6657 -0.0646316 0.968296 0.2413
19.8879 10.7409 13.5787 -0.909383 0.364002 0.201308
10.3181 22.6959 10.0439 -0.462483 0.868487 -0.178436
14.2241 21.0865 15.951 0.280403 -0.896277 -0.343601
19.6793 19.8463 16.3006 -0.877451 -0.298995 -0.375077
14.781 21.1529 14.6846 0.735835 0.628291 -0.252583
18.2446 18.2138 13.6328 0.211968 -0.915839 0.341041
16.0254 21.2492 14.9466 0.274348 -0.732574 -0.622952
14.5699 9.90773 12.1931 -0.654278 0.756105 -0.0150354
15.9977 13.3791 7.27908 0.0185529 0.998178 0.0574163
14.245 15.6745 18.8809 -0.950296 0.199664 -0.238898
16.4951 20.7721 17.1961 0.168404 0.747723 0.642301
19.0329 20.5117 6.18656 -0.634533 -0.697495 -0.332969
14.9337 16.5281 9.05128 0.45514 -0.0646132 0.888072
12.4642 15.688 17.3677 0.159621 0.465942 -0.870298
10.4658 14.6341 16.7742 0.126497 0.845834 0.518231
17.8877 18.601 12.4588 -0.620565 -0.484664 0.616441
11.2059 22.5178 10.7991 -0.552174 0.691139 0.466294
10.3825 13.8752 6.59475 -0.887506 0.0192515 0.460394
16.0091 21.6297 11.791 0.695302 -0.525223 0.490608
14.6286 22.1094 17.7233 -0.167721 0.985136 0.0371106
12.3477 14.6416 13.7966 -0.551053 0.830538 0.0809186
11.7917 20.9314 14.0118 -0.216431 -0.52203 0.825011
11.9585 22.9868 8.13786 -0.961372 -0.0967913 0.257673
20.4088 20.8817 14.9557 0.991183 -0.0470263 -0.123875
13.0479 10.8589 17.1755 -0.876073 -0.0939814 0.472931
22.5605 13.3401 17.0312 0.282282 0.935893 -0.210765
18.788 21.4329 9.40512 0.00463276 0.517247 0.855824
10.0424 21.1161 11.2004 -0.569307 -0.0391454 0.821193
14.9023 22.39 10.025 -0.125412 0.661814 0.739104
20.3042 19.8315 13.9513 -0.680897 0.575333 0.45318
14.8402 15.431 15.2468 0.255897 -0.1518 0.954711
19.8083 22.2796 17.7125 0.629706 -0.115384 0.768217
19.3436 12.6349 14.9334 0.495511 -0.627653 0.600434
17.8964 20.2776 11.094 0.830852 -0.468552 0.30024
18.4546 12.6703 9.29297 -0.326493 -0.824296 -0.462536
12.4352 12.5411 16.729 -0.692723 -0.0103479 0.721129
21.4387 21.3256 15.6756 0.7326 0.422619 -0.533564
22.6851 10.7466 10.5354 -0.871184 0.26979 -0.410184
13.3703 21.9343 18.4988 0.878511 0.462689 0.118899
19.5985 20.9529 12.6125 0.0103091 0.970619 -0.240402
17.5737 21.6267 14.5826 0.705739 0.00566917 -0.70845
9.99938 16.3687 13.3973 -0.870901 -0.459832 0.173454
16.4453 14.1787 8.76629 0.170082 -0.584853 0.793107
21.2267 19.2278 12.5684 -0.172878 -0.817453 -0.549439
11.3578 10.8734 13.8022 0.407207 -0.802294 -0.436471
21.3996 21.8063 18.6309 0.765973 0.60708 -0.211518
18.0283 21.4696 18.366 0.232423 -0.459802 0.857066
13.3057 16.6092 15.0968 0.580338 -0.322229 -0.747915
21.9768 15.9997 11.7479 0.520909 -0.827653 -0.20891
22.577 17.6815 14.6745 -0.11904 0.946252 -0.300727
19.6695 12.8739 7.9087 0.11261 -0.173049 0.978454
15.7183 15.7961 6.68026 -0.152095 -0.965843 0.209794
22.3046 13.9948 17.8442 0.584191 -0.656661 0.476987
11.5064 12.9639 6.23231 -0.238727 -0.425599 0.872854
15.9568 15.001 16.5619 0.00859699 -0.879907 0.475068
16.7424 19.6462 17.7368 0.31243 0.742441 0.592595
12.9721 20.9309 11.7169 0.257095 0.376613 -0.88998
12.6926 22.9518 11.9163 0.374526 -0.100275 -0.921778
14.4419 22.466 8.94999 -0.844712 -0.231013 0.482799
21.3901 16.1094 14.1272 -0.773968 -0.515944 0.367117
16.5751 19.6548 7.7323 0.757271 -0.409948 -0.508412
14.1349 13.8771 13.1522 0.638685 -0.167278 0.751066
18.5454 15.6228 19.0347 0.609032 -0.0323984 0.792484
15.6533 19.3052 18.078 -0.352963 -0.919776 0.171552
9.7361 19.4396 16.2809 -0.873787 -0.44544 -0.19514
11.585 15.743 11.9075 -0.0412612 0.241133 -0.969614
11.0423 21.884 12.0194 0.371233 -0.0461689 0.927391
15.3831 15.5743 17.9674 -0.877695 0.0891391 -0.470857
22.6811 10.136 12.6326 -0.535022 0.83226 -0.145239
17.9642 21.3146 12.9665 -0.952151 0.209082 -0.22292
9.98985 10.8701 12.1159 -0.309848 -0.816498 -0.48716
20.5375 16.6934 14.0321 0.755535 0.26347 -0.599792
20.4333 13.0996 6.6119 0.175945 0.984277 -0.0155794
18.5936 9.9149 16.5621 -0.770519 0.0121837 -0.637301
13.7403 18.1009 18.9299 -0.872154 -0.437629 0.218698
11.6486 10.6042 8.99918 0.41562 0.891003 -0.182683
10.2581 13.2273 11.3429 -0.854986 0.35474 -0.378362
19.3459 15.8711 11.5956 0.942027 0.0203622 -0.334919
22.0539 14.8451 9.76479 0.411543 0.338476 0.846207
12.5355 14.9274 12.8146 0.834805 0.20576 0.510651
10.7054 20.8249 18.5744 -0.102908 0.743267 -0.661033
17.7787 15.204 14.0685 0.138894 0.779767 -0.610469
21.2599 10.1989 17.5875 0.296361 -0.495405 -0.816544
16.6259 19.1822 15.7119 -0.272962 -0.30637 -0.911937
15.283 18.5693 17.1148 0.835914 -0.510485 0.201627
15.6542 18.044 10.6307 0.264311 -0.256743 0.929636
14.4003 19.7598 13.3103 0.424154 0.551035 0.718647
13.698 14.4804 7.56178 0.388546 0.720592 0.574264
21.5095 17.1862 14.5476 -0.261057 -0.815626 0.516337
17.5734 12.1083 14.4271 0.470956 0.83133 -0.295111
20.0217 12.4147 17.4931 -0.00509886 -0.0987395 0.9951
17.8425 12.3214 6.96686 0.302315 -0.534659 -0.789142
21.2101 16.527 16.3066 -0.393413 0.512689 -0.763136
10.2042 17.4699 13.6499 0.861364 0.366592 -0.351656
20.5642 11.8036 14.4228 0.524276 -0.850454 -0.0431572
20.0295 22.3333 14.9055 -0.163705 -0.838094 -0.520384
22.4277 11.8572 15.8945 0.207625 0.0812669 -0.974827
18.2812 23.0543 12.6447 0.663331 -0.542561 -0.515383
10.6107 16.4727 16.4587 -0.352201 -0.930811 -0.0977003
12.4391 11.2443 16.2895 -0.572574 -0.615497 -0.541593
21.7782 11.1212 15.3294 0.242613 -0.192229 -0.950887
15.6998 22.6769 13.1392 -0.194388 0.687176 -0.700002
13.3234 17.6332 13.2563 0.831009 -0.13527 -0.53956
22.7078 11.3066 13.7871 -0.0253726 0.0338498 -0.999105
9.82072 15.8 17.3077 -0.260971 -0.964924 0.0285572
15.7721 15.3594 15.069 0.305209 -0.631792 0.712521
18.3337 22.6521 9.80742 0.398254 0.573578 -0.715823
15.6452 12.5706 17.3834 0.0795188 0.888126 0.452669
10.6561 14.1817 13.3441 0.432184 0.0783257 -0.898378
11.7882 10.1117 11.0116 0.77579 -0.473624 -0.416929
15.0383 16.7916 13.5368 -0.575399 -0.8178 0.010944
11.2154 12.4154 13.6036 0.339733 -0.839561 -0.423933
14.7891 16.833 6.85732 -0.0821052 0.952279 0.293978
15.2324 19.5487 11.0069 0.010488 -0.538489 -0.842567
14.779 20.004 16.5507 -0.224027 0.896283 0.382737
16.733 18.3967 6.15982 -0.3418 0.931566 -0.123923
12.5311 12.4961 13.6733 0.68963 0.552763 -0.467829
14.2266 19.2733 11.5873 0.342514 0.694019 0.633262
17.6645 15.5479 6.6006 0.215586 -0.214895 0.952546
16.4555 17.3915 13.6804 0.165498 -0.81995 -0.54799
19.5232 16.6639 15.6711 -0.85975 -0.0154644 0.510481
21.2301 17.539 18.5141 -0.515466 0.661259 -0.545006
20.7068 17.3551 9.02681 -0.97775 0.197555 -0.070545
11.2225 14.9798 16.1833 0.033779 0.832456 0.553061
17.4241 22.6201 14.7509 -0.70808 -0.0448902 -0.704704
16.0597 21.3294 10.78 -0.318169 0.633557 -0.705248
20.8081 16.2949 7.12791 0.00801001 -0.999949 -0.00612108
20.7232 15.8728 10.1552 0.416863 0.623956 0.660987
20.2948 17.6262 7.84705 0.149336 -0.901696 0.405763
21.0505 15.6503 12.2359 -0.701977 0.635094 -0.322309
11.7001 21.0895 6.44916 -0.658941 0.37035 -0.654705
19.1813 14.8137 7.6244 0.542873 -0.308516 0.781093
12.1448 18.6834 12.41 0.86282 0.314548 -0.39573
15.5029 18.732 12.622 0.561364 -0.323008 -0.761929
14.7443 19.0259 6.39134 0.358225 -0.439575 0.82368
20.4893 11.5428 19.172 0.990942 0.000687444 -0.134287
16.4796 15.2139 11.1087 -0.0811082 0.959973 0.268093
15.2856 17.1128 16.4399 -0.0567994 0.994702 -0.0856871
14.3737 17.5222 13.7063 0.691433 0.70403 -0.162057
13.8344 11.0892 18.3895 -0.354081 -0.0376645 0.934456
9.92855 12.3988 17.5856 -0.33161 -0.841641 -0.426234
14.8548 13.8711 8.75021 -0.267382 0.556135 -0.786906
16.9511 19.0336 8.73606 0.952172 -0.296518 0.0737952
14.1077 13.8138 17.2829 0.158937 -0.101027 0.982106
19.0276 13.9606 18.4226 -0.335131 -0.0977466 0.937087
17.5399 14.3705 13.4362 0.0362119 -0.646677 0.761904
18.1482 22.1952 13.2907 -0.931149 -0.0686361 0.35812
21.4987 18.3078 12.9659 0.897239 -0.190601 -0.398288
19.8649 18.8033 17.9505 0.355354 0.629104 0.691341
22.5826 16.1085 12.5304 -0.61424 0.535811 0.579324
21.2421 17.8707 17.2469 -0.504696 -0.641177 -0.578078
19.1224 14.9143 18.7754 0.204032 -0.201775 0.957944
16.1791 10.1741 14.056 -0.235326 -0.858004 0.456564
21.611 15.0484 11.075 -0.503246 0.826614 0.251898
20.2937 21.7815 15.6363 -0.75481 0.0841266 0.650526
17.3165 17.1845 15.9963 0.356162 -0.29597 -0.886313
14.3225 20.3701 19.0068 0.617433 0.058982 0.784409
17.9811 15.361 8.99124 -0.763954 -0.602377 0.231336
13.7681 18.1819 17.027 -0.721526 -0.206636 -0.660834
11.3311 19.0269 19.0986 -0.759268 0.111586 0.641141
14.2348 14.7772 17.7807 0.805203 0.105412 0.583555
16.2246 11.1235 6.45648 0.731969 0.00419555 0.681324
13.9891 11.7671 16.5335 0.77324 -0.0410106 0.632785
13.0078 19.5339 10.998 -0.0614088 0.919665 -0.387872
9.97242 19.5844 14.3704 -0.216941 0.791461 -0.571424
12.8787 19.6291 18.3676 0.59978 0.117031 -0.791561
