21.1485 17.2929 6.11186 -0.309207 0.0972263 -0.946012
21.7899 12.4145 17.6281 -0.348891 -0.447727 0.823296
10.561 18.5598 9.48029 -0.814848 -0.570379 -0.103395
8.51641 10.1472 17.0876 0.302584 0.712052 -0.633581
21.5903 16.0109 12.4757 0.408451 -0.819439 -0.402103
11.8011 13.253 8.37949 0.297192 0.684231 0.665962
18.9255 19.6137 6.21959 -0.36281 -0.764148 0.533336
7.31458 20.4426 14.7261 -0.0520126 -0.880517 -0.471153
16.578 19.1288 9.52588 -0.746624 0.251067 -0.61605
21.7637 18.6855 14.2549 -0.563406 0.724786 -0.396558
17.5189 8.57723 15.2631 -0.395463 -0.679017 0.618503
20.1485 10.4949 13.9408 0.981789 0.0723628 0.175652
20.4143 17.7712 15.9019 -0.861035 0.507426 0.0337245
19.9795 10.1803 10.1981 0.0373163 -0.104296 -0.993846
18.0457 20.5571 4.17741 0.865624 0.00132555 0.500693
11.3921 17.2144 15.4048 -0.646499 -0.571784 -0.505077
12.7612 19.5349 13.9321 -0.763088 -0.257145 -0.592936
12.6243 17.051 17.8974 -0.819997 -0.544339 -0.176915
19.7096 9.13573 5.69129 -0.93439 0.0752996 -0.348203
15.9606 16.5147 4.49346 0.396982 0.917114 -0.0361694
19.1439 12.4164 8.59683 0.768789 -0.506764 -0.390069
13.2594 6.42157 17.2035 -0.342262 0.251433 0.905339
17.1582 18.6309 16.585 -0.511627 -0.83605 0.198138
11.7832 15.7209 15.0265 -0.353531 -0.851373 -0.38753
11.4114 9.8516 5.39959 -0.0289593 0.20737 0.977834
8.72749 19.5622 17.2906 -0.0359915 0.344068 -0.938255
10.2987 14.9592 8.24104 -0.708762 -0.640887 -0.294824
21.3588 17.8685 4.1497 0.882602 -0.416256 -0.218505
7.85012 8.26849 15.6224 -0.232779 0.0376783 -0.9718
12.2978 19.2189 4.74389 0.0978352 0.323722 -0.94108
9.48581 20.0234 10.2215 -0.250886 0.961095 0.115554
7.72609 7.68871 4.94157 -0.0316649 0.161169 -0.986419
14.8069 6.63482 10.6477 -0.104845 -0.209699 0.972128
13.9063 16.8196 10.2714 -0.745681 -0.292931 -0.598457
12.4527 17.4737 3.71253 0.977247 -0.0248041 -0.210651
13.5888 14.1012 4.19916 0.806256 0.0222804 -0.591147
19.5291 11.2205 5.75718 -0.115615 0.94828 -0.295632
8.83816 7.92164 14.9702 -0.0351001 -0.882415 0.469161
10.8537 9.13885 14.7222 0.969236 -0.132197 -0.207617
20.493 7.71364 17.5185 -0.563054 -0.341344 0.752631
22.3265 14.2711 9.08543 0.60015 0.750306 -0.277239
7.97474 5.43912 6.10874 0.110249 0.993873 0.00779975
19.4614 10.1465 15.3621 0.704716 0.0642893 0.706571
13.9191 17.9602 10.808 0.874484 -0.0786299 0.47864
9.29483 7.51101 12.224 -0.342158 -0.435255 0.832755
12.131 12.5678 11.8301 -0.967774 -0.043251 -0.248078
21.1826 11.9547 11.3793 -0.692591 -0.711069 -0.121237
17.4584 16.7705 18.3644 0.483827 0.601043 0.636128
17.1848 13.5966 10.2631 0.304977 0.712746 -0.631651
9.27 7.51164 3.77477 0.644567 -0.423982 0.636217
12.1786 6.3892 12.9458 0.653919 0.00717587 0.75653
13.3735 9.75228 6.58881 0.345333 0.567125 -0.747739
13.5004 12.7492 15.7939 -0.559098 0.494321 -0.665625
12.305 9.71787 12.3948 0.379866 0.65092 0.657271
13.9747 20.7561 15.3633 0.863702 0.195773 0.464427
15.0676 10.5695 6.40566 -0.577499 -0.0218515 -0.816099
20.5801 16.5729 7.94866 0.0036806 -0.828544 0.559912
20.027 17.2525 16.8945 -0.573146 0.819 -0.027263
19.2391 9.21495 11.3441 -0.893871 0.346908 0.283987
19.7079 17.5329 13.3929 -0.0562357 -0.764792 -0.641818
15.9362 14.1226 12.4481 0.539667 -0.448176 -0.71267
7.55886 14.8632 14.4452 0.233362 0.140783 -0.962145
19.5729 14.0316 6.96173 0.509884 -0.591152 0.624947
9.33385 14.8127 17.1663 0.798147 0.411777 -0.439774
18.9367 6.45298 8.63356 0.508354 0.808884 -0.295438
11.6915 11.1048 16.8186 0.167209 0.968809 0.182895
11.1299 10.6271 18.6799 -0.0291729 -0.411648 -0.910876
21.5091 19.9976 14.9883 -0.785389 -0.331129 -0.522989
21.825 7.63197 7.70924 -0.33015 -0.756006 0.565204
17.2986 19.5889 6.54401 0.0438352 0.801508 0.596375
10.7067 18.0343 12.6283 0.485158 -0.781464 -0.392346
10.5897 20.123 16.004 0.374433 -0.926701 0.0320183
21.9109 8.06714 4.64848 0.115187 0.240023 -0.963909
10.3823 10.0181 4.06209 0.0550756 -0.859697 -0.507827
18.4335 14.9394 9.14927 0.0803651 -0.280987 -0.956341
17.4656 14.6436 4.38306 -0.849872 0.483035 0.210702
21.9276 8.9993 16.4753 -0.0855007 0.0408778 0.995499
10.6207 17.2279 7.91324 -0.200139 -0.976884 0.0751123
7.83036 7.09765 8.66738 -0.424511 0.183074 0.886721
22.385 6.01966 16.5351 -0.494063 -0.422351 0.759948
16.1526 9.0945 8.70645 -0.328669 0.846794 -0.41823
13.2336 6.77995 6.45891 -0.0582513 -0.663847 0.745596
16.6851 17.8512 9.97215 0.901898 -0.407738 0.142583
7.52881 14.3019 10.2598 0.7848 0.618851 0.033365
7.19582 13.0513 5.67531 -0.682416 -0.212201 0.699485
12.6391 20.7688 13.2648 0.506558 0.156964 0.847798
10.6097 11.7559 18.2481 -0.891731 0.362046 0.271549
18.3869 9.32338 9.88788 -0.402678 0.908481 0.111863
18.4417 13.376 10.2358 -0.189889 -0.52576 0.829168
16.017 16.4021 17.8007 0.541526 0.840539 0.0156191
14.3246 15.2038 3.43064 0.492391 -0.529427 -0.690839
17.9497 16.889 11.349 0.259875 -0.442535 -0.85827
14.6573 16.1112 5.92761 0.339896 0.359211 0.86916
11.5946 5.38297 17.9846 0.840386 -0.53306 -0.0979727
18.7794 17.6004 6.84606 0.108591 -0.150597 -0.982613
9.06415 11.0846 3.96019 0.0887269 -0.508031 -0.856757
21.5624 12.5794 5.00072 0.311218 0.356317 -0.881012
13.7513 5.46877 5.75623 0.929687 0.285189 -0.23313
9.62471 16.0987 12.6964 -0.620218 0.704084 0.345825
17.4955 20.3013 9.59849 -0.440386 0.84052 0.315574
10.1505 14.2686 15.1083 -0.929194 -0.301569 -0.21367
20.858 15.6973 13.3287 0.295259 -0.910624 -0.289114
15.5178 11.1044 4.89468 -0.37258 0.901055 -0.222
15.7971 12.0938 14.8818 0.647916 -0.467228 0.601584
20.8434 6.69315 3.50559 -0.296394 -0.472261 -0.830133
10.1455 13.0821 5.40604 -0.494478 0.0176981 0.86901
12.336 10.7321 6.40837 -0.674736 0.000411758 0.738059
19.0967 11.5731 13.4204 -0.818693 -0.566821 0.0919515
16.4564 20.0523 7.8499 0.363604 0.891696 -0.269574
8.82512 10.8676 10.5671 0.758921 0.600285 -0.252382
21.4976 19.305 17.0615 0.886199 0.266735 0.37882
11.3754 17.5136 5.1154 -0.138478 -0.815555 0.561866
10.6016 20.1497 17.3329 -0.9166 0.307739 -0.255227
18.1775 6.29088 4.55817 -0.174425 -0.469813 -0.865362
18.4041 5.55884 5.51349 0.818849 0.397148 0.414439
7.3108 19.3176 8.454 0.512169 -0.151929 -0.845341
7.99044 10.1149 12.8083 -0.0830121 0.738607 0.669005
10.8199 6.48303 8.0762 -0.235409 0.869227 0.434772
8.84392 13.2994 3.73986 -0.835389 0.54546 0.0678159
11.2587 7.76643 13.4811 -0.793224 0.247643 0.556299
17.4941 13.4338 11.9728 0.218565 -0.899294 -0.378812
10.4763 7.98839 4.18995 0.182469 -0.0853887 0.979497
15.405 20.169 7.2478 -0.915017 -0.0814946 0.395099
17.2201 13.7267 15.1943 -0.0257971 -0.0193317 0.99948
15.6418 12.5674 15.9032 0.886258 0.401571 0.23084
15.9192 13.6928 14.8706 -0.375072 -0.118775 -0.919355
16.4992 18.8956 11.8554 -0.659141 0.744611 0.105297
19.9101 13.482 8.81112 0.278875 -0.960318 0.00417792
8.07883 19.6591 15.1049 -0.396802 0.0534732 0.916346
22.3528 11.5729 3.48294 0.250597 -0.96198 0.10861
16.5106 17.4661 14.4804 0.395993 -0.22423 0.890455
17.2125 15.1385 9.67667 0.407535 0.0820861 0.909493
21.2594 15.6438 6.8974 -0.216363 -0.265082 0.939637
13.5293 8.01141 4.5574 0.604344 -0.788312 -0.115469
12.3782 17.6396 5.78944 -0.167365 0.643608 0.746832
8.91558 15.1346 12.181 0.205506 -0.94144 0.267316
7.15397 11.3662 5.8794 -0.957139 0.0210878 0.288861
11.7738 5.71267 3.64862 0.592661 -0.771442 -0.231581
12.0487 14.2716 10.0967 -0.985548 -0.130033 0.108562
7.19612 6.99602 17.3653 -0.0668635 0.0928347 -0.993434
18.4571 12.4602 5.41077 0.3585 0.0386749 -0.932728
9.67741 11.741 12.6421 -0.564214 0.253426 0.785772
8.89032 13.501 13.3718 0.395114 -0.623071 -0.675032
8.33144 12.0359 11.3649 0.936579 -0.34704 0.0488234
17.6313 12.229 13.2552 0.483027 -0.0891601 0.871054
15.3605 20.3163 14.4245 -0.995705 0.0885742 0.0269539
11.132 14.2854 8.52341 0.657627 0.60967 0.442526
11.0793 6.17391 13.4148 0.309764 -0.76879 -0.559471
21.8547 14.9947 9.94288 0.497764 0.866509 0.0373219
14.2836 12.8167 9.89973 0.375605 -0.386235 -0.842463
21.9941 10.7546 16.754 -0.602957 -0.452956 0.656715
15.087 5.97288 12.5825 0.542331 0.742372 0.393397
17.352 9.16543 8.83682 0.275053 -0.873075 0.402599
7.72087 15.6308 11.6373 -0.517339 -0.350692 0.780625
14.9263 17.4363 18.0364 -0.0162724 0.999781 -0.0131758
18.1125 18.9462 12.6165 -0.267855 0.745006 0.610917
21.1108 11.7483 7.90351 0.161562 -0.298769 -0.94055
20.2106 7.2477 9.76663 0.653075 0.752335 -0.0865157
10.2268 11.6146 13.8935 0.859837 -0.313958 -0.402629
9.24729 12.3391 10.4307 -0.983621 -0.123432 -0.131358
21.664 6.16135 13.2945 0.480345 0.453233 -0.750899
12.0836 16.7129 14.3976 -0.0222941 -0.903123 -0.428803
14.7907 7.67503 5.90607 0.834565 -0.358374 0.418413
20.2949 6.01935 15.3068 0.779291 0.611573 -0.13669
21.8236 12.2901 16.0942 0.343384 0.555814 -0.757072
8.37301 20.5982 4.82317 0.294333 0.835339 -0.464303
21.1951 19.8512 3.71195 0.709876 0.60232 -0.365083
14.193 7.75863 10.053 -0.967567 -0.184152 0.172921
13.4466 17.751 5.93766 0.166054 0.144369 0.975491
12.5699 11.6615 12.7183 -0.999374 0.0321858 -0.0146871
11.8546 12.4703 6.77328 -0.151436 -0.893229 -0.42333
9.46356 11.3548 17.9213 -0.724055 0.521586 0.451323
12.1381 6.73232 11.3091 0.354917 0.215795 0.909652
15.9662 14.8362 16.1059 0.148854 0.686095 -0.712121
12.0037 20.5492 7.83513 -0.708991 -0.70202 -0.0670768
9.50995 8.769 18.2181 0.994599 0.0983179 -0.0332577
16.7484 11.5286 4.43508 -0.480242 0.666683 0.570001
14.5972 7.43531 16.9653 -0.310545 -0.588647 -0.746362
7.74313 20.5397 18.7847 -0.776008 -0.609564 0.161997
13.9822 16.987 5.00561 -0.822129 -0.322314 -0.469274
16.4508 16.7284 8.97506 -0.71224 0.174815 -0.679819
9.41841 18.1613 3.40655 -0.820309 -0.00202869 -0.571917
11.8398 15.6334 6.6794 0.850737 0.0200474 0.525209
15.6849 19.3238 17.3191 0.992445 0.0859114 -0.0875889
20.6033 18.2447 17.7387 0.526872 -0.441892 0.726042
11.5325 19.2481 11.6577 -0.725517 -0.688182 -0.00544546
14.4641 11.293 8.60384 -0.830383 -0.198864 -0.520496
20.8468 12.8518 16.128 0.452747 0.891342 -0.0229946
18.1752 13.0324 17.2083 0.640141 -0.487974 -0.593381
21.6768 15.2838 4.433 -0.0284757 -0.58465 0.810786
19.3386 6.52506 18.1623 -0.638377 0.759055 0.127714
15.3053 14.9824 10.4712 0.0752006 0.409975 0.908991
17.161 9.99262 18.0766 -0.404557 -0.0873541 0.910331
7.28588 15.3652 6.68716 -0.332308 0.691226 -0.641699
9.66273 14.7908 6.20628 -0.564907 -0.594745 0.571979
19.9961 13.9817 14.5558 0.97266 0.0729455 0.220479
19.6601 8.97801 8.72784 -0.107987 0.354295 0.928878
19.3312 15.564 7.57525 0.24872 -0.246621 0.936652
19.181 15.5965 17.5487 -0.367887 -0.929572 0.0235681
9.11053 13.7369 18.1813 0.481086 -0.795294 -0.368868
12.5556 9.97416 13.8736 -0.308617 -0.869119 -0.386507
19.4544 11.309 11.8938 -0.388914 -0.774329 -0.499161
14.8576 14.2084 15.6674 -0.26663 -0.959419 0.0917805
13.1497 19.3611 12.6808 -0.863707 0.441497 -0.243087
20.5561 13.6771 18.2445 0.349949 0.650708 -0.67388
21.8246 6.05631 11.4706 0.883619 0.468064 0.0115221
19.0748 13.6198 5.03861 -0.305353 0.58962 0.747735
19.5801 14.1091 18.4987 -0.478793 -0.417447 0.772331
8.69362 8.12552 5.81635 0.286849 0.369607 -0.883803
18.4243 20.7281 18.1341 0.341286 0.0331371 0.939375
14.6002 20.1125 10.6724 0.864697 -0.159679 0.476238
18.2141 11.6542 10.339 0.322099 -0.892809 0.314872
14.1229 15.0361 9.92075 -0.138014 -0.119514 -0.983193
19.7526 5.71646 11.8381 -0.658732 -0.588793 -0.468395
16.9513 6.68584 16.4999 -0.702341 0.476594 -0.528749
21.9459 7.83671 17.54 0.0476736 0.0202005 -0.998659
18.2839 7.46959 11.3659 0.0424941 0.0265171 -0.998745
20.3425 14.6122 16.6412 -0.98653 0.0815014 0.141831
8.28359 7.69711 13.846 -0.942615 -0.29145 0.162895
11.7987 6.72042 6.16783 0.565795 -0.632572 -0.528893
21.9644 11.5628 10.0313 0.0175975 0.814493 0.579906
8.43551 17.8501 8.8968 -0.907316 0.408475 0.0996311
10.6622 10.0866 9.3739 0.803093 -0.401366 -0.440394
15.7059 10.1173 3.60891 0.159403 -0.589925 0.791567
16.3419 12.7587 3.74688 0.706313 0.148115 -0.692231
20.9892 20.0456 10.0761 0.624149 -0.725576 0.28979
16.7652 16.7353 3.7102 0.362355 0.881354 0.303173
9.77398 6.11221 8.48796 0.14323 -0.90977 -0.389619
13.5431 17.3939 14.7276 0.503384 -0.502059 0.703236
7.82983 10.3685 9.32045 0.0421492 0.53631 0.842968
18.019 10.5417 7.78734 0.480627 -0.876513 0.0269028
21.4971 5.80501 9.23054 -0.866231 -0.470456 -0.168271
20.8808 13.1889 6.07132 -0.569404 -0.758697 0.316477
10.0784 13.6697 6.81446 0.648441 0.39262 -0.652207
17.339 7.76669 8.24898 -0.982981 0.18259 0.0202574
18.7186 15.9079 4.1923 0.281207 0.891642 0.354819
21.7858 13.6752 13.303 0.427173 0.757471 0.493721
18.6477 16.799 17.251 -0.10388 0.584711 0.804563
10.3511 19.6795 13.9683 -0.561568 0.827333 -0.0127021
13.1697 9.98425 18.0694 0.867451 -0.0327655 0.496443
8.25311 14.3773 8.63309 -0.225122 -0.449332 0.864535
16.2258 9.43891 6.51203 -0.184249 0.872496 -0.452552
15.7629 20.1402 15.8296 -0.389487 0.78574 -0.480533
11.8854 9.31996 18.2162 0.413458 -0.280897 0.866111
12.144 5.86873 16.8889 -0.111812 0.782542 0.612476
15.9761 9.01629 9.95191 -0.259745 0.737588 -0.623294
7.0061 11.4171 15.0238 -0.0148087 -0.912862 0.407999
12.8209 18.1907 17.1728 0.530587 0.229478 -0.815977
13.0059 14.6514 8.69859 -0.314358 -0.846322 -0.43002
17.774 17.5804 14.3789 0.191842 -0.457647 0.868191
15.9188 13.8756 10.9644 0.169803 -0.755558 -0.632692
15.7995 17.9488 17.104 -0.235168 -0.642808 -0.729036
16.9677 19.1381 15.2253 0.509375 0.603041 -0.613905
13.1339 20.6884 17.3143 0.118315 0.235006 0.964766
9.20606 18.2529 16.5441 0.725722 0.490104 -0.48283
13.1021 8.87159 17.2069 0.925909 -0.296072 0.234593
14.7856 13.5977 7.31655 -0.477378 0.22027 -0.850642
15.2613 16.1638 12.9442 -0.373591 0.0684165 0.925067
8.39379 16.9563 14.9449 -0.999759 0.0216163 -0.00373159
12.6958 18.6969 14.8129 -0.837049 -0.0682081 -0.54286
14.4398 16.6122 16.869 0.47576 -0.310432 -0.822973
14.2749 7.53745 7.93683 0.349813 -0.194849 0.916332
7.13057 18.1919 13.484 0.702385 -0.594339 0.391684
7.86713 12.2557 16.3402 0.0820325 0.923469 -0.3748
16.0558 12.3113 17.0762 -0.0198074 0.999714 -0.0134191
18.1958 12.1851 7.68233 -0.804772 0.51945 0.287252
14.8208 11.0279 16.6912 -0.240161 0.418329 -0.87597
14.8846 8.86739 10.0774 0.412193 -0.195187 0.889943
14.2757 12.9059 13.124 0.42094 0.617467 0.664487
20.2696 19.906 7.47651 -0.163629 0.432084 0.886865
9.91621 15.7477 11.4183 0.724964 -0.669037 0.163757
17.2407 17.4749 6.99123 -0.662871 -0.684708 0.302946
11.1644 17.3837 6.51037 -0.326514 -0.941444 0.0840891
14.457 6.50302 3.64848 0.829316 0.530766 -0.174705
20.1353 16.5808 15.6902 -0.846072 0.510981 -0.151855
16.262 15.864 10.0788 -0.525872 -0.497739 -0.68972
18.7893 20.1323 13.4052 0.232457 -0.918793 -0.319034
14.6302 19.4643 12.3024 -0.933048 0.136907 -0.332682
21.9838 8.27935 14.576 0.314382 -0.20869 0.926073
17.1129 20.7524 6.09718 0.0233936 -0.825204 -0.564351
21.7425 10.743 18.3978 0.053387 -0.663202 0.746534
15.7576 18.8333 10.5775 -0.847721 0.397024 -0.351768
8.23147 6.38378 16.6044 -0.0268614 0.776077 0.630065
21.0398 9.33304 11.4849 -0.291569 0.346551 -0.891566
14.0708 11.3077 17.8464 0.44004 -0.689975 0.574717
10.316 10.4614 6.85554 0.779284 0.380812 -0.497694
11.4285 9.45578 10.4986 0.513911 0.190488 -0.836427
14.6959 8.56304 8.24748 -0.686511 0.222589 -0.692212
11.3282 7.53874 14.8836 -0.735813 0.65415 0.175121
18.2498 6.69015 13.2007 0.727292 0.495196 0.475213
21.2788 10.8113 10.5262 -0.558686 0.478438 -0.677471
19.4757 12.2139 18.6698 0.869742 0.105459 -0.482108
21.3133 18.9704 15.6151 -0.91193 -0.279029 -0.300877
18.2196 18.7263 8.16062 -0.418736 0.105095 -0.902006
12.3501 7.91492 15.597 -0.838967 0.503778 -0.205774
10.6405 18.3027 5.74786 -0.458922 -0.837281 0.297238
15.9631 17.711 5.3102 0.805019 0.351091 0.478205
9.59378 15.0557 9.21838 0.533586 0.812938 -0.233277
9.37787 6.33085 9.82505 -0.675363 0.721197 0.154141
11.2837 14.0176 7.38478 -0.286204 -0.956823 -0.0507698
15.1298 6.07298 18.2254 0.811749 0.554953 -0.18191
13.7976 9.16746 12.8153 -0.981278 -0.191949 -0.0157684
11.5064 15.728 11.6649 -0.703958 0.680967 0.20181
7.00629 17.6266 12.4449 -0.700105 -0.0908176 0.708241
16.3562 19.9954 4.50032 -0.226412 0.212151 0.950647
19.6894 7.86501 12.1689 -0.73831 0.512719 -0.438199
7.71073 19.9929 13.5075 -0.0705109 -0.901465 -0.427071
19.9512 13.476 13.3756 0.811936 0.47487 -0.339497
8.82371 18.9502 4.77942 0.454017 0.109889 -0.88419
22.0532 6.53014 15.2454 0.538439 0.806089 -0.245568
21.7408 7.23517 11.5747 0.418613 0.491086 -0.763936
20.3967 12.1699 3.99969 -0.81158 -0.268159 0.519065
13.8285 12.7726 8.40348 -0.0571362 -0.848079 -0.52678
20.8451 11.0915 16.2672 0.577654 0.340757 -0.741755
12.0932 10.61 9.08877 0.129593 0.136711 0.982098
13.9193 10.1623 12.4277 0.769745 0.49214 0.406559
21.0368 11.8079 12.8687 -0.886816 -0.418994 0.194942
16.2708 10.43 14.4746 -0.543528 0.773931 -0.324973
7.26347 16.1174 7.8256 -0.862785 0.481799 -0.153206
10.2131 19.6278 7.52016 -0.308927 -0.911064 0.272996
15.1534 11.7777 6.41198 0.0675977 0.404468 -0.91205
16.7647 20.5411 13.4176 -0.499638 0.749998 -0.433434
12.1272 14.6923 4.51451 -0.10939 -0.922387 -0.370454
18.6644 9.73245 17.685 0.803804 0.415632 -0.425616
9.4005 9.60564 4.51073 0.288762 -0.790848 -0.539606
13.5451 15.6338 14.9377 -0.395646 -0.734813 0.55092
15.1299 20.5466 16.8005 -0.802254 -0.262781 -0.536036
22.0185 15.1965 8.02636 0.462913 -0.82062 -0.335103
13.9101 13.5454 5.43254 -0.509942 -0.356539 0.78284
14.1759 16.1192 7.43353 -0.475268 0.583313 0.658685
12.1701 6.04762 15.7579 -0.987996 0.0398826 0.149242
10.0703 10.3477 11.5685 0.384939 0.431172 0.816035
9.27722 15.7929 8.17234 -0.0550465 0.722405 0.689276
17.5424 19.281 11.4152 0.254828 -0.966874 0.0147265
10.7437 19.0288 16.9997 -0.921374 0.308481 -0.236453
15.7954 9.40597 18.2653 0.738057 -0.459346 0.49424
17.3048 16.6438 8.09144 0.794344 0.572903 0.201989
9.5447 5.43978 4.80961 -0.0223409 0.981186 0.191769
12.2563 10.1318 3.70079 0.0709438 -0.502557 0.861628
8.246 9.87669 14.0719 0.281253 -0.773082 -0.568542
17.6497 6.57343 11.0118 0.573858 -0.0738578 -0.815617
19.79 18.786 10.9062 0.494926 -0.0819227 0.865065
18.5405 12.6007 12.4225 -0.0585998 -0.629421 -0.774851
11.4215 16.5009 3.47982 -0.452006 0.23846 -0.859551
20.6263 9.81743 8.30073 0.320914 0.629799 0.707367
16.3827 8.87272 15.3762 0.138523 0.215935 0.966532
17.4033 12.1392 17.628 0.0756359 -0.0515031 0.995805
19.3393 18.0982 12.2612 0.417263 0.9059 0.0723646
8.91241 18.5621 7.23576 0.768602 0.104796 -0.631085
16.6443 18.8294 13.7872 -0.368648 -0.302958 0.878815
22.2879 12.0988 9.18545 0.350182 0.629999 0.693162
10.3143 19.4596 8.75806 0.0701996 -0.976835 -0.202151
10.2948 6.93551 14.9663 -0.453741 0.817529 -0.354633
12.8089 9.67465 8.39681 -0.00582608 -0.413457 0.910505
20.8779 20.6007 6.56454 0.120146 0.749107 0.651463
18.6734 16.2892 18.5595 0.388747 0.823956 0.412278
16.134 5.73193 16.3075 0.770806 -0.51925 0.369103
18.4217 7.69545 17.0634 -0.800139 0.412757 -0.435211
8.94756 20.2163 3.60442 0.576847 0.816114 0.0347105
11.8271 13.3858 10.9412 -0.815454 -0.364672 -0.449499
21.2327 19.2872 9.22445 -0.304378 0.644768 -0.701162
20.1344 8.70244 12.6657 0.0696123 -0.658832 0.749062
8.6263 17.1902 18.707 0.718227 -0.288997 0.632954
21.0622 8.33258 18.4045 0.0886048 0.413128 -0.906352
10.3169 20.5054 3.88647 0.20803 0.963571 0.16809
7.65033 8.72785 6.33022 -0.598879 -0.79371 -0.106622
21.9626 17.9782 11.472 -0.519363 0.572125 0.634771
15.4424 9.19738 7.43983 0.798739 -0.464251 0.382736
15.3576 14.3705 5.954 -0.183258 -0.157019 -0.970444
10.8162 15.1082 9.49947 -0.480578 -0.876845 -0.0136637
14.1338 7.57162 15.2458 -0.74557 0.614585 0.257702
13.7678 8.25185 13.5932 0.42585 -0.859832 -0.281676
14.0738 11.4045 11.5715 -0.104937 -0.981649 -0.159225
11.2059 19.4569 4.0488 0.590657 0.349722 -0.727199
10.5053 9.25254 5.55334 -0.000321234 0.302773 0.953063
21.2726 10.3449 5.05939 0.808819 0.163325 -0.564922
14.3889 9.14846 3.95655 -0.979461 0.187094 0.075177
14.2889 6.60962 5.42536 -0.694043 -0.0636749 -0.717112
21.8422 19.9262 7.46672 0.443353 0.380621 0.811521
13.6424 15.9483 16.0353 0.50266 -0.818518 0.27814
7.29731 17.2265 9.45574 0.989553 -0.0266831 0.141679
21.0334 20.2009 16.1879 -0.971563 0.177252 -0.156993
11.6696 12.1575 18.7841 0.861252 -0.114593 -0.495089
11.1391 8.65031 9.7653 -0.368433 -0.302601 0.879028
7.8738 8.84505 9.25661 0.206248 0.55292 0.807305
15.8742 12.4068 13.5894 -0.582812 0.658847 -0.475658
16.2561 7.13648 5.27273 -0.180715 -0.423797 -0.887546
21.4409 7.68826 12.8639 0.499108 -0.540216 0.677538
7.80828 12.5346 6.55371 -0.713672 -0.671275 0.200154
9.2655 20.1568 13.1523 -0.653215 0.585256 0.480402
8.10039 18.3634 14.9804 -0.7253 0.416973 -0.54779
15.9037 5.90387 5.57794 0.114137 0.593844 0.796443
7.67415 20.5862 11.3857 0.0252202 -0.884528 -0.465805
11.3678 17.5814 17.5607 -0.413373 0.276413 0.867594
14.9297 5.45041 9.76586 0.46967 0.177338 0.864848
19.4967 11.0499 17.9275 0.573125 -0.755245 0.318014
15.2782 6.12702 4.30335 -0.387881 0.775891 0.497535
20.1101 16.0389 6.28027 -0.432691 -0.781654 -0.449216
10.2894 13.6886 16.2579 0.958202 -0.279719 0.0600476
21.8358 19.3764 18.406 0.209614 0.908962 -0.360346
12.4454 15.6104 16.3617 0.147813 -0.985339 0.0851967
18.802 10.1184 12.4352 -0.970395 -0.154777 0.185413
14.1779 6.08981 8.12553 -0.151394 -0.211666 -0.965545
10.7282 9.5155 16.432 -0.0337405 0.987819 -0.151906
19.6224 19.8969 11.0584 -0.434558 -0.0507677 -0.899212
10.7851 13.2135 13.7725 -0.460078 0.847839 0.263623
8.02891 9.57735 15.4073 -0.881806 0.0890653 0.463126
7.14531 8.96952 13.5521 -0.241191 -0.509644 -0.825887
9.45615 9.06336 13.4886 -0.233434 0.408258 -0.882516
13.8419 15.0395 13.2002 -0.427651 -0.599196 -0.676816
10.4405 14.2803 17.7325 -0.386264 0.00291148 0.922384
11.7526 8.3099 17.7779 0.960567 -0.071505 0.268696
8.7981 17.0937 5.3869 0.136866 -0.636073 0.759394
16.3994 17.7503 12.5993 -0.57829 0.783755 -0.226514
9.78792 8.48714 7.97065 -0.622341 -0.45149 -0.639413
9.94502 11.518 6.53781 -0.731911 0.0978683 0.674336
22.1471 9.08522 7.92966 -0.190196 0.657482 -0.72907
22.1241 16.074 13.8483 -0.166061 0.898825 0.405631
8.56159 9.90504 3.69008 -0.819791 0.248854 0.515766
20.099 9.06543 17.4901 -0.847987 -0.496033 -0.186734
9.52806 6.91421 7.6539 0.777381 0.628784 0.0175784
8.02827 11.9783 8.79055 -0.422968 0.892631 -0.155911
16.5988 14.6134 10.456 -0.497723 -0.322165 -0.805283
18.1757 19.7224 10.4442 -0.196973 0.97174 0.130088
8.69818 13.6374 17.0031 -0.979848 0.199019 -0.017016
17.1351 7.53914 10.3795 -0.110665 -0.69362 -0.71179
18.4877 11.0045 6.85092 -0.753051 0.571789 -0.325533
9.43972 19.1391 11.1383 -0.795444 0.574551 0.192769
19.6327 15.3562 4.6133 0.481389 0.754098 0.446767
7.05337 10.6921 10.5816 -0.147835 -0.758826 -0.634293
16.4916 8.20451 11.9456 -0.731736 0.619648 0.2839
8.68624 12.5691 15.336 -0.147828 0.916208 -0.372437
7.10199 12.1977 4.4943 0.233724 0.892857 -0.384941
10.3619 7.0044 16.3138 -0.550895 0.604576 -0.575328
13.6635 14.8 7.60424 0.06408 -0.787927 -0.612425
16.4848 18.6683 6.69614 -0.581907 0.102866 -0.806724
20.4992 12.5631 7.31714 0.509804 0.860249 -0.00847972
22.2895 16.5454 11.0675 0.723281 -0.33873 -0.601769
8.87394 17.7848 10.8017 0.619565 -0.778897 -0.0972604
15.487 5.78008 13.6748 -0.00505116 0.849942 0.526852
13.5956 9.29603 9.98648 0.267046 0.41264 -0.87087
15.1245 6.37194 16.9036 -0.802348 -0.591293 0.0812986
7.44652 13.4935 14.1983 -0.271611 -0.3202 -0.907579
17.9917 8.25045 18.0776 0.536392 0.524129 -0.661492
20.0615 6.21353 7.31954 -0.250846 0.55033 -0.796375
18.2256 18.5486 18.816 -0.947765 -0.176515 0.265676
8.2612 5.84071 14.7063 0.384552 -0.917927 -0.0976197
20.9813 19.1626 11.0941 -0.240951 0.909384 0.339061
15.0293 18.6157 7.04222 0.0111077 0.542086 0.84025
15.0634 19.1004 15.5407 -0.62886 0.487231 -0.605922
9.94479 16.9317 5.16226 0.34201 -0.717515 0.606796
11.8668 8.24271 12.1863 -0.766051 -0.0314238 -0.642011
10.7038 11.6486 8.48094 0.498706 -0.783415 -0.370881
12.3826 16.7365 6.52484 0.584186 0.42243 0.693022
21.8836 14.402 6.54003 -0.0955469 0.707575 -0.700149
18.1527 13.2783 14.244 -0.420505 -0.12283 -0.898938
9.52243 10.0615 8.68212 0.363374 -0.558811 -0.745445
16.5436 13.0345 12.5336 -0.422408 -0.331948 -0.843435
9.71967 20.2861 18.2146 0.225999 0.96544 -0.129811
18.0701 6.5909 14.461 0.3939 -0.914951 0.0877944
17.5518 18.1688 17.5612 -0.803751 0.244559 0.542379
17.5244 10.7553 14.2476 0.342271 -0.714897 0.609732
18.5856 18.8016 14.2438 -0.417788 0.85895 -0.296071
11.2549 17.9719 14.6638 -0.151157 -0.7549 -0.638183
17.0323 5.96271 5.04402 0.471799 0.391561 0.789991
9.71133 15.8995 4.65611 0.388827 0.22202 -0.894159
7.26406 17.3019 8.39195 -0.970616 0.23804 -0.0352388
21.5323 20.2537 11.97 -0.53264 -0.346809 0.772022
15.698 16.9614 18.8101 0.0550713 0.997131 -0.0519307
11.1977 15.3453 16.8562 0.396923 -0.452641 -0.798479
15.7075 8.47868 17.1077 0.170598 -0.281513 0.94427
20.9811 17.9855 14.6215 -0.515482 0.844625 -0.144521
20.9881 12.6757 10.2286 -0.659019 -0.486455 -0.573634
16.1786 13.2238 8.45226 -0.0548488 0.576578 -0.815199
11.9589 5.69036 14.4818 0.917033 0.236091 0.321421
8.05699 20.2887 8.53314 0.440533 -0.702341 -0.559149
16.9544 15.5361 16.807 0.522101 0.67924 -0.515794
20.1916 17.1995 18.05 -0.845147 0.371598 0.384242
12.6447 16.9136 8.24418 -0.108541 0.987746 -0.112146
11.1638 6.22884 5.07287 0.340247 0.934059 0.108468
9.53864 18.7509 14.1115 0.346258 -0.93135 -0.112662
16.8324 16.6523 11.9089 0.846752 -0.508612 0.155964
15.7604 10.1503 15.5532 -0.537719 -0.648092 -0.539291
9.41486 12.6609 4.75002 0.628073 -0.676764 -0.384078
16.1054 12.2191 18.254 -0.701745 0.579346 -0.414623
13.4151 18.477 3.8998 -0.931757 -0.0150574 0.362769
7.57869 14.7521 17.859 -0.205219 -0.873471 0.441512
10.1625 11.3661 15.067 0.455054 -0.634676 -0.62459
7.72068 18.5874 16.7774 0.340957 0.077844 0.93685
13.3004 20.103 4.87811 0.0881798 0.367297 -0.925914
20.5022 9.25014 15.5845 0.368331 -0.240497 0.89805
18.0276 6.77029 9.16906 0.577291 0.812184 0.0842183
19.3535 18.0482 8.81165 0.113364 0.0339266 -0.992974
13.4668 20.612 8.49867 0.100766 -0.102109 -0.989656
17.5183 20.2346 8.24057 -0.088789 -0.978881 0.184141
11.8382 7.67475 9.98351 0.85886 0.496804 -0.124684
10.9086 13.9024 11.4137 0.554015 0.444706 0.703778
15.2939 11.6261 3.59725 -0.747677 0.616191 -0.247564
12.3934 7.85049 6.15451 0.0416662 0.635313 -0.77113
12.4401 7.72374 4.8115 -0.303883 0.8351 -0.458545
17.7985 13.5147 7.38399 -0.573575 0.503491 0.646149
16.6838 5.42061 15.292 0.776117 -0.577699 0.252798
14.7942 18.7582 4.23222 -0.575166 0.817748 0.0217365
8.26487 15.6439 5.37669 -0.261294 -0.624761 0.735798
22.0779 14.0727 17.5823 -0.258543 -0.746563 0.613025
7.97966 5.44767 17.4044 0.747708 0.573466 0.334767
20.4523 11.0043 3.85544 -0.226127 -0.307538 0.924276
7.54536 13.1121 7.53259 0.888948 0.384214 0.249301
21.5617 10.8951 12.0336 -0.538901 -0.805583 0.246214
12.4104 20.4742 9.65521 -0.228581 0.970284 0.0793659
12.7454 13.2786 16.9114 -0.131966 0.893876 0.428451
15.3329 9.70238 13.8004 0.104604 -0.990786 0.0860307
19.907 20.0275 4.78962 0.878309 0.351329 0.324255
16.223 17.9471 7.98158 -0.992041 0.0343498 -0.121141
7.23772 8.61515 18.105 -0.317155 0.723091 0.613638
21.2108 10.7213 13.2247 0.909655 0.365882 0.196618
18.6464 8.7414 18.809 0.607324 -0.542838 -0.580072
20.1474 17.2329 14.6994 0.264646 -0.955592 -0.12964
13.1682 7.86441 11.2399 0.996684 0.0753487 -0.0307272
11.9358 14.0438 16.386 0.297177 -0.339653 -0.892369
9.09344 7.71377 16.4135 -0.85219 -0.426213 -0.303505
19.6941 20.3361 14.3713 -0.860694 -0.25993 0.43777
18.1715 16.3374 14.411 -0.446122 0.159808 -0.880589
14.1182 17.0413 13.1263 0.0390686 -0.957448 -0.28595
7.36475 10.6081 8.13154 0.0458131 0.569155 0.820953
21.9532 15.0214 18.2859 0.207148 0.824497 -0.526588
8.99209 9.13572 9.0179 -0.289734 -0.236235 -0.927495
20.8286 8.37264 7.43105 -0.37765 -0.912757 0.155739
19.228 8.26841 16.1068 0.781769 0.242852 0.574335
15.5045 7.46359 11.1932 -0.60606 0.462268 0.647301
15.8448 6.03275 7.20744 0.834084 0.495857 0.241721
10.5773 16.5677 16.8877 0.59032 -0.0289486 -0.80665
9.93379 15.4208 14.795 -0.87139 -0.238421 -0.428759
9.36895 13.3952 8.7562 0.992234 0.0170991 0.123208
22.0319 18.2564 16.8778 -0.176559 -0.273911 -0.94541
13.19 15.0607 10.9269 -0.52302 0.418564 -0.742466
11.0669 12.12 15.5222 0.307328 -0.557424 -0.771251
7.52517 11.625 7.59314 0.906514 0.422175 -0.000779117
19.1823 15.1733 12.9114 0.871866 -0.489198 0.0231414
17.6018 9.25881 10.9638 0.343509 -0.737305 -0.581707
16.7249 11.5173 10.2919 0.460433 -0.831144 -0.311771
21.1337 16.5211 4.55782 -0.127629 -0.106692 0.986067
17.3168 13.1503 5.92562 0.029242 0.828673 0.558969
8.2586 12.3072 4.47256 0.0205664 -0.292454 0.956058
10.4211 16.8032 12.9022 0.699957 -0.668162 -0.252231
18.3938 14.0778 11.1723 -0.997172 0.0114788 0.0742712
10.3992 17.0452 3.73147 -0.286874 0.215494 -0.933416
16.3401 5.94984 10.9199 0.0601467 -0.687975 -0.723238
19.089 12.2402 9.81758 -0.242717 -0.840198 -0.484929
12.4347 14.4241 14.2276 -0.624357 -0.682994 0.379074
13.6469 16.8083 11.7476 -0.606284 0.760795 -0.23154
7.87037 20.3309 12.5363 0.779606 -0.624396 -0.048403
12.1954 8.61963 8.22937 -0.159482 0.704745 -0.691303
8.12145 16.197 13.4529 -0.772156 -0.30773 -0.555947
9.8095 5.88031 7.01091 -0.76188 -0.641103 -0.0923334
8.2617 17.2838 6.78774 -0.0163393 0.510174 -0.859916
19.1458 7.18072 4.95549 0.132777 -0.390876 0.910816
21.3429 6.46169 5.97409 0.419418 0.854479 0.30652
9.08768 10.6792 14.4645 0.462752 -0.880773 -0.1005
14.6002 12.2759 7.53984 -0.485186 -0.324221 -0.812081
8.2369 15.9659 6.81708 0.864307 -0.497381 0.0747336
14.952 19.8013 5.38492 -0.463301 0.063552 0.883919
17.6227 16.0298 6.99267 -0.680388 -0.624624 -0.383298
11.917 19.8099 14.5993 0.582865 -0.0145335 0.812439
18.9193 11.0206 8.30303 0.612468 -0.694882 -0.376857
16.7433 9.01941 4.52146 -0.203806 -0.967804 0.147714
17.7286 16.0441 3.82654 -0.295023 -0.889245 -0.349577
14.9519 12.165 12.7261 -0.331514 -0.732486 0.594611
22.213 14.0622 12.245 0.393297 -0.741209 -0.543992
16.1632 17.4934 10.8683 0.90411 0.137692 0.404508
15.5525 17.4282 7.08782 0.814022 0.301558 -0.496419
21.175 7.18913 14.2092 -0.273494 0.897365 -0.34632
10.0283 8.70137 9.62431 0.141983 0.73677 0.661068
7.08809 6.5116 6.08196 -0.00245258 -0.669258 -0.743026
9.39876 18.0924 5.89609 0.194384 0.697773 -0.68944
7.59665 17.2042 16.1638 -0.938303 0.120521 -0.324132
7.69372 8.48291 7.44708 -0.156606 -0.980321 -0.12019
13.8348 16.1949 18.2649 -0.554673 0.449468 0.700226
21.4362 9.99306 15.7913 -0.0835734 -0.290253 0.953294
11.2379 15.1609 13.7825 -0.149697 0.975859 0.159027
18.5956 6.43993 16.6455 0.279584 -0.547293 0.788862
10.1582 15.6646 6.96104 0.68262 -0.692413 -0.233656
19.3278 13.1073 17.6649 -0.66871 -0.685114 0.288869
15.4048 19.0723 14.3028 0.590803 0.411726 0.693854
17.234 6.95229 15.1992 0.557863 -0.674374 0.483744
9.68292 17.7008 7.39688 0.72676 0.334362 -0.600018
14.4698 14.1453 10.9154 -0.388433 -0.140028 -0.910775
8.28986 17.1779 12.5431 0.670155 0.164331 -0.723801
18.8456 6.13097 7.16313 -0.301288 0.465775 -0.832034
22.3791 10.4231 12.5361 -0.254803 -0.937379 -0.237478
9.40151 9.38855 16.6888 0.386143 0.784564 -0.485132
19.9804 20.0515 18.5756 0.828488 0.51029 0.230679
7.90229 5.88538 7.10841 0.118286 -0.973967 0.193384
13.7175 18.9075 9.79441 0.921961 0.060678 -0.3825
21.864 18.4586 8.25489 -0.44466 -0.347924 0.825364
13.1761 16.2218 13.5883 0.169456 -0.440897 -0.881416
17.4102 11.3947 8.92481 -0.596875 0.54528 -0.588566
19.1598 19.2632 15.9383 -0.77731 -0.0220544 0.628731
19.7217 20.7587 6.6654 -0.415419 -0.263643 0.870586
18.5536 17.679 13.1799 -0.381328 -0.869245 -0.314646
21.164 16.8318 10.5957 0.0810234 -0.794309 -0.602087
8.84866 16.1077 9.68192 0.536864 0.788112 0.301093
13.0867 11.4244 16.8423 0.6237 -0.0851668 -0.77701
19.2566 16.7784 11.3638 -0.0802891 0.873448 -0.480252
20.4739 12.8358 11.9303 -0.0815276 0.123995 -0.988928
9.84564 7.46095 10.0943 0.692431 -0.15058 -0.705595
22.345 10.2425 14.0358 0.620296 0.757354 0.20408
11.4799 10.2881 14.4803 0.0401319 -0.190042 -0.980955
16.7566 11.3328 12.4676 -0.853019 0.430979 -0.294306
21.372 11.4328 14.4546 -0.444364 -0.600197 0.665059
18.1756 14.4286 14.9699 -0.194289 -0.193406 0.961689
11.3147 16.4139 10.4281 0.91206 -0.127962 -0.38958
14.1151 18.4556 14.5531 0.682245 -0.182663 0.707937
10.0394 12.6264 13.3949 0.567444 -0.294592 -0.76891
18.1156 11.0822 18.1186 0.00753022 0.328211 0.944575
18.967 15.1097 11.5541 0.736669 -0.528551 0.421844
12.9018 11.3762 10.3672 0.00410547 -0.643637 0.76532
13.6101 6.98926 14.4417 -0.834438 0.159274 0.527584
12.1782 14.6025 5.89765 -0.900218 0.394267 -0.184828
12.4102 19.6361 6.6295 -0.720124 -0.00269658 -0.69384
21.3926 18.3226 6.90358 -0.0279198 0.61913 -0.784792
18.1968 15.194 7.53879 -0.290699 -0.706574 -0.645173
16.8966 9.95812 16.5461 0.590249 -0.131363 -0.796461
14.2577 13.2231 14.6952 -0.927168 0.220396 -0.302961
20.1723 19.1571 13.366 -0.591323 -0.0219786 0.806135
16.9923 9.59614 7.41366 0.422342 -0.869447 0.256298
14.9234 12.3037 17.0859 0.342069 -0.811621 0.473561
17.0569 5.95256 14.4574 0.675381 -0.735709 0.0509315
13.2686 11.8136 4.25082 -0.203114 0.438713 -0.875372
11.856 12.5803 4.40072 -0.747403 -0.187592 0.637337
14.9685 7.55204 12.7475 0.45848 0.805453 0.375555
11.3877 8.51967 5.26919 -0.193396 0.0843236 -0.97749
9.76474 17.1679 15.8048 -0.827002 -0.548381 0.123884
7.23906 6.39599 13.6972 -0.449157 -0.395261 0.801266
13.3804 10.5119 9.62292 -0.142482 0.334693 -0.931493
22.0176 20.1855 13.5012 0.147124 -0.601889 -0.78491
9.98407 19.9339 6.44555 0.790807 0.40667 -0.457432
8.26121 15.704 15.5339 0.665123 0.207118 -0.717436
10.508 8.29312 6.87467 -0.759071 -0.6499 0.0379728
8.71424 13.4748 10.8937 -0.914357 -0.305229 -0.266056
10.8468 12.5166 6.19443 0.778242 0.0618614 -0.62491
21.7243 10.2053 8.12222 -0.533624 0.282025 -0.797313
13.8072 20.2792 12.8293 -0.583517 0.279969 -0.762316
12.7269 12.4267 10.7492 0.957682 0.0427069 0.284644
13.2556 18.7956 5.58717 0.486992 0.00599032 -0.873386
14.0604 8.86911 11.7478 0.993781 0.0446589 -0.102003
19.5518 14.6476 10.0684 -0.262283 0.915688 0.304505
14.9596 17.6338 12.3401 -0.377678 -0.623992 -0.6841
13.169 12.8678 4.71947 -0.472383 -0.164547 0.865898
16.4061 18.8403 4.80777 -0.12334 -0.507127 -0.853001
19.2122 10.3171 3.52219 0.0497242 -0.829916 -0.555668
14.0733 5.89067 14.2895 0.162698 -0.381787 -0.909817
17.1802 8.49364 6.55399 -0.026771 -0.731059 0.681789
15.1536 11.1698 11.4244 -0.0536744 -0.998465 0.0136358
14.7592 9.35712 16.7804 0.0724394 -0.367406 0.927236
20.3103 15.323 15.2703 -0.7518 0.575927 -0.321099
19.4108 5.38313 10.3401 -0.663294 -0.402017 -0.631207
8.88976 18.8332 8.79212 0.758031 -0.57876 -0.300708
10.9386 6.11367 10.2547 -0.517096 0.411662 -0.750431
7.00334 17.5928 6.06695 0.508017 0.833308 -0.217983
20.5241 15.4093 12.2566 -0.201199 0.975717 0.0865817
15.7211 13.8881 18.4407 -0.138837 -0.928621 0.344075
18.9727 9.63506 6.88256 -0.922502 0.371934 0.103229
9.64575 12.7588 11.7225 0.700344 -0.647181 -0.301124
16.8133 14.6738 7.25248 0.456767 0.366182 0.810725
15.7507 19.8831 9.99098 -0.623879 -0.0957961 -0.775627
9.40462 9.08746 6.50398 0.041199 -0.0521774 -0.997788
16.0964 20.5988 12.1666 -0.631757 0.61415 -0.472972
19.0572 9.62041 4.5164 0.154643 0.954511 0.25494
13.5935 7.5881 17.6327 0.830877 -0.296232 0.471052
17.7768 13.8552 5.10499 0.0982772 0.629438 0.770811
11.4135 19.0276 7.07082 0.793196 0.00272905 0.60896
14.1827 17.5544 9.60684 0.710664 0.469313 0.524121
21.0998 14.3036 8.62313 -0.470687 -0.810986 -0.347498
19.535 13.2578 6.18387 -0.444732 -0.786129 0.429202
20.5261 14.623 7.09794 0.141548 -0.0798336 -0.986707
15.7989 7.76813 3.95212 -0.910036 0.296754 0.289432
12.1469 12.5716 14.8238 0.0974829 -0.383326 0.918454
8.41947 14.6858 15.7957 -0.196298 0.0683897 0.978156
8.12278 8.43643 10.5091 0.703369 0.682663 0.198097
14.1151 8.75153 14.751 0.573401 -0.689186 -0.442982
13.4517 16.5265 6.0222 -0.511171 -0.401246 -0.760069
21.4623 9.3115 10.1426 -0.0394123 0.930424 -0.364361
20.8988 12.2905 14.9642 0.577952 0.662381 -0.476679
17.2572 13.1423 9.02777 0.510331 -0.843364 0.168225
12.8959 17.2614 12.7783 -0.0220366 -0.945593 -0.324606
15.5498 8.15003 14.6763 0.366341 -0.673409 -0.642117
15.6088 8.51518 5.24206 -0.868423 0.21185 -0.448286
22.0784 10.3291 5.76301 -0.828249 -0.0506086 0.55807
7.00274 16.1393 9.0551 -0.947185 0.17154 0.270952
7.27295 18.9183 11.7066 -0.853389 0.49638 -0.159167
16.9106 12.5017 7.06205 -0.0738041 0.973531 0.216311
10.0365 12.8485 15.2146 0.698877 -0.413484 -0.58361
10.0587 5.91429 16.7417 0.838659 -0.506421 0.200472
7.77012 13.7979 12.6478 0.416244 -0.669384 -0.615359
17.7464 14.4366 17.0858 0.800429 0.552529 -0.232433
16.704 9.78181 10.4545 -0.369838 0.859996 0.351605
8.38237 6.71684 12.1174 0.0618994 0.819438 -0.569815
15.7028 15.3761 14.3666 -0.391198 0.529881 0.752456
8.7167 10.8619 7.12875 -0.34502 -0.0338133 0.937986
10.5753 19.2731 18.2201 0.33378 0.893416 0.300663
12.3776 9.01954 10.9639 0.615921 0.740138 0.269882
17.8367 18.3574 15.4954 -0.806831 -0.499243 0.315879
19.6649 7.26074 15.7774 -0.868641 0.026043 -0.494756
18.4012 18.9176 17.6918 0.931884 -0.359606 0.0477088
7.21704 9.12447 5.10039 -0.0418935 0.45831 0.887804
15.0798 14.5625 7.75374 0.642345 -0.173286 0.746568
14.1107 19.1657 11.1848 0.972576 -0.188573 0.13615
18.2827 20.5028 6.91709 -0.261958 0.777763 -0.57137
14.9701 6.9544 7.3515 0.583196 0.504305 0.636835
13.4678 6.20335 12.6296 -0.798549 -0.143602 -0.584549
20.3864 7.50731 4.75065 -0.268818 0.256585 -0.928386
18.9373 6.56174 11.9139 -0.18935 -0.595391 -0.780805
19.3224 12.8871 11.397 0.26556 0.793708 0.547271
12.4208 11.6829 5.63473 0.917524 -0.0116123 0.39751
13.2871 13.1076 18.1962 -0.728697 0.597615 0.33445
20.2929 10.8166 7.87364 -0.0575597 -0.335165 -0.940399
8.35559 15.7436 18.352 -0.681756 0.706155 0.191188
18.0077 10.2457 5.98883 -0.859705 0.181387 0.4775
12.4424 14.6263 7.57562 0.302193 -0.612679 -0.730276
14.2413 12.1003 5.02632 -0.0350857 0.337354 -0.940724
20.9995 11.4896 5.08636 -0.448408 -0.27907 0.849147
9.06904 16.283 17.4743 -0.719019 0.656954 -0.226767
22.1347 13.7656 15.731 0.250703 -0.0385658 0.967296
19.7341 12.6089 16.6888 -0.0185816 0.931953 -0.362103
7.2641 9.9213 17.2583 0.515181 0.0940306 -0.851908
20.5528 9.87648 3.96098 0.474251 0.113478 -0.873045
16.7991 7.45623 13.5868 -0.0820492 -0.843827 -0.530305
20.3694 6.18637 4.77519 -0.977503 -0.0561712 0.203305
12.7615 7.07925 8.21243 -0.440477 -0.125524 0.888945
10.3401 6.82893 12.7454 -0.429511 0.709774 0.558338
14.0058 13.6253 12.2129 -0.621438 -0.420718 -0.660917
17.4829 7.19568 5.1086 -0.037858 -0.306108 -0.951244
7.53557 10.527 6.47001 -0.858246 0.127182 0.497231
20.6633 15.0632 9.4839 -0.00376074 -0.990438 0.137904
8.79728 10.3707 15.565 -0.933641 0.301716 0.193086
9.95179 17.5288 17.0236 -0.86443 -0.115649 0.489271
13.3948 8.13218 8.9439 0.320885 0.809258 -0.492072
17.9808 16.3077 9.24724 0.196807 0.885713 0.420453
14.1987 18.5956 6.08317 -0.216355 0.542899 0.81145
13.1634 8.41521 6.8617 -0.0826653 -0.129998 0.988062
7.40507 18.0995 7.0336 -0.611003 -0.678366 0.408038
19.3714 7.92256 6.2738 0.844284 0.474031 0.24996
13.7601 5.83709 10.9206 -0.106413 0.203905 -0.97319
7.46107 6.25267 4.34287 0.806369 0.480543 -0.344743
20.2282 14.852 11.1462 0.436661 -0.879163 0.190788
17.6066 19.5575 4.58567 0.553993 0.393345 0.733738
7.30555 11.7113 17.6422 0.205931 0.905296 -0.371526
17.9266 16.3456 5.99104 -0.112813 -0.97038 -0.213626
10.5066 20.4432 14.8754 0.528334 -0.84751 0.0508937
7.26849 7.49149 12.2549 -0.158187 0.156784 0.974882
21.8406 18.8904 5.17598 0.766631 0.636545 0.0841906
14.7145 20.2014 17.7051 -0.751481 -0.108962 -0.650694
10.3518 20.7707 12.3181 -0.833797 0.305822 0.459626
18.6412 7.14284 7.48041 -0.884244 -0.417391 0.209517
10.3494 6.13203 5.82506 -0.275392 -0.907176 -0.318105
20.7161 18.0335 12.4855 -0.287841 -0.197062 -0.937184
11.8652 16.632 13.1224 -0.0573376 0.988252 0.141667
21.2866 8.09306 6.41689 -0.724279 -0.667509 0.172776
9.03639 15.5435 3.91612 -0.292312 -0.719983 0.629427
18.9073 19.183 11.7477 -0.190237 -0.842312 -0.504302
14.9856 13.0658 6.12491 0.881594 0.467574 0.0645513
13.8848 19.2488 16.4251 -0.907417 0.404443 -0.114103
17.7597 17.2567 16.4276 -0.832247 -0.220876 0.508507
16.6529 15.5856 12.4143 0.354936 0.148214 0.923067
17.3883 8.80144 17.191 -0.540367 -0.576755 0.612664
14.572 10.6835 4.16377 0.438139 -0.838251 0.324605
11.659 16.8536 7.49946 0.235498 0.971752 0.0154471
18.1653 13.2768 16.1272 0.74822 0.628507 0.212476
17.1308 11.1557 17.1614 0.303528 0.026041 -0.952467
21.4245 5.61429 10.2775 -0.860425 0.509363 -0.0147377
10.6077 14.2255 12.677 -0.153289 -0.95949 -0.236393
22.4144 14.078 4.82858 -0.205386 -0.276711 -0.938748
14.2397 9.30144 5.78207 0.850861 0.0664088 0.521177
13.933 17.7024 16.0055 0.980313 0.176666 -0.0881764
17.4037 18.2705 9.12478 0.867403 -0.276839 0.413488
12.8982 12.5843 7.42175 -0.176232 -0.982967 -0.0521456
19.9998 16.9662 4.55096 -0.149644 0.724725 0.672592
11.8581 16.525 8.92092 -0.576293 0.761352 -0.297035
12.2057 8.89279 16.0793 -0.809333 0.472444 -0.348966
11.669 7.64676 16.3792 0.74103 -0.375202 0.556864
8.4799 8.41933 12.2362 0.457157 0.71615 -0.527386
18.0587 20.4498 12.3422 0.322034 -0.384193 -0.865269
11.6314 15.2509 18.0767 0.716173 0.158928 -0.679586
9.13615 10.5265 12.3758 -0.144433 -0.402845 -0.9038
21.7497 7.89399 9.29851 -0.218892 -0.955878 -0.195919
11.8497 13.0757 18.0347 -0.820786 0.468072 0.327444
12.5673 11.7446 13.8655 -0.944067 0.206173 0.257351
13.9646 9.99251 13.692 0.553422 -0.657155 0.511733
10.6858 12.3406 17.241 0.170675 -0.694152 -0.699302
19.6267 15.4637 18.5272 -0.677399 -0.652402 0.339857
14.7442 10.1108 10.1217 0.50902 0.56003 -0.653655
21.0458 7.70565 15.5137 -0.588087 0.511689 -0.626361
14.0036 14.7688 5.72711 -0.543695 0.100746 0.833214
19.781 8.40619 10.2861 -0.539381 -0.804482 0.248752
20.6492 9.36932 14.0107 0.700116 -0.219562 0.679434
7.20122 19.2793 4.17792 0.95161 0.290785 0.099414
16.2841 5.47033 9.34393 0.353316 -0.87057 -0.342455
19.3206 16.3119 9.63743 -0.283347 0.900687 0.329359
22.0373 5.59688 7.02958 0.0791897 0.242456 0.966925
12.334 20.1489 10.7651 -0.224291 -0.851885 -0.473271
11.3908 17.9065 9.94531 0.769504 0.586468 -0.252822
14.9553 11.4528 14.7776 -0.482131 0.343734 -0.805851
7.64276 5.80441 10.1084 0.18987 -0.920464 -0.341607
9.48309 7.15871 6.10249 0.486436 0.757114 -0.436071
17.6121 10.2609 4.93848 -0.335376 0.932887 0.131322
21.843 13.3114 8.32739 0.841314 0.522611 -0.138087
8.3674 19.1295 10.0927 0.0911538 -0.938909 -0.331876
20.7552 19.3705 18.207 0.471961 0.707554 -0.525947
13.1099 12.6915 13.5682 -0.889688 -0.00340117 -0.456556
21.1181 15.6238 11.1992 0.233381 -0.90159 -0.364238
12.9418 15.309 18.5417 -0.225503 0.63497 0.738892
9.57783 6.25227 13.7639 -0.600491 0.699221 0.387945
11.5621 6.8763 18.3857 -0.814168 0.536585 -0.221825
20.7718 8.6932 8.81648 -0.530307 -0.805335 -0.264972
16.3099 14.0319 3.9466 0.827102 -0.538055 -0.162478
14.618 14.9025 14.4269 0.0872636 -0.675629 -0.732059
17.2785 8.67801 12.5767 0.300784 -0.887495 0.349115
13.9442 8.84938 16.0587 -0.835221 0.512026 0.200587
22.2235 16.4346 4.33246 0.181489 -0.183713 -0.96608
12.3088 20.659 4.59314 0.706175 0.69279 -0.146149
15.4853 15.5767 16.7689 -0.571453 -0.819055 0.0509018
8.06377 10.6865 17.8837 0.492847 0.672457 -0.55218
19.7722 6.11865 3.86825 -0.517639 0.843357 -0.144215
14.6846 20.4901 4.07787 -0.618958 0.541484 0.568934
20.1262 19.3742 9.71815 0.448368 -0.868646 0.210762
10.2143 16.5576 9.66494 -0.18364 -0.867967 0.461422
16.0769 16.5421 14.2764 -0.843109 0.472067 -0.257526
20.0052 15.6277 16.7901 -0.590205 -0.00249912 -0.80725
20.1401 16.6789 10.3377 -0.0918221 0.989879 0.1082
12.0435 19.2545 16.0489 -0.462858 0.856622 0.22795
17.1636 14.9211 15.7863 0.362178 0.58908 -0.722365
20.2441 18.1453 6.159 0.389533 0.730163 -0.561361
18.4941 14.3428 12.4523 -0.645531 0.735642 -0.205233
16.3655 6.89237 9.07722 -0.272983 0.629382 0.72757
20.5618 13.1723 4.52725 0.575373 0.302895 -0.759737
13.4365 13.848 13.3484 0.404165 0.398478 0.823326
15.0077 16.202 10.6293 -0.325171 -0.360852 -0.874099
8.15503 11.4835 12.5569 -0.16778 -0.290796 -0.941959
22.1283 17.3521 17.8859 0.626767 0.0476266 0.77775
13.9207 11.5394 9.69636 -0.442539 0.257464 -0.858995
9.14504 13.1695 9.81442 -0.966769 -0.251116 -0.0479492
11.543 7.81535 3.75445 0.206434 -0.769299 0.604619
8.97497 20.5471 9.24747 0.394229 -0.696937 -0.599051
19.0794 11.3275 15.4872 0.557963 -0.0459452 0.828593
8.68089 18.1769 13.5655 -0.219767 0.854616 -0.470462
13.5529 14.0355 15.8101 -0.120614 0.191501 -0.974053
13.9125 8.44458 18.6943 -0.77708 0.629398 -0.00230737
19.2528 18.5943 5.4961 -0.145005 0.311961 -0.938964
7.19977 14.7507 11.1932 -0.569435 0.754302 -0.326759
12.007 13.6225 12.3591 0.737476 0.595081 -0.319386
17.4604 11.0295 11.389 0.744412 -0.666959 -0.0318805
14.535 17.0248 3.87085 -0.300452 0.838376 0.454812
7.94996 16.81 11.3908 -0.482356 -0.120587 0.867636
17.1549 14.8726 17.937 0.444895 0.867946 -0.220768
11.097 15.0251 4.51001 0.117276 -0.691166 -0.713117
8.27469 9.07372 4.64731 0.0682617 0.469026 0.880542
22.1848 19.8298 6.18629 -0.721046 0.202587 -0.66261
18.1894 13.6943 18.6443 -0.0204683 0.794566 -0.606832
16.6009 14.3448 5.45876 -0.634287 -0.496375 -0.592699
19.2192 9.12239 13.8694 -0.805153 0.57983 -0.1246
13.1927 11.6241 15.1731 -0.827249 -0.404602 0.389816
15.8759 12.556 7.21308 0.142324 -0.973141 0.180941
8.54722 6.12917 10.9724 -0.235197 0.949172 -0.209175
18.511 8.68703 6.69484 0.391818 -0.447062 0.804123
18.795 13.3462 7.99871 0.53624 -0.574418 -0.618458
22.0414 20.1542 4.53323 0.836153 0.438681 -0.329252
9.14447 14.8969 13.5308 0.366962 -0.791519 0.48871
12.6356 19.2698 17.7523 0.904881 0.2239 -0.362022
18.2762 10.6893 4.29731 -0.239483 -0.632012 -0.737027
9.44714 20.2324 11.9035 0.786633 -0.524886 -0.325121
15.7186 15.7232 6.17591 0.482207 0.368502 0.794785
12.4243 14.4867 13.0115 -0.402808 -0.746233 0.529984
10.0983 16.0036 13.8597 0.0291257 0.949444 0.312584
19.5674 19.3142 8.42985 -0.491521 0.273409 0.826834
11.5193 10.449 11.2168 -0.83527 -0.0159099 -0.54961
17.8924 8.73979 13.7649 0.240403 -0.639327 0.730388
20.3583 11.7637 14.1132 0.638352 0.603922 -0.477268
8.78762 7.99478 8.94155 0.249972 0.195755 0.948259
12.5982 18.8398 8.76211 0.934328 0.328034 0.139375
9.77809 17.7192 11.9104 -0.543449 0.704579 0.456324
12.6127 6.93727 3.9638 -0.112937 -0.569984 0.813857
19.4041 6.44491 14.7294 -0.473926 -0.217803 0.853203
13.2645 16.1101 17.1166 0.363262 -0.921335 0.1385
13.0975 18.5706 11.7861 0.838621 -0.192522 0.509559
19.1782 9.34618 16.2219 -0.901161 -0.171705 -0.398029
20.7645 15.2054 18.821 0.261617 0.926286 -0.271203
19.4721 7.83722 14.6167 0.736303 -0.675473 -0.0399255
10.698 14.963 10.6937 0.881928 0.464284 -0.0815057
20.8306 12.6868 17.2108 -0.248146 -0.960524 0.125768
10.1496 12.105 7.65687 -0.781366 0.404412 0.475307
8.67293 5.86743 8.52173 0.252075 -0.786272 -0.564123
20.6078 20.7357 12.796 0.701462 0.600855 -0.383307
16.3496 16.4555 15.4761 -0.949131 0.314332 -0.0185968
12.8708 17.7751 9.26994 0.767907 0.590684 -0.247814
7.43316 16.0033 14.9052 -0.734645 0.28712 0.614702
16.1382 9.7609 13.0131 -0.582671 0.774814 -0.245269
17.2939 14.7632 13.9373 0.465292 -0.532916 -0.706756
16.8065 5.55819 18.2415 0.0242422 -0.924387 -0.380686
8.72389 7.13089 5.04166 -0.718226 -0.670024 0.187667
22.2796 7.12603 4.1766 -0.271676 -0.325508 0.905669
19.7436 12.8817 15.4256 0.886875 0.429064 -0.171337
7.59119 19.0418 18.5473 0.406124 0.798066 -0.445144
13.6411 10.4227 16.1553 0.909608 0.099877 -0.403283
9.36552 7.19668 17.5064 -0.785224 0.613946 0.0805778
19.3955 15.1694 14.0947 -0.923428 0.331952 0.192584
15.504 5.55407 8.35755 0.114973 0.992793 0.0338194
15.3183 8.18445 6.82035 -0.863856 0.412066 -0.289749
19.3374 16.5255 13.8868 -0.346273 0.557507 0.754507
19.7426 12.6443 14.3745 0.848101 0.470343 -0.243932
19.6688 11.2737 9.98896 0.0123112 0.388657 0.9213
20.9389 7.40134 10.64 0.664256 -0.605189 -0.438761
21.5639 9.23101 4.77204 0.110951 -0.222238 -0.968659
14.2837 19.4772 18.484 0.885531 -0.396018 0.242907
14.6485 16.6552 9.34835 -0.805725 -0.438726 -0.397903
12.076 11.5918 11.345 -0.856274 0.253407 -0.450089
12.048 17.6476 12.0743 0.172637 0.814021 0.554587
9.55208 11.7776 9.20838 0.822893 -0.568161 0.00627753
12.6052 7.75815 13.7969 0.47023 -0.476173 -0.743063
