10.3626 14.5975 12.4864 0.667527 -0.576447 0.471293
14.8355 9.10392 16.5118 0.0242058 0.972613 0.231166
13.2268 9.44189 7.10275 0.257626 -0.344509 -0.902742
9.84704 16.8718 19.4808 -0.774016 -0.603179 -0.192547
8.97711 21.5783 19.1018 0.992871 -0.116962 -0.0229619
16.2849 13.5362 8.94893 -0.839437 -0.529604 -0.121923
16.856 16.2972 18.7384 -0.830683 0.472673 -0.294187
9.53451 21.0702 6.45223 0.617777 0.0912336 -0.781043
10.1798 11.5433 13.4929 0.926524 0.211877 0.310905
17.1771 12.6449 17.5634 0.925735 0.166879 -0.33936
15.8425 21.7918 19.2885 0.699765 0.145267 0.699448
17.4379 16.2503 8.18088 0.807241 0.529302 0.261154
16.3512 9.88173 19.3436 -0.867221 -0.0769669 0.491938
15.0184 19.7649 17.2491 0.427122 -0.792792 0.434797
20.477 17.5509 12.1533 -0.000811742 0.867477 -0.497477
20.5407 21.3822 7.69904 -0.69346 0.30809 -0.651301
18.3592 22.0547 10.6021 0.145237 -0.326419 -0.934
15.6505 15.2797 15.1547 -0.258939 -0.780404 -0.56914
19.712 16.9389 17.1 0.762748 0.624104 0.169438
9.57382 10.811 19.5477 -0.203553 -0.559841 0.803209
12.4275 19.0696 11.2065 -0.11186 0.823164 -0.556675
16.0809 18.7276 14.9018 -0.38047 -0.846159 0.373171
11.2118 11.6103 14.6436 0.375254 -0.89519 -0.240455
20.4945 9.36594 13.8434 0.339156 -0.64661 0.683278
9.66748 8.98354 8.04687 0.410349 -0.207431 -0.888024
10.1659 15.9694 15.8693 0.687821 -0.306228 -0.658124
18.2068 17.9468 15.9879 -0.727467 -0.384126 -0.568541
21.275 12.8211 12.0376 0.270713 -0.885082 0.378608
19.7184 9.59183 14.5665 0.244123 -0.525601 0.814953
18.7374 10.4707 8.69924 -0.289594 0.943702 -0.159879
15.7656 14.9451 16.4723 -0.0564803 0.481893 0.874408
8.66682 11.6685 19.3641 0.444735 0.0372895 -0.894885
14.01 12.4037 20.1151 0.576931 0.186491 -0.795218
18.0211 13.8768 18.112 0.558484 -0.395312 -0.729262
22.2766 16.3623 12.3403 0.800499 -0.408075 -0.43895
19.8427 10.216 15.9236 -0.42999 0.155565 -0.88933
17.0813 16.2875 13.647 -0.782437 0.59283 -0.190644
15.0917 15.7646 10.5438 -0.0135137 -0.406896 0.913375
17.5582 12.8773 6.93065 -0.755604 -0.0429162 0.653622
21.9487 16.0592 18.8632 0.16075 0.875404 0.455882
21.6813 21.9403 20.1483 -0.920527 0.377505 0.100604
15.6241 10.0445 7.53757 -0.857778 0.24461 0.452088
10.2606 10.5552 18.4332 0.307427 -0.722823 0.618882
16.9059 22.1871 10.6118 0.534073 0.0875756 0.840891
19.1396 17.0031 18.1485 -0.736762 -0.163761 -0.656022
9.21975 13.9445 15.5982 0.83018 0.394856 0.39356
20.17 13.8476 15.6507 0.912639 -0.240883 0.33025
19.1825 21.8986 11.5991 0.227224 0.874666 -0.428169
18.215 9.35068 9.2717 -0.231232 -0.649744 -0.72413
17.0576 17.5169 16.9866 -0.935032 0.0336064 -0.352966
9.28527 18.4745 14.1291 -0.364986 -0.895128 -0.255993
20.6995 17.5015 6.54516 -0.689131 -0.724601 -0.00722247
12.9739 13.241 16.6111 0.581733 -0.0413259 -0.812329
9.48678 16.3607 13.8502 0.166001 0.985502 -0.0350652
20.5664 10.1722 10.7865 -0.451224 0.819564 -0.353146
18.0447 16.1478 15.795 -0.52442 0.508715 -0.682783
16.3308 11.9455 9.31175 0.475418 0.867712 -0.1451
20.0266 9.82964 8.90679 -0.212845 -0.971803 -0.101467
12.289 9.70916 13.6125 0.0689466 -0.98157 -0.178234
8.67091 13.0972 13.41 -0.976049 -0.0813769 -0.201755
16.2444 18.9614 6.30131 -0.444795 -0.726701 0.52351
19.0857 21.9597 13.4693 0.699846 -0.67946 0.220341
15.4161 19.7098 6.32204 -0.662977 -0.532349 -0.52637
20.6821 12.0578 19.6355 -0.0618837 0.570615 0.818883
17.9721 21.6264 16.7325 0.0189866 0.848231 -0.529286
11.094 10.8435 13.0996 -0.771957 -0.450618 -0.44836
13.0601 20.4669 13.7257 0.568729 -0.81599 0.10348
9.31472 13.8581 19.7555 0.960653 0.264689 -0.0841718
18.5866 13.8153 19.0379 0.518678 0.679842 -0.518447
14.1107 22.107 10.8362 -0.332529 -0.911148 0.24338
16.9597 16.2258 12.1887 -0.461782 -0.668054 -0.58349
9.32432 12.6671 10.5286 0.916989 0.232476 0.324169
16.4093 12.2585 13.4504 0.801972 -0.328729 -0.498778
20.1455 15.5978 19.8531 0.479858 0.655927 0.582663
20.0373 9.12784 6.81302 0.9644 -0.220391 -0.146154
13.2439 8.8027 10.8314 -0.541964 -0.839958 0.0272958
13.9704 17.0665 13.0438 -0.138106 -0.824713 0.54843
16.2633 18.607 17.0655 -0.915285 -0.386756 -0.112574
11.0093 8.61985 19.4969 -0.362671 -0.0665821 0.929536
10.9927 20.5271 18.1162 0.436541 -0.203169 -0.876444
16.2038 14.183 14.0389 -0.14561 -0.389363 0.909502
16.5251 21.7181 8.83037 -0.574982 -0.596991 0.559461
19.6397 16.7015 13.7262 0.455278 -0.799637 -0.391539
15.2461 16.852 7.05815 0.0728645 0.833447 0.547774
18.9355 20.879 10.0332 0.225118 -0.359636 -0.905529
19.5381 21.4877 9.08768 0.261616 -0.363469 -0.894118
15.7363 16.1132 13.2534 0.313427 0.288269 -0.904801
14.2073 10.0617 10.0643 0.900676 0.0328801 0.433244
15.0927 12.2744 10.9612 -0.703349 0.408091 -0.582032
10.7161 19.5197 18.0355 -0.361908 -0.00565443 0.932197
9.32607 17.1114 10.4555 0.816725 0.572093 0.0752937
15.0762 15.1431 18.5703 -0.126448 0.207076 0.970119
11.6664 9.98937 16.392 -0.457577 0.887838 -0.0486569
18.8364 22.3167 8.80441 -0.34234 0.272804 0.8991
22.3878 8.9129 6.3323 -0.751007 0.263973 -0.605232
16.56 13.6541 7.49494 -0.800733 -0.305049 0.51553
8.68328 11.9404 13.9364 0.864225 -0.201434 0.46102
19.536 11.5482 14.8489 0.0575349 -0.318769 0.946085
20.188 22.2434 8.29109 0.615264 -0.555338 0.559509
11.3015 17.8593 6.44341 -0.715493 -0.692905 0.089175
16.6792 19.0567 11.0226 -0.546223 0.275875 0.790906
19.0719 10.395 19.7215 -0.53441 0.425404 0.730368
9.99694 18.6757 13.0807 0.19423 0.971224 -0.137835
21.0406 16.7602 7.88878 -0.417743 -0.571512 0.706304
12.3212 10.8384 15.815 -0.245124 -0.395786 -0.885024
18.1026 9.18501 18.6361 -0.998881 0.0230458 -0.0412973
13.0504 17.728 11.1218 0.218211 -0.757562 0.615211
13.0078 19.7154 18.4051 0.0630399 -0.850022 0.522961
16.3923 17.2578 15.6518 -0.665558 -0.622362 -0.411944
8.42361 11.9595 16.4576 0.549359 0.631507 0.547178
20.8273 16.3784 16.9509 -0.365727 -0.860676 -0.354233
17.2994 18.834 8.3345 0.745367 -0.645001 0.168529
13.9825 22.3641 6.44288 -0.818083 -0.105197 -0.565397
10.0947 20.2404 6.80383 0.733738 0.679193 0.0180376
11.0723 21.1885 13.876 -0.901346 0.0627754 -0.428526
19.7345 12.0787 17.7039 -0.430264 -0.293569 -0.853633
19.5772 20.3774 13.9767 -0.887769 0.404452 -0.219736
17.0364 9.49172 20.1439 -0.90575 -0.0357121 0.422306
15.6623 19.2868 10.732 -0.388958 -0.128182 0.912294
18.4351 20.1626 6.97257 0.405789 -0.751514 -0.520156
17.0768 14.4397 10.3652 -0.000127002 0.417459 -0.908696
11.5005 19.9956 12.1046 0.420304 -0.907349 -0.00795047
14.0207 15.1514 19.0609 -0.110913 0.24353 -0.963531
10.0573 17.9079 6.93996 0.711474 0.702449 -0.0192125
13.8982 10.5408 18.7589 -0.728933 0.321771 0.604252
8.57719 12.8693 9.40746 0.783899 0.575266 0.233607
19.4479 22.0784 19.6938 0.64928 -0.168793 0.741583
18.3896 19.0035 18.7834 0.413402 0.885398 -0.212531
17.1546 13.1315 12.9127 0.236324 0.717411 0.655341
11.382 8.5867 16.1817 0.682237 -0.11479 -0.722064
17.3972 21.1395 18.9969 0.16947 -0.651024 -0.739897
17.233 12.3409 19.5514 -0.950942 0.283784 0.123192
13.7452 12.5723 17.0444 -0.59987 -0.242142 0.762577
20.0227 10.77 14.193 0.303661 -0.275293 0.912142
11.7021 20.7649 16.1338 0.429046 -0.688571 -0.584627
9.08366 12.8184 14.638 0.885132 -0.310967 0.346181
10.6186 13.0194 15.7675 0.998129 0.0527267 0.0309435
18.9117 13.9333 9.82159 -0.289018 -0.941829 0.171541
9.59704 9.97487 9.49302 -0.531072 -0.237062 0.813489
21.504 14.9529 19.5828 -0.660993 0.478492 -0.578044
14.6831 11.8671 15.5404 -0.576937 -0.124597 0.807229
19.4014 13.2401 18.3314 -0.291793 -0.24001 -0.925879
14.3387 16.6335 17.1894 -0.686565 -0.669534 0.283467
17.1878 14.7886 8.30228 -0.822386 -0.56879 -0.0126344
9.95454 21.9547 14.0976 -0.512741 0.521345 -0.682126
14.0107 12.4861 14.9338 -0.685168 -0.199411 0.700557
21.0897 16.2879 13.8117 -0.479299 0.777127 -0.407856
11.276 12.3306 17.9341 -0.510159 -0.0123282 -0.859992
11.217 19.7156 13.1804 -0.418439 0.871478 -0.255801
20.3588 11.1842 16.9635 0.015087 0.240158 0.970616
20.4489 20.3442 18.6886 -0.989992 -0.0636476 0.125954
15.0629 19.0583 15.2385 -0.277679 -0.954577 -0.108061
15.324 12.9328 15.2875 0.243997 0.403408 -0.881889
9.78497 15.5703 8.66479 0.636112 0.515066 -0.574517
21.7 17.387 18.1659 0.573362 0.687154 -0.446179
17.776 12.9627 10.6414 -0.138006 -0.936534 -0.322269
20.3988 20.968 9.43447 0.2374 -0.38275 -0.892829
20.3415 20.9229 6.53705 0.962576 0.265255 0.0555665
19.9942 9.58631 7.87022 -0.751427 0.658124 0.0472246
18.4266 18.17 13.8405 -0.126181 0.760727 0.636689
20.6008 18.8662 20.044 -0.888446 -0.384467 0.250698
22.2245 17.8662 14.5253 -0.426407 -0.695488 -0.578336
15.0169 17.7006 16.0028 0.0320339 0.974292 0.222998
22.2446 16.2605 7.02982 -0.78956 0.415002 -0.452071
19.8466 15.8124 8.29195 -0.114112 -0.583806 0.803834
13.2479 13.1944 6.57856 -0.629816 -0.159808 0.760127
11.7087 12.7431 11.849 0.593305 0.00245474 0.804974
14.6802 14.6887 13.1668 0.0189558 0.246832 -0.968873
17.5591 11.5024 17.2144 -0.850058 -0.219562 0.478742
22.2617 21.0648 18.3649 -0.939956 0.239494 0.243158
13.3894 15.53 20.0448 -0.00326182 0.418241 -0.90833
14.2825 11.3189 10.7705 0.416418 0.279334 0.865199
13.7335 9.58057 8.47027 0.80555 -0.0210072 -0.592155
12.8106 9.90801 15.6955 0.732236 0.605089 0.312566
12.1459 14.0358 15.684 -0.133238 -0.520234 0.843567
9.89205 15.7761 17.2206 0.251367 -0.798785 -0.546587
14.9839 11.9756 13.1433 0.232629 0.957245 -0.17195
10.0086 21.7929 9.5453 -0.787719 0.595113 0.159184
11.3193 15.4479 12.5013 0.805092 -0.198732 -0.558868
18.9696 21.2609 7.50996 -0.116257 -0.176444 0.977421
21.5694 16.7468 11.5965 -0.909827 -0.309597 0.276342
20.1312 18.0122 13.8664 -0.810472 0.524346 -0.261145
9.84988 9.01003 15.6903 -0.0208916 0.130918 0.991173
13.6362 18.6562 19.9942 0.468068 -0.882916 -0.0370305
18.2386 14.5344 7.25022 0.242172 -0.941425 -0.234672
15.7571 12.3433 10.1467 0.404929 -0.791488 0.457798
10.1836 11.5465 7.93693 0.826752 0.00682332 -0.562526
11.1714 17.8992 13.0997 0.134602 -0.880036 0.455433
13.1743 13.1248 9.39859 -0.85488 -0.356231 -0.377199
21.8471 12.8553 11.0512 0.892657 -0.384541 0.235142
18.0369 20.3664 19.592 0.235283 0.470145 0.85065
16.8289 21.0483 17.244 0.0235297 -0.507126 0.86155
13.3115 17.7525 17.9162 0.0488126 -0.998793 0.005396
17.1347 20.4701 13.8659 0.116894 0.918892 0.376792
18.2715 10.3942 19.0601 0.730596 -0.0376031 -0.681773
20.5572 16.6589 15.9099 0.091146 0.865508 0.492533
22.2438 17.521 10.4676 0.817758 0.547934 -0.176181
15.9259 9.74517 18.285 -0.962698 -0.0857405 0.256634
19.2007 12.8892 13.6356 0.12163 0.32122 0.939161
16.0292 18.1822 8.25952 0.237784 -0.529754 -0.814137
14.032 10.9469 14.2618 -0.661667 0.654514 0.365798
9.65315 16.0267 12.6585 0.888703 0.33798 -0.3098
14.6198 20.8241 6.59402 -0.274615 -0.701431 -0.657709
11.0192 19.8011 11.2074 -0.543348 0.805129 0.237781
20.1946 12.0697 12.3025 0.7524 0.136138 0.644485
10.603 12.6901 8.04245 -0.125144 -0.439466 0.889499
18.6962 11.6394 10.015 -0.411722 -0.831213 -0.373591
13.7463 15.7755 14.9657 -0.219321 0.6427 -0.734054
21.6772 12.6515 20.0341 -0.285059 0.416622 0.863231
21.329 11.6195 6.30718 0.190175 -0.553463 -0.810871
9.70578 14.3321 17.7327 -0.271151 0.958527 0.0877679
20.3255 20.6768 16.8038 0.981196 0.0236749 -0.191559
20.7926 15.7348 12.5824 -0.947268 -0.0232652 -0.319597
13.2539 18.5458 8.82798 0.508697 0.70176 -0.49876
10.854 17.5847 8.54603 0.661577 0.743187 -0.0999448
19.9527 14.1713 10.256 0.398787 0.900326 -0.174303
13.168 16.3445 8.71212 -0.0147211 0.975026 -0.2216
14.702 18.8467 9.98947 0.681522 0.542929 -0.490669
18.5784 13.8201 20.1899 0.879243 -0.465967 0.0990287
18.7973 12.3301 14.9188 -0.631594 -0.557404 -0.538879
22.0234 16.6448 17.1091 -0.307626 -0.951495 -0.00483515
21.6051 15.9981 10.9449 0.999113 0.039926 0.0133483
10.6745 9.783 15.9514 0.449864 -0.674575 -0.585295
19.6641 21.2553 18.2155 0.735875 0.192924 0.649052
14.9949 20.1104 7.34082 -0.556725 -0.797359 -0.232973
11.34 14.2307 19.8858 0.211392 0.898501 -0.38472
19.3285 18.4978 7.40933 0.471544 -0.128044 0.872497
8.65065 21.8632 10.6188 0.998485 -0.0147896 -0.0529989
16.3285 15.6743 9.75746 -0.863463 -0.336686 -0.375598
15.3761 11.7789 18.2315 0.0549439 -0.668447 -0.741728
15.2626 13.9416 16.7096 -0.226379 0.202996 0.952652
15.1859 9.06641 12.0791 0.0216347 0.720139 -0.693493
22.2227 19.4467 14.5435 0.30701 -0.0831816 0.948064
21.3891 15.3999 16.3017 0.0730857 0.959527 -0.271968
8.48002 20.0567 6.82218 0.0166504 0.679941 -0.733077
20.8116 14.4591 17.5231 0.444598 0.0151893 0.895601
20.2109 19.7896 10.8893 -0.254312 0.564761 -0.785092
16.991 18.5962 7.29485 -0.35398 0.903061 -0.243268
17.7709 21.7445 9.04392 0.184341 -0.0374676 -0.982148
11.5515 9.79515 10.9269 0.282897 0.561765 0.777425
12.2487 12.3673 16.6303 -0.905304 0.420599 -0.0593378
19.2647 9.87684 17.1114 -0.278226 0.107438 -0.954488
22.2924 18.6045 13.5023 0.75356 0.648308 -0.108831
8.637 18.5501 16.4312 0.477313 0.453423 0.752715
20.8316 8.52376 13.2683 -0.25856 0.694288 -0.671648
16.7591 18.1948 11.5641 0.993641 -0.077319 -0.0818516
11.8831 10.9519 17.1814 -0.444364 0.850705 -0.280787
20.5173 21.6983 15.4704 0.0779305 -0.917735 0.389473
21.9247 19.5365 10.7173 -0.740371 -0.426134 0.519866
14.5731 12.4787 8.11294 0.634476 0.630715 -0.446811
12.9557 21.3976 10.2127 0.110775 -0.590076 0.799712
20.9772 12.8221 13.7856 -0.85713 0.257828 -0.445929
16.6205 16.833 10.1231 0.948761 0.0629396 0.309662
11.1762 19.4848 6.42296 0.0962113 0.794761 0.599248
16.3445 10.2009 16.2236 -0.753553 0.200809 0.625967
17.1621 20.8724 8.18393 -0.297515 0.673996 -0.676176
11.9153 17.5639 17.9289 -0.718269 0.5249 0.456694
10.2328 11.8777 19.9235 -0.900506 -0.280953 0.331894
17.0718 9.88599 9.72457 0.415832 0.221896 0.881956
14.4826 16.5855 14.6494 0.308284 -0.657707 0.687301
13.7568 8.57377 7.98122 -0.332004 -0.448713 0.829717
17.3674 9.49075 16.3746 0.746403 -0.102284 -0.657587
15.4003 11.2595 8.04701 -0.621272 0.0983835 0.777394
20.5469 10.5704 18.7855 -0.348907 -0.0398128 -0.936311
19.3567 13.5741 7.45592 0.412566 -0.688738 -0.596179
17.4655 19.6808 6.38203 -0.681364 0.706887 0.189881
12.782 19.5459 14.7328 -0.212017 0.972793 -0.0933989
13.3535 21.774 11.8521 0.025461 -0.999349 -0.0255758
13.8476 8.74091 17.2946 0.198014 0.932466 -0.302154
14.1422 14.5662 17.4771 -0.165652 0.110805 -0.97994
15.107 19.7392 8.40564 0.898701 -0.347647 0.267353
10.7018 14.2084 17.918 -0.0377876 0.263258 -0.963985
21.4558 19.1057 7.1884 0.553768 0.304071 -0.775166
20.39 19.0999 13.8645 -0.951354 0.227234 -0.208063
9.98383 14.9673 10.9248 -0.766549 0.563156 0.308639
10.4237 13.8394 11.4965 -0.961316 0.275355 0.00720144
8.39281 20.4314 13.7579 -0.60201 0.521298 -0.604841
12.5776 17.7591 14.5219 0.391972 -0.846248 0.360863
11.3654 15.5854 9.09917 0.641398 0.737937 -0.209901
17.9881 16.0437 12.1813 -0.378747 -0.848187 -0.37031
14.7341 21.8207 14.0775 0.705515 -0.698536 -0.119564
14.0739 13.5273 18.1773 0.389641 0.0731646 -0.918056
17.2872 16.1878 20.0841 -0.893203 0.284949 0.347839
20.3316 18.0409 15.4724 0.60675 0.559657 0.56448
19.4891 14.6617 7.09058 0.319575 -0.590203 -0.741305
9.57796 13.7593 12.601 -0.809528 0.382539 -0.44534
15.2835 11.0057 10.4173 -0.445812 -0.0637708 -0.892852
16.6258 13.1235 10.0818 -0.206943 0.954219 -0.215967
12.7184 11.7 8.87811 0.684581 0.728932 -0.00255162
19.3444 18.6785 15.7817 -0.834122 -0.111638 -0.540164
9.56088 11.2837 16.0681 0.122793 -0.973885 -0.190968
12.0346 14.0563 18.0984 -0.0169005 -0.109089 0.993888
11.9708 11.5223 19.8148 0.611686 0.15329 -0.776107
18.9203 15.9589 9.29989 0.121211 0.791597 0.598901
10.522 9.15429 13.8563 0.85978 -0.494321 -0.128162
17.5838 10.1653 8.68822 -0.184582 -0.909505 -0.372465
20.567 18.5891 9.26798 0.274261 0.644824 -0.71343
16.0115 14.1634 6.50835 -0.970395 -0.234407 0.0581933
12.9803 20.1872 15.7224 0.17794 -0.983403 -0.0354255
18.1816 13.2662 13.9069 -0.372006 -0.701097 -0.608337
14.8371 14.0205 19.3588 0.515583 0.174664 -0.838848
13.3781 11.8917 19.3856 -0.248458 -0.427326 0.869287
21.7314 9.24796 12.0434 -0.901789 -0.428469 -0.056492
20.1441 11.4971 6.47543 -0.0804 -0.773169 -0.629083
10.4844 14.8977 13.6823 -0.888306 0.124401 -0.442083
10.8161 8.60366 10.6238 -0.129161 0.483232 0.865912
11.2336 13.5262 17.1284 -0.201653 0.279128 -0.938842
9.39991 9.88985 11.4941 -0.697688 0.503286 -0.509838
8.6683 8.78032 14.8168 -0.576166 -0.782243 0.236915
10.2136 18.1637 12.107 0.365977 -0.829319 0.422245
16.3637 8.81552 17.9691 -0.805997 -0.33015 0.491295
9.82035 12.2173 6.98618 0.73563 0.407199 -0.54133
21.9047 15.4036 8.23 -0.586749 0.234555 0.775055
20.4721 19.3574 18.2329 0.924444 0.363002 -0.116764
16.5202 10.4702 13.9909 -0.827076 0.280932 -0.48685
19.3126 17.2856 7.78541 0.151355 0.303258 -0.940812
10.6886 19.3318 16.1492 -0.683923 -0.262549 0.680674
12.5003 18.0671 17.1269 0.180901 -0.715951 -0.674307
13.6485 17.6553 19.1351 0.0162517 -0.858278 0.512928
14.8392 15.02 7.21055 -0.774464 -0.372393 0.511399
20.8427 22.3411 18.1806 0.219605 -0.300419 0.928182
9.03795 21.3999 13.561 0.494274 -0.419387 0.761451
10.9761 12.7347 13.8609 -0.983379 -0.167203 0.0707694
19.1742 17.7964 19.6598 0.997208 -0.0298326 0.0684531
21.1326 14.6445 8.80572 -0.610838 0.615647 0.497852
19.5401 11.5923 19.3206 0.0316769 0.736814 0.675353
15.3087 22.327 14.7855 0.122847 -0.956913 0.263109
18.3201 12.0979 11.3687 -0.0262559 -0.992553 -0.118948
13.3684 14.2829 20.2326 0.409603 -0.100475 -0.906714
10.6097 16.1811 6.78057 0.806854 0.268222 -0.526349
15.2707 21.1166 12.9041 -0.0410602 -0.778364 0.626469
14.0084 11.0697 19.9147 -0.506726 -0.67701 0.533747
16.122 20.1321 16.0431 0.361475 0.888239 -0.283492
13.453 13.838 10.7068 0.879617 -0.47552 -0.0124442
15.09 16.9989 13.1085 0.182661 -0.147146 0.972102
16.4929 10.6455 10.3986 0.475421 0.634499 -0.609414
20.7429 10.26 11.9024 -0.950338 0.107198 0.292174
21.8302 18.1945 7.6834 -0.658715 -0.54648 0.51716
15.8665 17.5602 18.934 -0.219588 -0.640254 0.736109
12.3899 18.1537 8.23011 0.196424 0.863368 -0.464772
9.99248 19.8266 12.0988 0.860867 -0.482501 -0.161558
10.5147 21.8927 17.46 0.278487 0.763016 0.583311
18.6786 15.8968 18.361 0.322922 -0.098693 0.941266
14.1912 16.7655 7.15755 -0.245305 -0.222458 0.943577
15.9954 14.9045 10.4778 0.390481 0.837598 0.382039
18.2247 9.58929 17.3834 0.369937 -0.496428 -0.785306
17.9503 11.0243 12.8068 0.117226 -0.623486 -0.772996
14.5112 17.8947 11.2929 -0.598652 -0.516055 0.612619
11.9016 15.2138 10.5742 0.857949 0.205412 0.470882
16.8709 18.0923 14.7669 -0.675784 -0.505336 -0.536612
12.897 9.17263 16.9348 -0.0768883 -0.98235 0.170519
8.78038 11.5486 12.171 -0.912379 0.200311 -0.356986
20.9447 11.6664 13.7313 0.884622 -0.122132 0.450032
17.8758 22.3926 18.017 0.0323221 -0.380385 0.924263
8.53508 13.6272 11.4288 -0.887577 0.45517 0.0709073
8.69883 20.2357 15.7162 0.664974 0.14628 -0.732402
12.5885 18.5437 19.6769 0.3651 -0.900091 0.237778
9.92066 19.6551 9.12633 -0.552405 0.598258 0.580462
9.08741 17.4976 14.9883 -0.299791 -0.662431 -0.686521
19.3093 11.302 7.36912 0.242033 -0.309537 0.919569
14.4087 16.5675 11.4934 0.601049 0.173417 -0.780171
21.5942 10.3884 7.39921 0.546301 -0.29593 0.783569
22.1602 11.1668 8.09546 -0.920641 0.290634 -0.260677
9.97227 9.48521 12.8907 -0.991869 -0.0900093 -0.0899649
13.7274 11.1277 13.2507 0.0152426 0.941588 0.336422
11.9492 15.3817 15.9694 0.305111 0.23831 0.922017
11.6511 18.6636 7.36081 -0.47043 -0.828219 0.304547
11.3249 10.9402 8.19774 0.547911 0.310492 -0.776781
19.7351 19.4877 17.0235 -0.809017 -0.403232 -0.427663
20.8268 22.0334 9.70775 0.850982 -0.453673 0.264595
10.915 22.4088 12.0291 -0.401354 -0.816677 -0.414674
19.1316 19.4481 10.3866 0.340476 -0.334919 0.878581
8.6229 14.0416 17.8346 -0.0583226 -0.933855 -0.352864
18.9419 20.1258 8.01528 -0.720858 -0.117375 0.683072
19.1481 17.7421 11.8811 -0.454572 -0.876044 -0.160972
16.7242 19.5551 17.8131 0.764929 0.470298 -0.440118
8.72406 14.9554 19.2432 -0.690351 -0.546423 -0.474171
17.9066 21.5428 11.7939 -0.272607 -0.200603 -0.94098
12.5895 11.2295 13.0413 -0.320279 -0.812146 -0.48769
10.0745 18.0219 18.9651 0.550188 0.747035 0.373137
12.4008 13.6798 12.5602 0.26546 -0.202254 0.942669
8.35363 14.3019 13.1348 -0.978148 -0.0109919 -0.207617
11.7217 12.6286 20.067 0.325314 0.405671 -0.854167
16.3097 10.9388 15.2464 0.98509 -0.172015 0.0028201
13.4722 22.0831 18.9611 0.19013 -0.593568 0.782003
16.9816 11.2549 19.4654 0.697127 -0.188254 -0.691791
21.5385 22.0897 7.10371 0.965038 -0.226291 -0.132267
9.89447 13.8144 14.7716 0.844682 0.0380125 0.533916
19.2777 17.7616 9.16838 0.407734 -0.398494 0.821557
18.2151 17.7482 18.2382 0.889205 0.443514 -0.112292
14.877 18.2985 8.70039 -0.44873 0.850716 0.27372
15.6018 16.5839 16.876 -0.262899 -0.671218 -0.693073
17.129 12.6788 11.341 -0.433082 0.768995 -0.470198
15.2611 10.9234 14.3409 0.525666 -0.819775 0.227254
13.5931 11.0741 12.085 0.896995 0.341206 0.28103
12.3865 20.5097 9.49883 0.0521039 -0.890911 0.45118
9.20744 17.482 9.29752 -0.867651 -0.400593 0.29446
15.2538 12.4856 20.0377 -0.535803 0.73088 0.422765
11.1044 10.9301 10.8236 -0.777061 -0.261493 -0.572536
10.6662 15.0376 7.21667 0.760744 0.0881231 -0.643042
22.2968 15.2699 12.1768 0.850717 -0.390738 0.351573
14.2396 19.8355 10.0441 0.118728 -0.403685 0.907161
14.347 15.9736 20.074 0.0233733 0.182949 -0.982845
13.3946 20.071 10.7016 0.0745713 -0.486922 0.870256
10.5235 13.0682 19.6099 -0.813071 -0.17556 0.555063
9.97398 13.6542 6.7801 -0.666474 -0.674681 0.317203
9.10162 14.1312 16.7414 0.0626433 0.945888 0.31839
13.5119 19.1806 12.9382 0.211828 -0.942494 0.258521
19.3771 10.0596 9.81307 0.0801628 0.971868 0.221466
10.7686 10.5428 7.25389 0.664196 -0.0200566 -0.747289
15.946 19.7339 19.0691 0.976964 -0.0648707 -0.203307
8.46899 10.6444 16.9628 -0.295996 -0.0707744 0.952564
19.5069 10.0014 11.0608 -0.65205 0.700796 -0.289337
14.5105 13.5662 8.5101 -0.959706 -0.278085 0.0404074
16.1899 21.7959 13.1501 0.150838 -0.817038 0.556504
20.3927 18.1226 7.39437 -0.134679 -0.84688 0.514447
8.34845 17.1018 7.68105 0.364562 0.61074 -0.702916
17.6133 8.67583 6.66052 0.934258 0.324892 -0.146991
20.7464 13.4697 14.7101 -0.856783 0.37828 -0.350467
12.9442 21.0996 20.2762 0.543541 -0.838717 0.0334306
17.7677 21.5676 6.60027 -0.796429 -0.530234 0.290779
15.8188 10.5493 6.51816 0.833997 -0.196963 -0.515417
16.033 14.665 19.3659 0.696569 -0.194397 -0.690652
19.4535 17.5658 10.9053 -0.457128 -0.889352 0.00934469
13.5338 13.386 13.8171 -0.306017 -0.741225 0.597444
15.6038 21.7933 8.31926 0.576081 0.163087 -0.800958
17.7451 10.0841 6.66653 0.886257 -0.351888 -0.301204
12.3096 13.2684 10.5807 -0.91927 0.35806 0.163509
12.82 17.374 6.77255 0.95379 0.274616 0.121948
20.6684 19.9476 13.1421 0.572558 -0.81935 -0.0290288
17.0086 10.4215 12.7326 -0.340933 0.739186 0.580835
19.8884 22.399 12.5488 -0.279261 0.789776 -0.546139
12.7287 12.3891 20.1572 -0.298861 -0.552323 0.778217
16.8766 20.91 10.4778 -0.0298341 0.0693217 -0.997148
21.0638 12.0176 9.8778 0.680531 0.70623 0.195235
9.29701 16.9681 12.4552 -0.439654 -0.241143 0.86519
12.8729 15.2441 15.4602 0.073759 0.00876225 0.997238
8.85582 12.5142 8.14179 0.812321 0.498568 -0.302596
8.35491 15.4995 13.8605 0.268433 -0.930774 0.2482
17.2346 18.52 19.9955 0.295574 0.63411 -0.714522
8.91255 21.4612 11.8723 0.852937 0.304393 -0.42408
18.501 10.7708 17.0294 0.493509 0.0295175 -0.86924
14.9818 19.9726 18.2686 0.943224 0.176212 -0.281565
11.1857 19.5796 9.00406 0.401075 -0.911344 0.0926856
19.432 16.9317 12.7409 0.232258 0.963421 0.133704
11.8893 16.257 17.6181 -0.151153 -0.217894 0.964196
10.0547 19.9743 15.4889 -0.171004 0.725841 0.666267
21.5927 12.6127 16.5634 -0.345037 0.0274211 -0.938188
15.8283 21.0886 20.2975 -0.679752 -0.522748 -0.514463
18.6487 22.356 7.21328 -0.912054 -0.0555073 0.406296
9.9535 21.5072 12.3956 -0.478455 0.843215 0.245089
14.2282 22.3445 12.8758 -0.307789 0.86623 -0.393587
9.35513 19.6707 16.4783 0.0118787 -0.553792 -0.83257
22.333 14.831 16.3176 0.263632 0.80847 0.526189
22.0236 12.2826 7.3935 0.256832 -0.933599 -0.249861
9.98436 12.4843 9.66845 0.793874 0.365255 0.486161
20.109 18.3581 18.811 0.85402 0.517579 0.0525458
11.2335 21.1625 8.50455 0.618205 -0.757949 0.208172
15.3453 14.3472 9.29976 0.950539 0.255117 -0.177174
20.3664 21.1335 14.6015 -0.0935824 0.89344 -0.439326
19.1393 8.60322 14.2942 -0.381439 0.843731 -0.377654
17.8974 15.5756 9.34778 0.0544013 -0.958585 -0.279564
13.2748 21.5327 7.48128 0.483822 -0.283461 -0.827989
16.3372 10.9397 18.5803 -0.818616 0.397103 0.414942
10.2438 15.0375 18.8582 -0.855428 -0.486713 -0.177067
8.94982 21.2757 16.5191 0.568433 -0.195132 0.799254
20.5684 10.622 7.78035 -0.676016 0.0754766 -0.733012
20.5804 13.4669 18.3093 0.354185 0.554408 0.753117
8.78958 18.9567 11.6718 -0.583532 -0.0243503 0.811725
20.8824 11.5937 15.6261 0.436957 0.0344643 0.898822
12.5373 14.82 19.8136 0.489736 0.238811 -0.838527
14.309 10.6774 15.3131 0.621297 -0.706548 -0.338792
17.5329 20.4966 12.2751 0.760498 0.108734 -0.640171
10.8173 17.2402 11.4251 -0.428578 0.858801 -0.28068
21.4424 10.2594 16.3756 -0.536084 0.398641 -0.74411
14.3409 13.8116 15.9674 0.467167 0.164526 -0.868727
15.3862 11.6477 16.6349 -0.809067 0.214392 0.547217
16.2418 19.2321 13.6622 0.300588 -0.952923 0.0398121
16.629 9.38221 10.8081 0.556053 0.619057 0.554593
11.6269 21.0591 11.3629 -0.052872 0.736522 0.674344
8.5587 9.8993 7.10062 0.131152 -0.622894 0.771234
13.6499 18.252 7.71604 -0.77485 -0.628496 -0.0678188
14.9929 8.95361 13.586 -0.598013 0.778196 -0.191812
8.60905 15.3493 10.1667 0.763085 0.622164 0.174967
11.651 10.9958 18.6344 -0.460223 0.430277 -0.776567
17.8975 10.0414 13.3818 -0.012653 -0.660072 -0.751096
20.1506 17.0592 8.94974 -0.296721 -0.884722 0.359477
16.9739 15.3693 6.83358 0.826488 -0.470221 -0.309531
21.9468 14.159 14.4762 0.480112 0.514058 0.7108
11.2528 12.0909 12.7421 -0.834448 -0.281632 -0.473688
15.4601 12.1492 8.78144 -0.586172 -0.286702 0.757763
13.8649 19.7276 17.6524 0.14993 -0.932088 0.329746
13.8734 14.5046 8.82195 0.834725 0.547345 -0.0603977
13.3949 9.78648 19.5901 0.728048 -0.189916 -0.658694
17.9836 12.9403 15.0069 0.627679 0.570137 0.53006
8.57938 10.5042 12.5474 -0.948569 0.189856 -0.253323
9.65336 13.3715 18.6186 0.930154 -0.31012 -0.196568
9.77323 17.9078 8.10736 -0.819562 -0.525017 0.229511
10.581 12.8608 12.0635 0.682799 0.476383 0.553936
20.9545 17.2392 15.0295 -0.529217 -0.615625 -0.583897
21.6753 18.2637 16.7765 0.115408 0.870887 0.47774
19.4388 19.0704 9.01782 -0.434702 0.0196475 -0.90036
20.5966 17.4648 10.9721 0.479579 0.865331 -0.145627
8.71184 14.4069 8.36409 -0.299315 -0.936392 0.183248
9.65836 11.0371 6.93628 -0.861071 -0.241715 0.447359
21.1779 20.5986 14.1098 0.283845 -0.673892 0.68213
20.8987 19.5271 9.72735 0.208355 0.527071 -0.823883
8.83072 18.0504 12.8526 0.50993 0.753795 -0.414444
10.854 18.1336 15.0475 -0.0955273 -0.969178 0.227088
12.5536 16.6165 10.7566 0.757276 0.568888 -0.320778
10.4601 20.2488 16.963 0.487512 0.0924954 -0.868203
17.0254 12.2715 16.5884 0.802082 0.344963 -0.487508
9.53868 18.9101 7.71286 -0.873304 -0.367776 0.319499
10.0386 18.3412 17.5467 -0.554758 -0.310325 -0.771973
14.8641 9.86356 8.87112 -0.729612 0.576215 0.368297
22.0623 14.9341 11.1124 -0.942031 0.168059 -0.290404
16.1195 10.0542 12.1424 0.267781 0.686113 -0.676418
13.6721 17.4143 16.5437 0.381075 0.414754 0.826293
11.2842 9.83906 9.24161 0.212489 0.43062 0.877163
17.6817 13.0496 9.55744 -0.154069 -0.987864 0.0197033
19.7819 8.52016 18.42 0.545258 -0.325032 0.772689
8.91076 9.56811 15.9628 0.0589012 0.587633 -0.806981
13.8938 18.6685 15.3111 -0.252336 0.859402 -0.444696
15.066 16.0659 12.118 0.733521 0.0836161 -0.674504
9.32271 21.08 9.25058 -0.759875 0.121833 0.63855
18.902 15.7535 11.4833 -0.589954 -0.774317 -0.228885
18.1879 17.973 12.4783 -0.818921 -0.51436 -0.254562
11.7462 17.3989 10.3433 -0.937361 -0.264597 0.226591
20.6934 13.4026 8.20853 -0.0592272 0.476139 0.877373
15.4049 18.0904 12.6912 0.585848 -0.39653 0.706786
22.315 17.1271 15.6396 0.53493 0.373297 0.757957
9.16443 9.7844 18.1956 0.365052 -0.00859493 0.930947
16.7461 19.018 15.856 0.529798 0.835065 -0.148257
12.6096 8.78329 8.0502 0.416748 -0.401838 -0.815382
14.4626 21.2821 17.3332 0.228777 -0.421676 0.877411
17.7731 12.3592 8.22773 -0.4682 -0.548923 0.692439
12.7634 14.3265 9.6761 -0.982359 -0.0131637 -0.186542
8.40936 13.1323 6.69086 -0.368482 0.919312 0.138153
20.4563 18.489 12.8599 0.4987 -0.832476 0.241416
20.7533 15.7872 7.27452 0.86632 0.239981 0.438063
17.2276 9.23673 13.6081 -0.82725 0.48392 -0.285445
8.36335 18.6032 20.093 0.299569 0.771593 -0.561162
15.5721 19.0376 7.41404 0.596606 0.787008 0.157097
9.90276 20.723 10.5667 -0.287247 0.0975413 0.952877
16.8592 15.1509 16.5058 -0.432351 0.891967 -0.132167
16.8033 21.983 17.6655 -0.384528 -0.415571 0.824281
8.81628 21.8839 8.64653 -0.886482 -0.19193 0.421085
16.0197 12.79 16.3952 -0.402652 -0.317999 0.85834
13.3965 9.62384 13.7037 -0.315084 0.939994 0.130893
12.0233 17.1562 11.5595 0.0709398 -0.824978 0.560694
16.7062 8.80772 15.9488 -0.771293 0.520233 0.366694
20.1192 14.7287 14.6615 0.987532 0.0619273 -0.144727
17.6572 11.2376 20.2955 0.705071 0.0543347 -0.707052
11.4721 18.1379 12.0084 0.521986 -0.572515 0.632263
10.8986 20.0782 7.9016 -0.322434 0.925251 -0.199868
11.247 21.6059 18.8845 0.0843673 -0.128589 -0.988103
21.4516 18.4245 12.3969 0.177803 -0.886109 0.428015
16.3143 13.1437 6.5002 -0.900168 -0.0916953 0.425782
12.9632 14.5933 12.4652 -0.125876 0.145939 -0.981253
14.5162 18.8436 18.7232 0.705019 -0.489416 -0.513245
18.3541 8.67535 15.07 0.240774 -0.779354 0.578477
9.85889 21.8544 7.18921 0.932629 -0.186424 -0.308949
20.1893 18.9011 14.9133 -0.811553 -0.484541 -0.326498
22.1492 19.3467 9.5245 -0.679363 -0.617975 0.395692
21.5662 18.7725 15.3905 -0.351657 -0.459837 -0.815406
11.7918 22.3177 10.9852 0.129208 -0.801332 -0.584099
16.0658 21.2313 11.7601 0.0672064 -0.535894 0.841606
10.6235 18.5011 13.9374 0.210904 0.975119 0.0682877
14.8568 20.5772 15.9189 -0.0540198 0.955554 -0.289825
18.1129 14.9556 16.926 0.556147 -0.823177 0.114369
13.2216 18.462 16.4479 0.0525007 -0.620057 -0.782799
12.3407 19.7575 17.4513 0.668205 -0.076677 -0.740015
20.0326 19.7696 8.34639 0.0133535 -0.387141 -0.921924
18.7183 9.37845 12.0616 0.0732025 0.900566 -0.428512
10.3736 18.1969 16.2638 0.397824 -0.469156 0.788434
14.3954 8.49442 11.7479 0.0828845 -0.9358 0.342649
18.4971 19.6301 11.5935 -0.0118429 -0.509076 0.86064
10.0043 16.104 18.5194 0.93021 0.32598 -0.168659
14.3674 13.4225 12.8528 -0.14649 -0.696056 0.702884
15.5813 13.2165 10.9336 0.666443 -0.476756 0.573199
9.18905 10.6188 13.9518 0.855831 -0.306712 -0.41651
18.42 10.413 7.41092 0.850539 -0.162055 -0.500321
9.96522 16.8453 7.66383 0.881636 0.325557 -0.341659
10.4518 17.3403 18.0032 0.484392 0.117614 0.866909
20.7319 9.86259 20.2476 0.998991 -0.044137 -0.00826325
15.0311 21.7914 20.1984 0.619859 0.253773 0.742546
10.7456 10.7565 19.6245 0.136216 0.793027 -0.593762
21.5625 11.2622 17.9776 -0.221885 -0.222008 -0.949463
18.0745 14.9626 18.2269 0.838213 -0.18303 -0.513712
20.0853 9.09828 10.2759 -0.203476 -0.885939 0.416785
9.93714 18.7819 9.70609 -0.905847 0.330367 0.265141
20.5917 14.5353 20.0391 0.47686 0.396173 0.784634
19.8386 12.5537 8.1046 -0.454224 0.814834 0.360175
11.3751 17.2721 14.5029 0.111602 0.965429 -0.235568
20.7455 16.8773 10.0326 0.456958 0.889473 -0.0052107
21.8947 18.195 11.2488 0.552451 0.638918 -0.535332
20.1223 14.0299 11.8393 0.0182227 -0.614767 -0.788498
20.1923 12.5999 14.996 -0.256926 -0.101657 -0.96107
11.6698 11.8105 15.6611 0.8848 -0.237523 -0.400889
10.9976 21.0185 10.3374 0.396564 -0.735261 -0.549663
8.63609 16.6575 20.063 -0.322283 -0.90788 -0.268119
11.8116 8.98777 14.4699 -0.40554 0.899416 0.163057
22.2008 20.8903 11.0712 0.733588 -0.220718 -0.642753
10.5973 13.9767 7.64247 -0.862156 -0.0968498 0.497299
13.7706 21.2832 13.8397 -0.613759 0.787154 -0.0607252
17.1514 11.9119 18.4593 0.865537 -0.116084 -0.487207
21.7982 9.48158 14.1825 0.152702 0.963924 -0.218018
19.4096 9.1175 16.2106 -0.347346 0.366107 -0.863317
12.0313 20.3081 20.3039 -0.420533 0.907173 0.0137747
15.1428 12.9771 11.9724 -0.818964 0.375064 -0.43431
12.7893 17.9785 13.3156 -0.534772 0.688629 -0.489703
18.6259 16.7792 19.4005 -0.923311 0.0969533 -0.371613
8.72395 22.3346 15.9973 0.720183 -0.0792015 -0.689249
11.9754 10.0378 8.20801 -0.23506 -0.0326168 -0.971433
17.3278 8.51057 19.4038 -0.926414 -0.0258853 -0.375616
13.8139 17.8736 14.4787 -0.106509 -0.825292 0.554571
9.96709 9.81576 17.4598 -0.597234 0.321383 -0.734863
12.4704 16.1109 8.01559 -0.591462 -0.7175 0.367921
19.9739 16.0791 18.9824 -0.405855 -0.674227 -0.617009
15.6705 20.248 11.4365 0.931179 -0.0979488 0.351157
18.2578 15.4786 10.3317 0.343215 0.937754 0.0531217
12.4414 11.7408 14.4028 -0.138557 0.98989 -0.0303238
21.709 20.5588 7.5389 0.569326 0.55232 -0.608942
16.9712 15.1299 13.4184 0.524625 -0.428326 0.735734
17.1196 19.8904 10.4394 0.0530425 0.0262188 0.998248
18.1279 12.9325 12.5836 -0.0164749 -0.955429 -0.294761
18.4727 18.6508 9.62653 -0.188464 0.355055 -0.915651
11.6082 9.68192 19.4373 0.316707 0.132761 0.939186
21.523 22.0975 12.6261 -0.619938 -0.771252 -0.144381
21.5478 10.3518 10.2353 -0.593938 0.43047 -0.679657
15.9887 15.1854 8.53471 0.8115 0.493844 0.312388
9.69965 18.8404 6.44031 0.613764 0.476856 -0.629208
11.5292 16.9169 7.98782 -0.490241 -0.710179 0.505281
19.5731 20.4131 11.4753 -0.0585287 -0.858688 0.509146
14.1694 18.9477 16.7124 -0.285017 0.518346 -0.806277
11.2965 13.8361 13.8598 0.989748 -0.0265246 0.14034
18.0214 17.1677 20.3281 0.998742 -0.00662222 0.0497127
14.7373 10.2077 19.4344 0.603755 0.296075 -0.740148
16.2067 14.3213 17.2363 -0.203636 0.448248 0.870406
10.9332 22.2547 14.9584 0.43325 -0.173285 -0.884459
15.9774 8.60378 9.14154 0.933926 0.265586 -0.239263
11.765 13.3888 8.19004 0.465573 0.525085 -0.712409
9.02938 17.8685 11.5204 0.656393 0.335508 -0.675709
16.8647 16.9842 11.2897 0.91849 0.214116 0.332461
20.7225 19.6823 16.3526 0.655088 0.0206767 0.755269
21.1507 18.4514 18.0343 0.820092 0.569612 0.0546918
22.2798 19.7557 18.7068 0.870445 0.214973 -0.442845
18.0462 17.6159 14.6121 0.844016 0.27918 0.457926
21.4597 15.801 20.1818 0.363755 -0.594453 0.717152
14.8814 19.0694 14.1671 -0.728091 0.659937 0.185383
13.6366 20.6128 14.9845 -0.61426 0.642366 -0.458313
20.8032 14.943 11.7637 -0.777638 0.487234 -0.397345
12.0475 20.878 17.9887 -0.0757361 -0.399377 0.913653
10.2816 13.4036 8.84208 -0.854698 -0.518245 0.0302366
11.4435 18.6354 17.2835 0.00563414 0.31145 0.950246
21.9581 14.1574 17.1052 0.233113 -0.845163 -0.480997
9.34431 15.0918 15.3712 0.0822956 -0.31034 -0.947057
16.778 15.3745 15.4632 -0.118897 -0.99084 0.0640311
11.0245 20.4572 14.7147 0.946101 0.232581 0.225387
10.1902 15.5814 9.97647 0.648152 0.759547 0.0546573
11.088 20.2346 19.6222 -0.357836 0.790289 0.49739
9.51698 13.9365 10.4898 -0.919702 0.391624 0.0279224
21.5854 9.16847 7.39719 0.731535 -0.604429 0.315471
10.5908 16.7534 16.6567 -0.288182 0.442726 -0.849084
18.3686 10.1948 15.0888 0.329098 -0.0546678 -0.942712
12.1741 20.838 7.23828 0.800811 -0.552515 -0.231147
20.3813 9.4625 18.1079 -0.153994 -0.0526472 -0.986668
13.1879 18.9861 6.90791 0.689078 0.723568 -0.0402635
19.681 15.6816 14.4298 0.967626 0.163929 0.191904
15.2113 19.7671 12.63 -0.0692983 0.843983 -0.531874
12.1658 16.2683 14.9789 0.142348 0.81366 0.563644
16.6273 18.3659 12.713 0.815413 -0.460306 0.351026
9.50281 10.0307 7.66916 -0.429947 -0.0434056 0.90181
21.8081 8.8563 10.7337 -0.887123 -0.331794 -0.32082
16.3187 13.613 19.5047 -0.966906 -0.253417 0.029537
16.4069 20.7633 19.4923 0.805506 -0.0261337 0.592012
17.6047 8.94122 10.3754 0.117045 0.276136 0.953965
16.4264 15.7129 14.4684 0.348667 -0.929882 0.11726
10.1044 16.7902 14.6542 0.127499 -0.990884 -0.0434982
21.4959 9.09762 18.1016 -0.184753 0.297001 -0.936833
16.2333 10.3223 8.37088 0.826109 -0.26529 -0.497156
19.0862 14.007 11.2922 -0.262865 -0.838975 -0.47647
18.6555 9.36889 10.6789 -0.516638 0.742754 0.425912
11.748 19.6671 14.2914 0.0159047 -0.766163 0.64245
19.9179 14.2667 18.0167 -0.397056 -0.531569 -0.748185
20.6486 20.74 11.5025 -0.17694 -0.695559 0.696341
18.5077 13.1028 8.90533 0.0357561 0.998938 -0.0290448
13.5072 8.58527 9.69716 -0.692034 0.718378 0.0708705
13.0619 15.9294 11.8774 0.469425 0.454435 -0.757053
11.7559 22.1686 8.12209 0.551209 -0.331595 -0.765646
16.9149 8.95497 12.2321 0.739054 -0.338368 0.582499
18.9495 16.1247 7.46046 -0.314686 0.0750554 0.946224
14.651 12.6978 17.7181 0.315371 0.355388 -0.879909
10.8391 10.3417 14.0201 -0.536833 0.758396 0.369658
13.1816 22.216 12.8764 -0.190225 0.981007 0.0379493
20.1089 19.8612 20.2968 0.670434 0.371081 -0.642509
13.4344 13.8592 7.65142 0.723554 0.191417 -0.663196
21.3606 20.5058 10.2274 0.228828 0.496564 -0.837294
22.0258 11.438 9.32363 -0.897391 -0.260754 -0.355946
16.2284 12.1287 6.86774 -0.865068 0.0455494 0.499583
19.625 13.3753 9.33631 -0.349138 -0.926942 0.137411
12.4173 16.7469 13.8466 -0.450475 0.881931 -0.138813
14.8868 20.631 14.6508 -0.595989 0.760379 0.25811
20.0174 18.4076 17.2718 0.838331 0.542599 -0.0527892
8.38464 20.3893 17.3783 -0.136846 0.959895 -0.244693
18.3247 14.9905 13.4187 0.694027 -0.442406 0.567981
21.3403 15.6656 9.97514 0.31233 0.949613 -0.0261716
17.3905 11.0717 16.196 -0.90625 -0.0432073 0.420528
9.76769 8.73411 11.1191 0.27048 -0.202525 0.941182
12.4169 12.2046 9.89272 0.963286 -0.0908965 0.252623
16.5969 18.7508 9.57836 -0.795536 -0.445837 0.410308
10.931 21.7739 12.8895 0.605286 -0.772856 -0.190584
9.16037 15.7964 6.4519 -0.618491 -0.780962 0.0869921
11.13 22.4617 7.26691 -0.474725 0.351666 0.806825
8.67812 15.9995 9.01549 0.675725 0.688747 -0.262723
14.9126 15.8871 8.0507 0.961455 0.217626 -0.168059
8.68812 21.2672 14.7535 -0.556041 -0.823337 0.11373
16.8152 14.5068 12.1293 0.661763 -0.0824858 0.745162
13.7969 20.8332 16.1209 0.0725086 0.828194 -0.555732
16.1077 20.7228 14.7526 0.067459 -0.897485 0.435855
14.5699 17.0702 18.0932 -0.714528 -0.615801 0.332023
12.2702 22.1846 18.7518 -0.302563 0.319382 0.898026
18.0734 19.5568 16.4739 -0.400844 -0.81351 -0.421339
14.3868 9.04758 15.4243 0.0209975 0.90376 0.427524
8.36495 22.4505 11.7712 0.841866 0.440797 0.311385
13.3892 8.73098 15.8886 -0.242127 -0.888552 -0.389679
14.5255 8.6207 18.2413 -0.195283 -0.876011 0.440987
12.9034 21.1257 18.7896 0.738621 -0.143398 -0.658693
12.322 16.0496 19.4454 -0.393064 -0.319668 0.862156
13.6186 20.3756 19.2243 0.990099 0.1307 -0.0511997
19.0894 19.6369 15.4803 -0.0722756 -0.366556 -0.927585
9.0976 10.7359 10.3162 0.82632 0.055387 0.560472
12.0566 13.4284 6.62689 0.451596 0.468839 -0.759112
16.1229 17.9428 19.9252 0.133764 0.653863 -0.744695
8.5039 20.6865 8.53761 -0.698614 -0.366415 0.614556
22.3937 9.56888 9.59196 -0.365405 0.678034 -0.637769
12.3278 22.4745 12.0628 0.121277 -0.875229 -0.468259
21.7188 20.8894 19.5216 0.789391 -0.547443 -0.277792
9.90992 8.54388 18.2799 -0.327346 0.285351 -0.900788
18.1576 9.27655 7.64591 -0.904035 0.0917907 -0.417487
16.0442 8.9347 7.5038 -0.949894 0.236114 -0.20482
17.769 15.2624 14.8663 0.485532 -0.825999 0.28633
16.9252 11.4576 8.09573 -0.354946 -0.440972 0.824353
13.1191 14.3553 18.4615 0.211716 0.582345 -0.784889
13.1494 10.3114 10.7845 -0.841575 -0.310655 -0.441865
12.6025 9.56864 11.6378 -0.24733 -0.380217 -0.891214
14.8966 17.808 14.0341 -0.308422 0.448636 -0.83881
9.50682 20.0908 19.2914 0.330842 0.499037 -0.80094
11.6123 17.4071 16.473 -0.171174 -0.321249 0.931396
19.9379 16.3611 17.8666 0.59377 0.751263 0.28817
16.8252 15.4717 17.606 -0.528547 0.834472 0.155869
9.05318 17.6481 17.7063 0.000540156 -0.622041 -0.782984
12.6841 15.5719 9.6834 0.613479 0.514354 0.599236
17.5316 13.6277 8.33117 0.694319 0.70789 -0.129669
15.4743 9.57493 9.76752 0.669688 0.725456 -0.158843
12.2966 15.2677 18.4405 0.804693 0.492198 -0.33198
10.9413 14.709 15.6713 0.572215 -0.0453341 0.81885
13.062 21.3653 16.6707 0.569179 0.819608 -0.0654034
10.5174 10.9825 11.9269 -0.976485 -0.121972 -0.177766
11.2921 16.5937 19.2832 -0.726441 -0.409468 0.551923
16.2562 20.4031 8.69899 -0.025689 0.302989 -0.952648
21.9258 9.80961 13.0647 0.936178 -0.0395267 0.349296
16.6539 17.6048 9.31432 0.90933 0.317187 0.269281
12.5647 10.7303 6.97627 0.0502506 -0.0867434 0.994963
9.30427 16.5053 15.3439 0.265048 0.741582 0.616284
8.52486 12.9317 12.2245 0.78904 -0.591464 -0.16609
13.5584 10.8698 8.64107 0.696714 0.247093 -0.67345
21.4456 20.8807 15.3149 -0.121417 0.805185 -0.580461
14.7004 8.74483 8.53964 -0.459423 0.39807 0.794022
14.3354 10.0785 7.0416 0.785526 -0.32633 -0.525792
15.6401 15.1632 12.7031 0.0554919 0.139512 -0.988664
20.2256 14.7657 8.12108 0.843954 0.173589 -0.507551
12.5105 19.4503 13.4287 0.443055 -0.709712 0.547733
21.8321 18.5217 19.1074 0.748378 0.362606 -0.555381
17.8873 16.9609 16.4409 -0.904923 -0.325347 -0.274341
14.6262 14.7392 10.4072 0.119635 0.580755 -0.80524
12.4813 9.57782 18.614 -0.614032 0.608596 -0.502569
14.5259 10.1572 12.3965 0.815969 0.0303446 0.577299
10.8688 9.40635 7.13544 0.539537 -0.321925 -0.777987
9.99917 16.3044 11.1359 0.94044 -0.194835 -0.278589
9.62776 11.1815 9.36149 -0.900411 -0.376921 -0.217232
15.4275 21.7384 17.7506 0.560573 -0.725268 0.39968
18.801 10.9661 13.8621 0.190908 -0.240419 -0.95171
12.8153 20.3833 8.0885 -0.519527 0.814568 0.258013
8.65456 12.462 15.5711 0.68529 -0.65401 -0.320388
15.3123 10.9003 12.1237 -0.509039 -0.302047 -0.806007
8.70406 8.76605 18.1538 0.602964 -0.0583295 0.795633
14.0956 12.3493 9.42172 0.554448 0.828963 -0.0735403
21.581 22.036 15.789 -0.21643 0.723003 -0.656068
11.8418 17.7916 19.4999 -0.398497 0.812492 -0.425507
19.4017 20.4903 19.6756 0.667756 0.72628 -0.163156
13.7119 9.88031 14.7458 -0.570492 0.769755 0.286385
12.7569 14.7412 8.21721 0.719772 0.493932 -0.487811
15.6567 22.3255 15.8313 -0.322027 0.875657 -0.359894
16.2374 13.5273 12.6353 -0.108182 -0.143267 0.983754
20.7726 13.381 19.7516 -0.631265 -0.602989 -0.487758
13.2385 16.3366 6.70241 0.233165 -0.409364 0.882074
13.0167 11.4904 10.8638 0.760295 0.645214 0.075169
17.0499 9.09082 14.7335 -0.517804 0.846259 0.125399
9.57873 20.4347 13.2852 -0.879501 0.20313 -0.430367
21.8018 19.0202 8.56823 0.369199 0.811155 -0.453563
12.1686 21.6457 12.8109 -0.47589 0.860826 0.180299
12.7407 13.4116 15.0275 0.283332 0.76169 -0.582711
20.794 15.0924 13.5652 -0.97079 -0.039157 0.236715
9.31063 19.9398 8.07595 -0.54075 -0.70338 0.461353
16.9953 17.8596 19.0761 0.170874 0.942447 -0.287395
14.8358 18.0594 6.32612 0.428086 -0.894126 -0.131454
16.5 12.8662 14.554 0.536574 0.7888 -0.299806
19.0725 19.9031 17.7274 0.854372 0.494044 0.16115
10.7132 10.9379 17.2378 0.38894 -0.709339 0.587847
21.5866 11.1272 11.1467 0.830651 -0.360845 0.424039
16.7626 10.4685 17.3406 0.882837 -0.0594306 -0.465905
21.426 13.107 18.9446 0.509405 0.773797 0.37649
20.1736 21.6481 11.8902 -0.3446 -0.748348 0.566769
12.4512 11.6182 18.0153 0.312381 -0.84303 0.437856
11.701 21.4827 15.2511 -0.859789 -0.27961 0.427295
11.2089 16.0768 16.2397 0.288361 0.727142 -0.622987
14.284 20.2448 13.0329 0.129453 -0.922874 0.362693
15.4357 8.88636 20.2341 -0.961701 0.238238 0.135548
17.5709 15.9323 11.0397 0.635218 0.768836 0.0734095
21.1017 12.2781 8.47673 -0.551569 -0.833425 0.0342774
11.4837 15.1287 17.6383 -0.96292 0.105921 0.248126
13.1279 8.80558 14.6927 -0.475577 0.870385 -0.127501
12.0431 14.9842 7.45113 0.554536 0.535543 -0.636932
9.85016 21.6723 16.0164 -0.143967 -0.610434 -0.778873
21.0749 13.9726 7.163 -0.734068 -0.434025 -0.52227
8.41021 22.3618 13.9269 0.590385 0.769195 -0.24451
21.8485 9.23983 8.52151 0.82606 -0.497101 0.265547
18.9981 20.9485 14.8343 0.576589 -0.79889 0.17123
16.7163 11.445 14.3661 -0.926154 0.169863 -0.336727
13.9586 16.1396 16.1678 0.342573 0.742654 -0.57542
21.3869 10.9966 13.079 -0.948727 -0.0788731 -0.306097
10.338 9.02757 9.48417 -0.1982 -0.71733 -0.667948
13.5122 12.6839 11.6584 0.906421 -0.350476 0.235727
21.9479 9.4031 15.682 -0.381657 -0.378666 0.843179
18.8775 16.5684 14.745 -0.962464 0.0255833 -0.270202
21.4106 10.6502 14.7428 0.557984 -0.0865391 0.825327
9.31475 22.2479 19.8668 0.890533 -0.264242 0.370307
16.6866 21.877 15.0142 -0.471254 0.881933 0.0106512
17.3114 13.6732 15.5988 0.252729 0.384792 -0.887729
11.929 14.4754 13.0461 -0.495625 -0.16466 -0.852785
18.1119 14.0359 16.1851 0.377 -0.854119 0.358262
10.4325 19.6036 10.2158 -0.971517 0.0610598 0.228967
15.9158 15.7866 19.2923 0.0287647 -0.280286 -0.959485
20.2932 13.2631 12.4383 -0.780439 -0.384343 -0.493149
11.3782 17.0756 9.28554 -0.597152 -0.797224 -0.0885639
21.8494 13.6535 9.36068 -0.602041 -0.798269 -0.0177059
16.0649 9.09053 13.9748 -0.586506 0.795058 -0.154577
15.0939 20.6209 9.15419 0.0602375 -0.313486 0.94768
18.3115 20.3585 15.6413 -0.356297 -0.826555 -0.435729
14.5821 15.3632 14.3617 -0.0875595 -0.585509 0.805923
13.4875 13.5765 12.2907 0.248175 0.638271 -0.728711
12.9501 13.1884 18.1578 0.383149 0.643785 -0.662373
8.87088 11.5143 17.5078 -0.649909 0.582966 0.487615
12.1329 19.4733 8.44914 0.321114 -0.511025 0.797333
17.3947 16.5783 17.6279 0.705124 -0.0257098 0.708618
22.0641 20.0146 12.6208 -0.883202 0.468723 -0.0159208
11.5672 13.3952 14.9022 0.185662 -0.980983 0.0565817
20.2913 11.2608 11.5009 -0.816678 -0.0186478 -0.576792
13.5976 12.7795 7.65313 0.855014 0.130942 -0.501801
15.612 20.7311 16.9461 -0.327508 0.935261 -0.13426
19.4928 21.5441 15.7029 -0.145232 0.928742 -0.341095
13.3377 9.94982 17.8933 -0.344927 0.779945 -0.522218
10.6626 10.0107 11.6046 -0.535867 -0.0265588 -0.843885
17.364 16.7278 7.14285 0.993288 0.115128 -0.0111328
11.9132 11.0931 9.83753 0.9872 0.122304 0.102362
11.605 9.2898 17.4672 0.791903 -0.452727 0.409791
18.5502 20.9899 18.7965 0.16032 0.422946 0.89186
17.3674 19.2062 14.3129 -0.00608056 -0.841672 -0.539955
20.7473 21.2229 17.642 -0.702385 0.683856 -0.197474
9.85605 14.4281 8.88108 -0.743968 -0.317289 0.588082
19.4034 12.5303 16.3707 0.504799 0.647335 0.571082
18.2079 17.7964 7.31573 -0.130183 0.325806 -0.936431
13.5143 11.3801 7.41711 0.708287 -0.449809 -0.54406
19.488 19.0685 19.4568 0.880353 0.414538 -0.230514
15.7592 8.93211 17.145 -0.40107 0.867014 0.295685
16.8459 21.8989 12.1633 0.516809 -0.495433 0.69818
14.0443 15.4296 11.3228 0.148489 0.50246 -0.851754
19.3238 17.5119 15.991 0.742644 0.42683 0.516039
14.1144 21.0538 9.74778 0.483404 -0.0711829 0.872498
21.3699 15.0358 15.2964 0.0457481 -0.993277 0.106337
14.2552 19.7862 12.0704 -0.0418059 0.917884 -0.394641
11.5098 15.9448 7.43722 0.590955 0.415878 -0.691243
14.4189 13.5698 14.3945 -0.713977 0.0856487 0.694911
15.504 13.278 18.0944 -0.638413 -0.0582042 0.76749
10.0877 16.8941 9.64293 -0.649609 -0.75676 -0.0729586
15.5244 21.1631 10.3389 -0.525474 0.812266 -0.25318
18.0765 19.188 10.5032 -0.201131 0.533309 -0.821662
15.9347 17.3153 11.9723 -0.694436 0.00388676 -0.719544
12.1891 9.02471 6.68679 -0.327756 0.13556 0.934986
10.0039 10.244 14.8483 -0.592723 0.803882 0.0495325
19.9226 11.9211 9.13714 0.588208 0.801688 -0.106342
8.52759 16.1659 17.9235 0.0204522 0.919828 0.391788
9.85131 9.21679 20.0122 -0.38655 0.0370401 0.921524
20.0252 14.037 13.5206 -0.981426 -0.183836 -0.0548454
21.3447 10.1603 18.2945 -0.314016 0.0167553 -0.94927
19.8509 15.1448 15.635 -0.808892 0.514839 -0.283963
13.033 12.0048 12.3922 -0.856879 -0.221565 -0.465475
9.45161 12.3341 12.962 0.963642 0.263342 0.0452289
20.7669 15.6435 17.7882 -0.778392 -0.596153 -0.196741
17.2432 15.0593 19.6834 0.901413 -0.134552 -0.411522
14.6831 17.4879 10.0676 0.681969 0.31447 -0.660323
19.3732 9.30541 13.1751 -0.53652 0.74935 -0.3881
19.1142 14.1913 12.5602 -0.255506 -0.906576 -0.335911
9.18856 12.5286 18.1082 0.850047 -0.449039 -0.27529
13.2806 19.3816 9.49585 0.150138 -0.825183 0.544547
17.0227 19.3058 12.4357 0.784984 -0.522151 -0.333404
14.6569 15.4576 16.9995 -0.174238 0.322209 0.930496
12.2778 16.5367 9.72058 0.81973 0.46419 -0.335515
16.5497 17.7797 10.5583 0.948025 0.318145 0.00561643
15.4122 14.1928 12.2235 -0.0671678 0.0247771 -0.997434
12.939 16.209 16.4692 0.0368752 0.000813833 -0.99932
16.3644 16.4715 8.99479 -0.931218 -0.312575 -0.187427
15.2151 22.3754 11.0743 -0.248383 -0.935848 0.249988
18.1609 14.4161 12.1235 -0.407979 -0.849725 -0.333946
20.6492 12.1763 16.9044 -0.555512 -0.167902 -0.814381
11.3407 18.5631 10.2431 0.945516 -0.0773541 -0.316251
17.9518 19.5844 13.1664 -0.110615 -0.99069 0.0793575
13.7489 15.295 9.94288 0.296335 0.446405 -0.844339
19.1139 14.533 16.1624 -0.642446 0.627498 -0.439898
