20.5785 12.379 4.45213 0.0560745 -0.991777 -0.115042
19.2532 22.9331 4.48009 0.62195 0.0773585 -0.779227
21.7483 22.1494 15.4732 -0.908245 -0.393716 -0.141698
10.5894 22.7836 3.96621 0.581037 -0.573241 -0.577747
10.2036 22.8873 16.3587 0.267727 -0.900582 -0.342453
10.2731 12.3319 15.8627 -0.396895 0.694426 0.600205
10.6289 12.292 4.87672 0.606629 -0.545395 -0.578399
13.9602 23.4691 5.6294 -0.134568 0.398259 0.907348
12.1548 13.1501 16.6391 -0.548987 0.835829 0.0016603
13.029 11.9287 4.15165 0.521728 -0.725496 -0.448838
10.3603 14.06 3.86136 0.981882 0.169279 0.0851637
14.3028 12.6027 6.95373 0.111552 0.109755 0.987679
13.9623 23.4672 3.65721 -0.0367002 0.428445 0.902822
16.5116 11.9348 7.96286 -0.481451 0.338357 -0.808529
11.1925 12.8893 4.26251 -0.763732 0.592638 0.255918
13.8553 12.5851 4.05309 0.696668 -0.545698 -0.465689
14.3217 11.4982 4.29895 0.142556 -0.585948 -0.797711
16.2166 11.7719 4.51993 0.662782 0.466455 0.585782
13.4729 13.8035 15.5907 0.582883 -0.726841 -0.363249
17.6035 12.9746 3.68837 -0.680854 -0.456594 -0.572677
16.735 24.0488 6.52389 0.297064 -0.41858 0.858221
21.1558 10.9896 3.49095 -0.32204 -0.112179 -0.940056
16.2017 11.4572 15.4204 -0.631374 -0.731688 -0.256905
20.8372 12.216 16.2113 0.00537581 -0.683687 -0.729756
18.18 23.8758 13.3984 -0.977833 0.148905 0.147209
21.5227 12.8063 4.23816 0.068403 -0.881611 -0.466993
17.9602 14.7095 16.0231 -0.93824 -0.341017 -0.0584299
21.0928 11.9924 5.23991 -0.0463605 -0.996673 -0.0670321
20.1633 22.804 5.01685 0.402493 -0.206019 -0.891939
21.8301 23.2241 15.9538 -0.733373 0.391005 -0.556128
22.4886 24.0623 4.05737 -0.248658 0.960552 0.124533
11.3032 22.946 16.0575 0.458821 -0.749107 -0.477831
11.0467 23.3916 14.1983 -0.27246 0.654362 0.705391
10.4568 13.9308 6.01154 0.520624 0.808672 -0.273862
21.5612 17.1184 6.23321 -0.330476 -0.0911697 0.939401
11.1987 15.8091 6.07713 -0.702364 -0.0535601 -0.7098
21.5821 14.4463 16.712 0.839734 0.0854427 0.536233
12.0949 14.2257 15.9191 0.317237 -0.831791 -0.455505
13.59 15.1242 5.01676 0.770117 -0.106737 0.628909
12.2919 13.7853 5.38279 -0.584663 0.804816 0.102176
22.2425 15.2542 4.4847 0.853869 0.0196297 0.520118
17.1973 17.0413 15.9612 -0.757041 0.637404 -0.143545
10.5402 15.6671 16.1553 0.965863 -0.122985 -0.227997
12.7741 14.1686 3.55816 -0.430429 0.898847 0.0824943
15.7544 14.9071 3.56223 0.816115 -0.507478 -0.276445
13.8633 11.4779 16.2136 -0.389673 0.865405 0.315006
17.264 14.4742 4.68205 -0.884124 -0.31455 0.345518
14.2121 14.4211 15.2763 0.560217 -0.791432 -0.244526
16.6741 15.8403 16.6594 -0.875932 0.0538496 0.479419
15.1113 12.294 4.54605 0.23013 -0.106965 -0.967263
17.7388 17.8925 5.51695 -0.0804755 -0.119352 -0.989585
19.2629 14.4769 15.5044 0.930048 0.3115 0.194879
15.8636 12.7852 5.16699 -0.0370611 0.209963 -0.977007
19.9758 14.7773 6.43481 -0.233324 -0.200812 0.951438
19.6328 14.7198 11.824 -0.0143004 -0.25465 0.966928
22.0646 22.9597 14.769 0.864469 0.476528 0.160046
19.3975 15.611 6.68091 -0.0775245 -0.113388 0.990522
20.3182 16.3363 7.40246 0.502017 0.163177 -0.849325
20.2557 18.3323 4.6532 0.0109322 0.207661 -0.97814
9.79196 16.6211 8.20333 0.000489452 0.223739 -0.974649
20.5098 15.6799 6.21694 -0.268663 -0.189788 0.944352
10.4461 18.615 4.33115 -0.639599 -0.263545 -0.72212
10.0757 19.0202 16.3212 -0.656738 -0.29986 -0.691939
10.2678 16.7962 5.04734 -0.740497 0.119815 -0.661293
22.2537 16.7766 16.7206 0.985238 0.122295 -0.11979
10.8766 15.092 4.83176 0.833837 0.446471 0.324621
10.2428 17.081 6.22787 -0.156692 -0.982849 -0.0972368
12.6196 15.6436 16.3146 0.836772 -0.536324 -0.110314
12.023 17.6122 16.1423 -0.44927 0.891274 0.0615378
20.3687 15.3174 16.5028 -0.402771 -0.906417 0.127215
13.6487 15.8053 7.34805 -0.133565 0.244857 0.960315
16.7798 16.5095 7.30117 -0.537988 0.0932476 -0.837779
15.8452 23.3676 13.8268 0.881905 0.338398 0.328224
15.3191 15.0508 15.012 0.864243 -0.40686 -0.295887
16.0827 15.9375 15.0078 0.952638 -0.0985977 -0.287679
17.4015 15.1279 3.7743 0.900783 0.253703 -0.352456
15.8807 17.6205 4.24372 -0.0317122 -0.850741 -0.524628
15.9132 15.4188 15.951 0.947411 -0.255858 -0.19222
17.1997 18.8249 5.719 -0.46439 -0.810178 0.357705
18.6134 16.2429 6.37597 0.03905 -0.335374 -0.941275
17.4825 18.8628 7.634 -0.186784 -0.745385 0.639932
20.3741 17.3474 7.2559 -0.02842 0.227287 -0.973413
19.5029 18.034 6.70982 0.140915 0.43387 -0.889887
21.0646 16.5908 8.70813 0.0653551 -0.111946 -0.991563
20.15 19.3453 4.93489 0.0413085 0.259448 -0.964873
19.7486 16.6433 6.45553 0.378464 -0.243372 -0.893048
20.9591 15.3537 13.5337 -0.552678 -0.577487 0.600879
21.6183 16.0501 6.2348 0.0614602 0.255525 0.964847
11.7003 19.4538 4.72949 -0.100053 -0.520615 -0.847909
20.9815 19.2079 16.4584 0.990581 -0.114107 0.0756838
22.8964 18.6516 4.89903 0.493809 -0.0971934 0.864121
20.9089 17.9399 3.6308 0.646448 0.722326 0.245663
11.6465 20.0376 15.3844 0.356896 0.774039 0.522961
11.0817 17.581 16.5772 -0.0403845 0.905648 0.422103
13.1601 20.1203 6.21764 -0.740501 -0.520716 -0.424867
12.4327 16.7344 4.83317 0.117955 -0.984774 0.127699
12.9876 20.528 15.2867 0.60146 0.721599 0.342842
13.3167 16.5552 4.37317 -0.197348 -0.867891 -0.455872
14.6326 22.2115 5.89091 -0.354042 0.184654 -0.916819
18.7216 18.1503 3.87451 0.301405 -0.0527572 -0.952036
16.4049 19.6543 5.91329 0.00458239 0.738102 0.674673
15.3699 19.2783 5.74359 -0.0040545 -0.854533 -0.519381
16.9953 17.0609 6.157 -0.30767 -0.625876 -0.716672
16.4911 18.8595 7.85764 0.167422 0.789424 -0.590576
16.6987 22.5825 4.27051 -0.634592 -0.758408 -0.148692
16.8514 17.7804 4.08735 0.123339 0.751978 0.647546
18.1263 19.4033 6.18005 0.454211 0.747198 -0.485167
20.5573 15.6676 9.06245 0.41123 0.218071 0.885062
18.5265 19.155 16.6413 0.551888 -0.251286 -0.795158
16.7118 18.4469 6.88508 -0.295477 -0.907296 0.299178
19.1045 19.9658 7.92411 -0.457345 -0.0145593 0.88917
20.2002 17.1187 4.87104 -0.345723 0.274321 0.897343
22.3537 19.8786 14.5554 -0.531286 0.724279 -0.439495
21.0986 18.8198 5.31273 0.113452 -0.1076 0.9877
19.3375 20.8828 8.57522 0.398388 -0.152408 -0.904466
11.2175 19.3984 5.96756 -0.8453 -0.0732818 -0.529243
20.2761 21.5242 3.59094 -0.0208799 0.952988 -0.302289
19.6277 20.1251 16.6413 0.553482 0.513299 -0.655882
13.389 22.5372 5.20659 -0.137978 0.452896 0.880822
10.2173 20.8947 4.28766 -0.294949 0.748608 0.593794
12.6163 20.6106 5.24206 -0.526415 -0.392769 -0.754069
10.8712 19.4997 15.8604 -0.518265 -0.422829 -0.743382
13.2379 21.0181 4.53322 0.396857 0.590132 0.703029
12.1967 19.4636 16.609 0.363804 0.294364 0.88374
12.3514 21.1509 6.43401 0.586176 0.378072 0.71656
13.021 19.4697 16.0117 -0.310514 -0.455631 -0.834255
13.903 21.1048 3.61172 0.356267 0.637692 0.682951
14.1867 16.2888 4.81416 0.18849 0.800293 0.569212
16.9562 22.5594 16.5242 0.832426 0.553864 -0.01737
16.7884 17.4539 5.07436 -0.546525 0.770797 0.327387
15.5267 21.2685 7.55256 0.242283 -0.509471 -0.825674
15.6305 15.6051 6.52524 -0.399914 -0.367919 -0.839467
14.8476 21.5826 16.478 0.560999 0.498477 0.660909
18.3992 11.8415 4.05807 0.271465 0.878141 0.393922
19.0108 12.7163 5.2513 -0.803597 -0.540857 0.248407
18.367 19.1769 7.98227 0.343689 0.149348 -0.927132
18.2397 21.4976 4.37804 -0.499127 -0.79344 0.348318
18.4196 19.4516 4.98539 -4.09972e-05 0.827311 -0.561744
18.9935 21.0359 7.25718 0.697365 -0.28457 -0.657801
20.3494 21.4673 4.7702 -0.600882 -0.557099 0.573221
20.9869 20.0344 3.73699 0.0380216 -0.316022 0.94799
19.1314 21.4584 3.54098 0.315708 0.913687 -0.255937
20.1388 19.2111 8.19178 -0.040647 -0.37774 0.925019
19.9282 16.7329 9.12898 -0.397443 0.248874 -0.883233
19.8633 17.8448 16.0691 -0.5845 -0.781122 0.219562
22.4345 21.4143 3.95883 -0.0531702 0.51243 0.857081
11.7575 22.1398 4.04147 0.234425 -0.635337 -0.735793
12.0436 22.2914 6.23014 0.595495 0.744955 0.300713
22.9615 21.2088 15.6709 0.0996012 -0.868808 -0.485028
14.434 20.9787 4.80844 0.552615 0.598686 0.579821
12.4228 11.0825 4.18621 0.502352 -0.696239 -0.512732
13.0096 22.0007 6.13643 0.327939 0.452971 0.82902
15.6237 22.9086 14.724 -0.577502 -0.620501 -0.530537
13.343 18.7601 3.60859 0.377951 0.743092 0.552239
12.2131 24.1676 6.53453 0.414135 -0.650444 -0.636722
15.8312 21.8359 6.63246 0.225974 0.430266 0.87396
15.2987 22.7736 16.4656 -0.77818 -0.305054 -0.548979
16.71 23.535 16.5264 0.74367 0.313725 0.590365
15.2627 22.9392 5.45508 0.477736 -0.239064 0.84535
17.9517 11.2879 4.97715 0.57004 0.0960189 0.815987
13.3737 22.2969 15.4736 0.182442 -0.715843 -0.674006
17.2331 11.4996 16.3308 -0.650975 -0.633097 -0.418831
17.4227 21.9505 4.74541 -0.651448 -0.748661 0.122971
19.2925 22.0442 6.00897 -0.466487 0.884369 -0.016758
18.6251 23.4278 3.80444 0.588102 -0.281829 -0.758095
19.3714 20.0066 5.02883 0.21734 0.538366 -0.814202
19.6151 23.7453 4.94032 -0.490641 -0.191889 0.849971
21.2204 21.3432 16.5493 0.331315 0.251617 0.909351
19.9098 21.5708 7.51337 0.357235 -0.251262 -0.899583
21.7156 20.6141 4.43741 -0.367853 0.761054 0.534304
22.6736 12.3456 3.6646 -0.439958 0.881485 0.171526
10.1663 21.3869 16.6459 0.253065 -0.858731 -0.445578
22.587 23.9835 16.0906 0.382031 -0.763591 -0.520558
11.4469 23.5961 4.04211 -0.336016 0.767892 0.545376
22.0444 12.2973 5.05164 0.0592746 -0.987936 -0.143067
9.75795 12.3724 8.41147 -0.191851 0.900663 -0.38987
11.5778 12.8645 5.32013 0.864224 -0.502868 -0.0155102
13.1831 23.3685 4.68467 0.0974686 -0.527083 -0.844206
12.345 14.4883 7.73475 -0.644268 -0.164796 -0.746834
12.1453 21.6019 8.58118 -0.107872 0.841695 -0.529068
12.1668 23.4788 4.72165 -0.302006 0.721692 0.622858
12.3079 22.5133 5.15687 -0.339009 0.688817 0.640784
13.4777 14.08 5.60639 0.763469 -0.601432 0.235361
13.8054 11.6703 5.99012 -0.468554 0.488667 -0.735977
14.3896 12.5222 16.0837 -0.612483 0.764913 0.199433
16.1638 23.1447 4.9988 0.602343 0.340551 0.721947
14.7355 11.0162 9.67106 -0.505772 0.284665 -0.814347
15.5713 11.5865 5.53912 0.383445 0.225519 0.895607
16.7641 13.3837 5.2456 0.0825786 -0.499767 -0.862214
15.3511 23.7237 7.68935 0.684234 -0.0556795 0.727134
20.5158 13.8029 3.80482 0.672881 0.595946 0.438269
19.8569 22.6528 7.96414 0.555838 -0.22037 -0.801549
20.0581 23.5409 15.9333 0.399324 -0.208185 -0.89286
21.676 22.9137 4.17775 -0.121227 -0.732587 0.669791
21.1115 23.1693 5.61959 -0.125301 -0.925625 -0.357096
10.231 11.3786 6.24332 0.168806 -0.947893 -0.270191
20.6901 12.0035 6.25835 0.0131906 0.959544 -0.281251
20.3855 22.0171 6.04687 -0.434529 0.701754 0.564558
22.0062 23.2036 6.16357 -0.0362383 0.705855 0.707429
10.6145 11.2616 8.15382 0.106575 -0.551453 0.82737
9.85202 13.1851 7.18444 -0.021384 0.959191 -0.28195
12.0881 23.8267 16.3496 0.381505 -0.774028 -0.505306
22.405 15.4595 6.29437 0.530761 0.280812 -0.799648
10.4686 13.3851 8.3776 0.0951568 -0.647917 0.755743
10.0351 15.9856 4.25042 -0.875443 -0.0389 -0.481753
12.8357 11.9011 6.35103 -0.305094 0.91087 -0.277909
11.3077 15.3014 7.44117 -0.0277948 0.396163 0.917759
14.0864 14.3242 4.62008 0.602287 -0.40921 0.685418
11.6684 13.7134 4.59401 0.800088 -0.439326 -0.408476
12.5273 14.3484 4.54656 -0.84646 0.503128 -0.174263
13.8611 14.6816 6.9444 0.405039 -0.25105 -0.879157
14.8183 24.0976 5.61379 0.168731 0.174926 0.970016
14.5355 13.2963 3.69377 -0.851894 0.442556 0.280038
14.2938 11.5105 15.2024 0.450699 -0.876108 -0.171188
15.2904 12.8843 6.90149 0.207478 -0.100922 0.97302
19.7715 14.0829 5.30907 -0.114482 -0.116482 0.986573
15.4116 14.4164 4.54842 -0.736055 0.653379 0.17697
18.1141 13.5826 16.0707 -0.822697 -0.522967 -0.222879
17.4856 12.3047 4.44167 -0.574009 -0.594878 -0.562702
20.0158 11.3309 16.4378 0.1041 -0.0797426 -0.991365
19.039 13.6753 14.7281 -0.878059 0.0138811 -0.47835
19.189 13.2077 15.8197 -0.670687 -0.697474 -0.252406
20.8669 14.4991 5.05359 -0.246021 -0.915054 0.319609
19.5957 11.0209 6.59549 -0.259568 -0.961514 0.0900866
10.6053 12.0054 3.659 -0.414424 0.884441 0.214516
22.4211 23.0546 4.85079 -0.619456 0.72269 0.306583
21.5251 12.0288 7.03448 -0.0576619 -0.930157 -0.362605
22.5062 13.6306 4.59145 -0.584063 0.803086 0.117994
22.317 14.9353 8.02022 0.394325 -0.0128125 -0.918882
10.2892 15.0088 7.22392 0.214278 0.0949892 -0.972143
22.7782 14.1689 8.77703 0.228623 0.0964333 -0.968727
11.6857 15.5976 9.30167 0.365672 0.889171 -0.275062
12.7122 15.53 5.7753 -0.903482 -0.390687 0.176308
22.4411 16.4968 5.72131 0.050887 0.0866994 0.994934
22.7303 17.5835 5.26699 -0.0431325 -0.258352 0.965087
12.7442 13.8711 6.32069 -0.577807 0.800281 0.160281
11.3119 15.9374 3.91201 -0.728097 0.449354 -0.517644
10.3828 15.0835 3.69442 -0.996863 0.0683668 -0.0398795
14.9255 12.1469 11.015 0.544374 -0.829613 -0.124097
14.4127 13.9048 16.1678 -0.777659 0.533478 0.332639
14.907 17.9916 4.08898 -0.104049 -0.792642 -0.600744
15.1147 14.153 3.60791 -0.766462 0.627933 0.135042
18.8755 14.3136 4.50909 -0.447506 0.263437 0.854599
18.5962 17.1111 4.45225 0.136119 -0.36373 -0.921505
17.7724 17.5026 14.9458 -0.762772 -0.638855 0.100213
15.2588 14.5702 15.9413 -0.87379 0.470713 0.122146
18.0169 16.7773 5.64979 0.048606 -0.455952 -0.888676
17.4996 14.028 3.69886 -0.906956 -0.406417 0.110708
18.9244 14.6649 6.67835 -0.204761 0.0123179 0.978734
18.2548 15.492 15.3118 -0.989434 0.126901 0.0701116
17.4852 17.431 7.70158 0.960589 -0.177568 -0.213866
21.8214 11.7592 5.94673 -0.237765 0.949787 0.203401
18.9976 17.1067 5.95224 0.289045 -0.381681 -0.877937
22.8623 11.5133 15.4991 0.450001 -0.648435 -0.614029
21.1593 14.747 6.85315 0.00425306 -0.348184 0.937417
21.8053 20.8245 15.5613 -0.31055 -0.803374 -0.508083
22.5179 15.9461 7.53388 0.591834 -0.200545 -0.780714
21.9156 18.132 5.5147 -0.0261801 0.197349 -0.979984
22.0695 17.0734 7.92255 0.126099 0.190337 -0.973587
11.0383 19.0651 7.50429 -0.25451 0.55853 -0.789474
11.5125 16.4551 7.36424 0.442495 -0.282633 0.851068
12.229 16.3735 5.98853 -0.694975 0.0478527 -0.717439
12.5373 16.7983 7.32976 -0.239333 0.854251 -0.461493
11.9432 18.3322 7.29546 0.532553 0.613233 -0.58338
12.0853 17.0214 3.87216 -0.271783 0.962216 -0.0165601
15.7281 13.6797 6.16088 0.230515 0.0269224 0.972696
15.2336 14.5333 6.68252 0.154267 0.0866639 0.984221
17.6738 18.3536 3.71937 0.084774 0.450954 0.888512
17.572 16.3366 3.82868 0.906537 -0.282942 -0.313264
14.0505 16.3 3.62682 0.048265 0.959704 0.276838
17.8132 15.5951 8.60904 0.207483 0.363212 -0.90831
18.14 15.3333 6.45136 -0.347498 -0.177529 -0.920722
17.3955 16.0689 6.35065 -0.403924 -0.427846 -0.808575
18.2467 17.3313 16.3888 0.612395 0.110686 -0.782765
16.5032 16.9477 8.47393 -0.620198 -0.29778 -0.725729
19.2221 15.7341 13.2337 0.0275461 0.117227 -0.992723
19.3842 18.8248 4.2815 0.147497 -0.0189895 -0.98888
20.3014 15.2477 12.7742 -0.601114 -0.305608 0.738421
19.4092 16.7346 12.3204 -0.172862 0.159276 0.971982
21.7088 14.4005 5.64445 -0.366777 -0.887127 0.280144
21.0967 17.6153 5.02547 0.187753 -0.263582 -0.946189
20.4995 16.2509 11.3399 0.5613 0.537209 -0.629563
20.91 16.3179 13.8733 -0.0149619 -0.594786 0.803745
10.4309 15.9052 7.71777 -0.199899 -0.20626 0.957861
10.8929 18.131 5.56838 0.544438 0.433584 0.718047
10.1609 19.6104 4.3987 0.692516 0.285128 0.662664
22.0427 18.5066 7.19441 -0.193408 0.575922 -0.794297
12.7053 17.328 5.76913 0.534212 -0.748877 -0.392174
13.6308 20.3189 5.22838 0.429963 0.648598 0.628055
10.7474 17.0753 4.16275 -0.768735 0.531323 -0.356008
13.1166 18.4161 5.80401 -0.14064 -0.516826 -0.844459
14.5256 16.0107 6.23319 0.0774026 -0.316874 -0.945304
13.6425 18.6128 4.77583 -0.0174406 0.745965 0.665757
13.1088 16.9997 16.7539 -0.232872 0.78539 0.573527
14.5359 17.443 6.8641 0.252376 0.606698 0.753806
17.047 16.1269 9.12245 -0.51651 -0.110424 -0.849132
15.0401 16.8343 4.359 -0.112019 -0.728872 -0.675424
16.9018 20.0397 5.04923 -0.158546 0.812344 0.561214
15.1382 16.1171 8.27401 -0.0186744 0.0058944 0.999808
19.5837 16.2228 16.7533 0.0653306 -0.61645 -0.784679
15.1978 18.1787 8.72643 0.423573 0.575881 -0.699247
15.9537 17.0569 5.44231 -0.0463746 -0.485784 -0.872848
15.276 17.1922 8.31106 0.636873 0.248765 0.729732
19.2815 18.6648 11.4185 -0.142287 -0.791638 -0.594192
18.4 20.6309 10.5481 -0.0950664 0.199983 0.975176
19.3297 17.839 4.86481 0.374559 -0.166133 -0.912198
19.4024 20.061 10.3676 -0.195673 0.107582 -0.97475
20.4248 20.4254 11.7198 -0.297825 -0.799792 0.521185
19.4582 18.8988 7.22379 0.162687 0.480071 -0.862012
20.6086 17.5365 9.62531 0.07686 -0.163906 0.983477
20.1017 19.2753 10.6534 -0.0606806 0.111302 -0.991932
22.631 17.238 9.29161 0.160735 0.631053 -0.758905
21.2417 17.7619 7.63239 0.0215046 0.320331 -0.947062
20.3627 18.4005 7.19998 -0.0874184 -0.144677 0.98561
22.3026 20.7253 5.78774 -0.293103 -0.139465 0.945854
11.8001 18.4129 5.15764 -0.480643 -0.474719 -0.737308
10.9841 20.8849 15.6211 0.502084 0.759506 0.413597
12.5822 18.8471 4.47787 0.236266 0.282058 0.92985
22.9323 20.0761 16.447 -0.227121 0.348425 0.909404
14.8968 20.9611 6.28988 -0.147356 0.438734 0.886453
12.834 21.1884 16.5965 0.186088 0.828822 0.52766
13.8677 21.4497 7.0158 -0.0264536 -0.336535 0.941299
13.2595 21.5274 8.4461 0.232223 0.733846 -0.638391
15.6444 15.9273 5.24623 0.65004 0.125648 0.74944
15.7215 21.9811 5.00489 0.852401 -0.261462 0.452825
13.8942 19.7479 7.00566 -0.000213582 -0.536413 -0.843956
15.8541 19.1764 6.65168 -0.180175 0.823243 0.538339
17.0548 19.2736 10.2527 -0.613669 -0.598848 -0.514579
19.2305 11.6891 4.64681 0.445037 0.875115 -0.190042
18.4481 19.6231 10.5106 0.352111 0.154824 0.923064
15.8054 18.9232 9.1557 0.625297 0.472251 -0.621275
17.756 18.1837 9.47665 -0.100634 -0.651335 -0.752088
18.5511 20.1603 6.92553 -0.6669 -0.0755775 0.741305
18.4877 18.4051 7.07219 -0.350139 -0.32116 0.87992
18.0983 21.0636 9.11641 0.281539 -0.413023 -0.866111
20.1792 16.1786 13.098 -0.112465 -0.454309 0.883716
18.3075 21.1523 6.39498 -0.683946 0.231773 0.691736
20.4099 20.3059 5.29425 0.357268 0.348841 -0.866412
22.4753 11.9155 6.67083 0.113332 -0.986643 -0.11701
21.1475 19.7373 5.887 0.646413 0.347554 -0.679232
11.1319 22.7637 5.84907 -0.199206 0.673514 0.711826
11.019 21.368 3.88269 0.25927 -0.684309 -0.681542
10.813 12.9767 7.4795 0.132988 0.736491 -0.663246
11.5761 23.0503 8.58285 -0.275048 0.754048 -0.596456
11.9675 21.0266 4.2064 0.0586437 -0.569469 -0.819919
12.7282 20.4163 7.28014 0.568806 0.225107 0.791067
10.9798 22.0812 6.9391 -0.313868 -0.0948788 -0.944714
12.7054 22.9502 7.44241 0.0048332 -0.981334 0.192251
12.7061 11.4124 5.28401 -0.718865 0.25659 0.646061
16.1281 20.7634 8.25124 0.169628 -0.445307 -0.879163
11.6641 23.1317 7.15863 -0.332578 0.9429 0.0181893
16.5129 21.2758 10.3422 -0.963122 0.065123 -0.261067
14.0606 22.2395 16.687 0.656655 0.510647 0.555017
16.3721 21.7737 8.22183 0.528657 -0.459911 -0.713445
13.7824 23.8514 8.43452 -0.474592 0.305001 -0.825673
16.8666 11.8207 6.66925 0.245796 -0.448955 0.859083
19.0874 24.0442 15.9346 -0.0764095 0.385816 0.919406
17.7001 23.2035 5.33403 -0.762613 -0.621713 -0.178588
15.0897 22.8629 7.05583 0.297788 -0.375743 0.877576
17.4445 20.4803 6.3423 0.404273 -0.0290547 -0.914177
18.3459 21.6902 5.36013 0.837588 0.459985 -0.294721
17.3078 21.0659 8.38892 0.401642 -0.260979 -0.877823
18.4263 23.3585 7.09197 0.18192 0.619676 -0.763483
22.3855 11.6064 7.64052 -0.0926739 0.994272 0.053233
17.6265 22.0374 8.1362 -0.0349073 -0.0987988 0.994495
19.2517 21.3765 4.60045 0.5686 0.704895 -0.424049
10.0891 11.3694 4.38144 -0.424844 0.80175 0.420363
22.9745 19.8988 5.63825 0.384867 0.0514676 0.921536
12.5103 22.0421 16.084 0.104752 0.790152 0.603893
21.9445 13.9156 8.11321 -0.313584 0.230333 0.921201
11.4099 13.3457 11.0992 0.490919 -0.858346 -0.14913
11.6418 21.2126 11.3208 0.366336 -0.777835 0.510658
12.7673 11.11 12.2275 0.342077 -0.744542 -0.573272
11.072 20.1282 7.70443 0.367936 -0.456194 0.810253
13.9592 11.0088 12.573 0.176418 0.709655 0.682104
13.0313 11.5519 8.97792 -0.562406 -0.058478 0.82479
14.7209 13.6237 7.29949 0.0192781 0.138681 -0.990149
11.9697 23.2565 10.31 -0.44274 -0.624147 0.643757
13.774 12.1282 10.7854 0.491512 -0.856543 -0.157321
12.9032 20.6978 13.2743 -0.669642 -0.327227 -0.66671
15.1967 11.7944 9.06156 -0.377278 0.218803 -0.899881
14.149 23.2837 7.62277 -0.707762 0.0869515 -0.701079
14.7037 11.0726 8.08227 0.29577 -0.538602 0.788941
13.3825 19.964 12.6065 -0.704087 0.0726917 -0.706384
20.4636 12.8949 14.9646 0.994642 0.103355 -0.0020892
15.8975 23.4735 6.68467 -0.190216 0.438298 -0.878472
17.7369 10.94 8.38984 -0.0600068 -0.969966 -0.235721
21.7455 21.5384 9.78101 0.361017 0.147262 -0.920858
20.2675 23.9454 5.81571 -0.104428 0.652023 -0.750973
18.9186 21.8295 9.89704 0.0943261 -0.54727 0.831624
19.5727 13.0579 6.6622 0.443937 0.134112 -0.885965
22.4379 23.364 11.2654 0.136758 0.963178 0.231485
19.7418 11.9303 5.529 -0.563025 -0.791846 0.236608
9.90347 22.994 5.5688 0.471911 -0.810079 -0.347954
20.7043 23.7451 8.67294 0.677203 0.255407 0.690046
11.2007 11.4442 9.62457 -0.525449 0.52082 -0.672793
22.6424 13.6807 5.69143 0.656106 0.371157 -0.657091
12.1068 14.5923 10.0558 0.656837 0.709578 -0.255077
11.4489 13.7389 8.4327 0.195844 -0.14701 -0.969553
12.6376 12.285 11.413 0.105231 -0.984539 -0.140035
12.9612 13.9911 10.031 0.455983 0.519459 -0.722663
9.92807 12.769 11.0737 0.931086 -0.098698 -0.351195
13.559 14.8497 12.5797 0.131333 -0.136406 0.981909
12.7107 13.534 8.02016 -0.326503 -0.0819393 -0.941638
12.7804 15.1818 6.90324 0.584721 -0.281342 -0.760886
13.4195 12.1875 7.12851 0.31955 -0.94006 0.119059
13.9154 13.5334 8.93262 0.134766 0.461481 0.876854
14.3352 14.525 8.42289 0.175143 -0.0976702 -0.979686
18.8176 13.6746 6.06687 0.122929 0.0569752 0.990779
16.1089 11.2091 8.89011 -0.561396 0.0920698 -0.82241
16.8165 12.8271 8.36176 -0.616589 0.308024 -0.724527
16.8364 22.941 8.20955 -0.020166 -0.671609 -0.740631
18.281 12.764 7.40088 0.08725 0.245513 -0.965459
19.1335 12.0638 16.5003 -0.809056 -0.391409 -0.438437
16.9456 12.6859 7.09649 -0.473742 0.356476 -0.805291
20.1102 12.7866 11.4335 -0.371373 0.246574 0.895144
20.9433 11.727 8.67714 -0.57104 -0.586267 0.574635
19.7882 11.1351 8.55138 -0.314198 -0.822053 0.474878
20.5292 12.7523 7.02648 -0.69362 -0.635169 0.339782
19.1107 23.7818 7.91759 0.470317 0.760643 -0.447464
20.4482 11.1201 7.41483 -0.374171 -0.901337 -0.218145
20.7375 21.9052 9.91926 -0.40971 -0.249991 0.877293
21.5017 12.6243 12.5925 -0.0896127 0.176027 0.980298
21.9808 23.4368 8.31667 0.0357917 0.322941 0.945742
10.2729 13.9262 12.2055 -0.0029359 0.288142 0.957583
10.907 16.4438 8.86263 0.432661 0.519641 -0.736735
22.6746 13.7694 11.1138 0.370384 0.0502977 -0.927516
12.8663 14.6275 10.7909 -0.719192 -0.471565 0.510284
11.5696 17.034 9.46028 -0.105893 0.60216 -0.791321
12.1715 14.3754 9.02995 0.227746 -0.830259 0.508726
13.2965 15.4583 9.00869 -0.813811 0.151757 -0.560965
13.8441 13.5451 10.5723 0.43196 -0.60479 -0.669059
14.1577 12.1671 9.09898 -0.326187 0.206953 -0.922373
13.6877 13.7669 7.46331 -0.187638 0.418248 0.888741
17.2137 15.6996 4.64182 -0.965683 0.215662 -0.144724
14.5056 15.3833 7.59392 -0.153636 0.149767 0.976712
16.5729 18.6321 3.628 -0.303027 0.417401 0.856709
20.4394 15.9992 4.30219 0.820878 -0.0797985 -0.565501
19.1037 13.88 8.36078 -0.236469 -0.963651 0.124337
17.737 13.5415 5.70416 -0.172606 -0.295587 0.939593
19.7682 15.098 4.64294 0.795265 -0.154535 -0.586235
18.079 14.0683 6.87839 0.196872 -0.329639 0.923352
18.496 14.8762 9.13433 -0.20905 -0.392996 0.895462
20.6774 13.0258 8.11128 0.396795 0.648298 -0.649818
18.791 16.1132 8.61357 0.296541 0.131224 -0.945962
22.1464 13.312 9.81783 -0.140073 -0.0249043 0.989828
20.8766 13.8164 9.7921 0.0361777 0.0305814 -0.998877
20.5995 14.331 12.3372 0.161484 0.023891 -0.986586
21.3067 15.5718 8.04316 -0.13658 0.028545 -0.990218
21.7246 14.1478 10.6841 -0.167531 -0.259319 0.95115
22.1891 13.4155 13.3845 -0.568724 0.0020073 0.822526
10.858 13.0889 9.87098 0.948689 -0.00734209 -0.316124
10.9452 14.733 8.31882 0.21164 -0.490316 -0.845458
10.4573 17.3808 8.93101 -0.299961 -0.562056 0.77079
22.9257 18.0951 11.027 -0.141075 0.780934 -0.608474
12.5701 15.2582 12.1901 -0.135682 -0.00640478 -0.990732
10.0157 17.8809 9.81444 -0.150477 0.552232 -0.819998
10.7536 17.6881 7.29048 0.143443 0.830872 -0.537657
11.63 15.6752 12.7254 0.0984487 0.0364564 -0.994474
13.3718 17.0364 8.02857 -0.359773 0.378047 0.85302
14.1814 16.3028 9.09501 0.00203797 0.255805 -0.966726
11.5372 17.3805 5.90282 -0.0363102 -0.0440702 -0.998368
14.0708 17.7189 8.06614 0.389767 -0.507709 0.768318
18.031 17.2811 13.0355 0.102885 -0.0369551 0.994007
16.1119 15.267 8.41763 -0.563516 0.0884838 -0.821353
16.1018 16.4113 15.9607 0.897859 -0.128759 -0.421035
17.9318 18.3478 13.498 -0.675021 -0.147116 -0.722982
18.7413 15.0323 12.3742 0.034637 0.20194 -0.978785
18.0191 16.8133 9.05713 -0.0785537 0.156194 0.984598
19.0669 15.5489 4.04473 -0.261961 0.69305 0.671608
20.0731 14.6516 9.77051 0.150893 -0.155529 0.976239
21.298 12.9639 9.28325 -0.202979 -0.178476 0.96278
19.1392 17.7769 12.6387 0.379246 -0.014851 -0.925177
19.2788 16.0812 10.4844 0.121926 -0.437531 0.890899
18.9108 17.2046 14.5812 -0.530659 -0.446081 0.720703
21.2434 16.5806 5.03906 -0.541184 0.270028 0.79637
21.0523 17.0592 11.9221 -0.098103 0.895778 -0.43354
22.5376 14.4827 6.265 0.749121 0.372381 -0.547859
20.227 14.1872 8.21381 -0.287922 -0.820547 0.493765
21.6785 14.6398 13.5342 0.435933 0.589977 -0.679625
12.5469 20.0857 8.55969 -0.594475 0.261049 -0.760561
10.7885 20.4632 5.84004 -0.681702 0.0731444 -0.727965
10.4567 20.2809 8.60018 -0.404447 0.508187 -0.760374
12.5872 17.0732 10.3263 0.149172 -0.173728 0.97343
14.0043 18.073 6.227 0.270861 0.727218 0.630705
22.9069 17.8899 7.04995 0.187458 -0.359211 0.914236
15.0944 18.8667 7.39486 0.51996 -0.722907 -0.455025
14.7673 20.3783 7.38487 -0.158449 0.740969 0.652579
15.0783 17.7875 6.03821 -0.00473411 -0.927289 -0.374315
16.1604 18.9068 10.8984 -0.844779 -0.370843 -0.385776
14.2861 19.5181 10.3088 -0.532344 0.597163 -0.600005
15.4664 16.9225 10.982 -0.749348 -0.16382 -0.641593
14.4147 18.2159 5.26076 0.123773 0.786782 0.604694
16.7683 15.444 7.20096 -0.236662 0.00235946 -0.971589
16.7076 17.6633 11.0452 0.217826 0.828494 0.515898
18.03 20.0433 11.9437 -0.791027 -0.00741438 -0.611736
17.8198 17.7646 10.7199 -0.667309 -0.22188 -0.710962
16.0773 15.6701 9.74062 -0.165851 0.590202 -0.790035
19.5195 20.5719 12.4422 -0.417864 -0.115537 -0.901133
18.3776 16.0842 11.3168 -0.0937627 0.167084 -0.981474
18.673 17.9589 9.95927 0.0867868 -0.720889 -0.687595
19.8048 17.2303 10.5771 -0.336897 0.0344192 -0.940912
18.0525 18.2358 12.1656 0.901694 0.393697 0.178746
21.724 17.8129 9.15825 -0.17148 -0.623204 0.763028
19.6305 18.0437 9.24093 -0.100369 0.358353 0.928175
20.292 18.2863 10.7209 -0.1786 -0.144799 0.973209
21.3575 19.8914 7.12167 -0.618586 0.0722855 0.782385
22.4273 16.589 12.1768 -0.17776 0.747702 -0.639799
21.0561 19.8923 8.79847 0.375474 0.681043 -0.628649
21.0788 18.7641 8.06904 -0.121676 -0.268715 0.955504
11.0395 17.7753 9.99491 -0.0543603 0.414677 -0.908343
12.0146 18.091 9.40592 -0.0134105 -0.29933 0.954055
9.86566 20.9777 6.40143 0.314115 0.50665 -0.802894
13.2989 19.5139 8.03227 0.435107 -0.0135303 0.900277
10.0882 18.7272 7.19502 0.0545818 -0.358102 0.932086
12.1351 21.9396 10.4201 0.637202 -0.49093 0.594106
13.3098 17.3116 6.57708 0.31167 -0.881028 -0.355881
15.0868 21.1844 9.00146 -0.175721 -0.794517 -0.581261
12.8741 22.4052 9.92964 0.561753 -0.613104 0.555461
13.4258 20.0544 11.2927 0.701177 -0.71129 0.0491716
15.6186 20.3563 9.56036 0.360186 -0.321962 -0.87556
15.5144 17.0925 6.98651 0.192135 0.666803 0.72004
17.0089 18.6734 8.90801 -0.378335 -0.79571 0.472979
16.7874 20.8164 11.3096 0.865484 0.315518 0.389084
15.1698 19.5356 8.55399 -0.678902 -0.163509 0.715791
15.7901 16.8682 9.67324 0.997529 -0.00177235 0.0702393
15.6902 20.3043 12.2294 -0.789327 -0.334633 -0.514766
18.1232 19.1287 12.7863 -0.735119 0.0180008 -0.677699
22.6341 22.3232 6.30557 0.0542091 -0.584507 -0.809576
18.652 17.8735 8.65974 0.149687 -0.779848 -0.607808
20.8281 20.9966 7.76037 -0.582477 -0.0388051 0.811921
22.002 19.8813 16.045 0.175923 -0.720311 -0.670971
19.1897 19.1625 9.39563 0.0293382 0.0302729 -0.999111
22.1097 19.1845 5.2106 -0.418189 0.14885 -0.896081
10.7542 21.0241 12.052 0.217267 -0.963271 -0.157808
9.84334 20.0363 9.69621 0.178448 -0.607714 0.773848
10.0366 23.6108 6.82212 0.132283 -0.903229 -0.408264
10.6541 23.848 5.13299 0.198477 -0.950184 -0.240329
10.5593 23.6473 10.0948 -0.282751 0.773897 -0.566688
22.879 22.5674 8.5508 0.0434938 0.699312 -0.713492
11.1397 20.6939 4.69424 0.146847 -0.767555 -0.623935
10.5509 22.9967 7.78667 0.11621 0.92465 -0.362654
11.685 23.9006 9.17649 -0.500007 -0.722854 0.476944
12.7146 22.8327 8.60177 -0.406979 0.767557 -0.495201
11.6783 21.1484 7.17179 -0.661822 0.0841749 -0.74492
10.9705 21.2121 8.05119 -0.410288 0.112089 -0.905041
13.4404 22.0897 12.6759 0.0839114 0.669709 0.737868
14.3645 20.4696 10.9476 -0.774383 0.629282 0.0658388
14.2674 22.3117 7.39168 -0.21879 0.354285 -0.909183
16.7977 20.2687 8.89907 0.253227 -0.190938 -0.948377
13.4726 22.0594 11.2677 -0.842016 0.512005 -0.169885
15.9384 19.0067 11.9353 -0.865963 0.253271 -0.431232
16.2506 11.0161 7.53192 0.555905 -0.173938 0.812844
17.6624 20.2073 9.42766 0.277066 -0.234115 -0.931893
20.6916 23.1018 11.7268 -0.256749 -0.490676 -0.832656
20.5178 22.0367 8.47305 0.600003 -0.11179 -0.792148
18.8913 22.1561 7.81031 -0.380938 -0.295355 0.876157
20.8183 20.5735 6.45449 -0.592094 -0.249874 0.766151
21.1658 22.7753 7.25878 -0.19432 0.212921 0.957551
22.0478 22.63 12.9048 -0.946647 0.265894 0.182097
22.837 11.621 5.51824 0.111885 -0.916341 -0.38445
9.74397 21.719 7.70137 -0.275103 -0.291798 0.916063
21.7094 11.9423 13.749 -0.438201 0.194288 0.877629
10.28 22.1182 10.9794 -0.40218 0.886027 -0.230668
9.76107 23.6185 9.01727 0.0565884 0.459372 -0.88644
10.9864 11.0297 10.82 -0.262889 0.893579 -0.363876
13.4912 13.1149 13.7335 -0.172779 0.98128 0.0850657
22.6647 11.0176 9.7075 -0.291333 0.312976 -0.903975
14.1957 23.4066 13.0528 0.152677 -0.715944 -0.681259
10.4555 22.7304 9.31011 0.194783 0.641017 -0.742399
14.5727 16.0162 13.6978 0.0138921 0.0178899 0.999743
13.012 23.5584 10.6147 -0.581863 0.811427 -0.0549606
11.5574 11.1471 12.4475 -0.0780746 -0.863229 -0.498738
15.211 12.8314 14.1266 0.182858 -0.955023 -0.23344
14.9181 10.9357 13.7858 -0.00512501 0.748639 -0.662959
16.2131 21.7509 14.7876 -0.963657 -0.107481 -0.244566
12.658 12.2508 10.3657 0.510421 -0.840327 0.18254
12.9461 22.9049 12.0611 -0.92872 0.277784 0.245592
13.8268 24.1383 10.0095 -0.34033 0.901061 -0.268823
17.6006 20.4882 13.6653 0.810082 0.32995 0.484664
15.8637 23.5287 9.4415 -0.0646114 -0.632731 -0.771672
18.8222 11.8598 6.68223 0.200833 0.812063 -0.547923
17.7679 12.1856 6.6006 -0.210874 0.428159 -0.878756
19.5783 22.1377 11.2192 0.13373 -0.010645 -0.990961
19.9646 13.7251 11.133 0.0617022 -0.0921272 -0.993834
21.9444 22.2974 7.9255 0.0284277 -0.177992 -0.983621
21.28 11.8501 10.2349 0.205303 -0.437511 -0.875463
21.0637 21.7866 12.8077 0.0337085 -0.307571 -0.950928
21.6177 23.1141 9.67968 0.742219 0.228882 0.62986
21.4468 22.3618 11.1053 0.137073 -0.0304614 -0.990092
21.8378 11.3195 11.0718 0.112154 0.484773 0.86742
22.6611 11.5345 13.9419 -0.32854 0.210123 0.92082
9.80015 23.6268 12.4286 0.602644 -0.787315 0.130213
21.3809 24.0443 7.65387 -0.304768 -0.483364 -0.820656
10.1044 15.0703 13.3178 -0.0660308 -0.246922 0.966783
13.2736 12.2845 14.6378 -0.265866 0.891777 0.366128
11.6131 12.7281 12.0663 -0.391315 0.913121 0.114374
13.7036 12.9013 12.7169 -0.242339 -0.970113 -0.0123532
9.86837 14.7207 11.0139 0.389849 0.0301597 0.920385
11.9569 10.9478 11.3003 0.386621 -0.918274 0.0854216
14.3709 15.1917 10.8499 -0.186456 0.54113 0.820008
13.1279 12.763 9.12499 0.0630131 0.284846 0.9565
16.7762 11.0768 11.4313 0.40303 0.558167 0.72527
13.3322 23.3054 9.3942 -0.512361 0.684496 -0.518606
16.445 12.1932 9.21344 -0.71611 0.110728 -0.689149
17.2017 14.6318 10.9036 -0.241398 0.506459 -0.827784
16.9512 12.539 11.0887 0.199733 -0.225482 0.953554
18.7271 23.4305 9.93445 -0.669862 0.716611 0.194305
19.0326 13.2404 9.35213 -0.813525 -0.581224 0.0188582
17.6915 23.6038 9.28275 -0.325863 0.85939 0.394034
16.9661 13.5814 10.3755 0.365679 -0.068476 0.928218
17.3145 13.4955 7.69632 0.578141 -0.250161 0.776642
19.0663 11.9645 8.04107 0.59543 0.795275 0.114018
19.8806 12.666 9.92159 0.514615 0.466946 -0.71912
19.4557 11.6879 9.36776 0.00645349 0.910036 -0.414478
20.4482 23.6184 9.83538 0.467756 0.660863 0.586911
20.8929 13.2695 11.8362 -0.427493 0.210924 0.879068
21.2358 23.3812 10.8459 -0.4273 -0.536639 -0.727622
20.9948 14.693 14.8622 -0.497783 -0.605686 0.620771
10.7097 12.8413 12.7996 0.676584 -0.180074 0.714008
10.1248 14.7265 9.47487 -0.407878 0.898922 0.159921
10.775 14.7675 10.2831 -0.218332 -0.946297 0.238438
10.0146 16.3293 11.5668 0.176755 -0.286118 0.941751
11.0646 14.7257 13.2455 0.111608 0.180187 0.97728
11.6078 15.0484 10.998 0.130526 0.637503 -0.759311
13.3504 15.8448 11.0763 0.107342 0.0491223 -0.993008
10.674 15.614 14.1821 -0.0508932 -0.252335 0.966301
12.6503 16.9708 13.9443 0.240274 -0.737186 0.631527
12.4379 16.0728 10.6608 -0.112085 0.0357031 0.993057
12.5345 11.7989 7.56407 0.178593 -0.803689 0.567616
12.033 14.3563 12.6909 -0.0140471 0.640269 0.768022
17.3739 11.5672 10.7013 -0.939812 -0.0757432 -0.333192
17.9333 14.5698 8.11019 0.276931 -0.621733 0.732637
15.1388 12.7793 9.4127 -0.153082 0.0556921 -0.986643
17.0202 12.3805 13.2508 -0.565802 0.353151 -0.745085
17.5691 13.1424 9.63671 0.109637 -0.600608 0.791991
17.5409 16.6475 11.3926 -0.236113 0.16463 -0.957678
18.6364 11.0834 8.95819 -0.0147021 0.996536 -0.0818573
16.1664 11.4968 13.6158 0.0515576 -0.518887 0.853287
19.1136 14.2046 10.4933 -0.0945331 -0.122864 0.987911
20.2888 13.8191 6.95019 -0.473574 -0.371957 0.798358
22.185 12.2231 9.21002 -0.09207 0.529227 -0.84347
17.2928 15.7215 10.9083 -0.536701 0.359206 -0.763494
20.3145 15.4755 10.6279 -0.384104 0.349291 -0.854669
21.0413 14.7993 9.552 -0.0104223 -0.0151708 -0.999831
21.6809 14.8923 11.8172 -0.460545 -0.0427643 0.886605
22.7746 17.8627 15.4921 -0.703362 -0.497121 0.508087
22.6406 14.3964 12.8628 0.0523009 -0.132413 0.989814
21.7987 15.3867 10.2729 0.544994 -0.272997 -0.792751
21.8264 16.197 11.3657 0.0655792 0.471622 -0.879359
22.8698 19.7409 13.3665 0.919391 -0.390306 -0.0488036
11.5849 16.6318 13.8339 -0.280819 -0.513901 0.810584
11.7897 16.8235 11.6432 0.0172695 -0.293878 0.955687
10.5535 15.5149 11.1468 -0.503381 0.321094 -0.802189
22.9785 18.6126 12.8303 -0.28329 0.771919 -0.569111
14.7279 16.46 11.5952 -0.587357 -0.0656102 -0.806664
12.5289 17.7536 8.00297 -0.502858 -0.772818 0.387153
13.6768 17.8769 9.10806 0.401823 -0.613875 0.679482
17.3956 15.1959 14.2142 -0.375266 0.498522 -0.781442
18.5496 16.3651 13.6808 -0.0987942 0.163618 -0.981565
15.7361 17.8023 10.16 0.961128 0.272044 -0.0471644
17.1155 14.6743 6.42408 0.0932929 -0.254555 0.962548
15.7887 20.0568 5.17974 0.217188 0.711385 0.668402
15.2205 14.9823 9.28746 0.117224 -0.0219557 0.992863
16.064 14.8369 5.47062 0.101487 -0.371342 0.922933
19.2458 15.3314 9.57096 0.251077 0.231665 -0.939836
19.2215 14.799 14.5605 -0.937718 -0.311769 -0.153251
17.2823 14.4712 9.28379 0.281079 -0.250109 0.926521
18.6924 17.0705 11.1389 0.0137731 0.105348 0.99434
22.1902 15.9607 9.18652 -0.586088 0.383521 0.713732
20.4352 18.4773 14.0721 0.458305 0.815286 -0.353929
22.7513 16.7252 15.3926 0.480566 0.540921 -0.690261
20.0328 18.5792 15.0529 -0.803532 -0.594052 0.0379256
21.2056 13.7071 13.1489 0.548066 0.387031 -0.741506
21.5998 19.0085 14.5245 -0.169215 0.817002 -0.551248
10.7461 16.942 12.2314 -0.213561 0.428913 -0.877739
9.73948 17.3619 12.5979 0.394827 -0.735563 0.550508
22.384 17.6735 10.2781 -0.115716 0.714385 -0.690119
21.1502 19.3288 10.435 0.136513 -0.724477 0.675646
10.1683 18.538 11.8236 -0.349746 0.714955 -0.605406
10.9769 19.2155 11.0085 -0.197188 0.498355 -0.844251
11.3948 17.7629 12.01 0.128105 0.221696 -0.966664
12.4903 17.549 11.8395 0.0767756 -0.430907 0.899124
15.2354 16.7774 13.3699 0.605036 -0.259893 0.752587
14.0097 20.8042 9.08891 -0.220298 0.833206 0.507185
14.1871 18.7425 8.43087 0.313289 -0.208372 0.926516
14.6827 16.9959 14.3189 0.423204 -0.236005 0.874757
17.609 16.4225 14.0567 0.204733 -0.0473538 0.977672
14.5136 17.4441 11.3932 0.546236 0.0299846 0.837095
15.8073 19.6381 10.225 0.831249 0.418077 0.366383
16.5678 16.1411 11.5568 0.445665 -0.0589046 0.89326
15.2126 15.8494 10.6947 0.418211 0.183843 0.889551
16.6326 19.8459 11.9598 -0.690151 -0.0222112 -0.723325
20.1337 17.2982 13.1595 -0.123812 -0.29222 0.948303
16.4361 17.519 14.9047 0.667298 0.725674 0.167659
20.6202 17.4598 15.448 -0.295921 -0.713041 0.635612
19.8687 19.6459 13.1848 0.766476 0.334961 0.548011
20.793 16.8201 14.7721 0.0545615 -0.682544 0.728805
20.8404 20.8444 13.6406 -0.174034 0.104568 -0.979172
21.6517 17.2679 14.0359 -0.194921 0.977548 -0.0800412
19.8318 21.1106 10.1095 -0.060197 -0.245804 0.967449
21.433 17.9537 10.4744 0.159576 -0.706142 0.689855
22.787 19.4937 8.85672 -0.0038777 -0.630536 0.776151
20.8857 18.6429 13.0045 0.1767 -0.937354 0.30024
21.9573 19.6409 9.65192 -0.105391 0.813027 -0.572608
10.4947 18.6089 10.3589 -0.172267 0.530589 -0.829939
13.3106 22.5456 14.3453 0.162637 -0.777416 -0.607597
11.9361 18.5458 12.4145 0.19452 0.0769634 -0.977875
11.416 18.8619 9.82904 0.209979 -0.227099 0.950965
12.1823 19.2903 7.82566 -0.506567 0.458409 -0.73024
12.3908 18.9992 9.76867 0.278673 -0.378643 0.882593
12.8145 18.603 13.3154 0.00651103 -0.281358 -0.959581
13.0226 21.0806 9.92048 -0.510753 0.696891 -0.503463
14.408 21.0759 10.1313 0.261715 -0.868229 -0.421525
14.3459 19.255 12.4612 0.171346 -0.824923 0.538649
17.0345 17.3148 13.1154 -0.101977 -0.271707 -0.956962
13.9733 22.5071 8.82696 -0.481415 0.526434 -0.70079
15.8539 17.9525 11.7329 -0.673983 0.0216549 -0.738429
14.7881 18.732 14.4858 -0.421251 0.280207 -0.862573
16.0307 17.4899 13.1743 0.286073 0.413049 0.864612
14.9727 18.3893 12.0974 0.599529 -0.121756 0.791037
20.034 21.5656 12.8392 -0.190318 -0.221581 -0.956389
14.9749 20.686 14.0835 -0.90374 -0.205885 -0.375321
19.6348 20.3816 14.8961 -0.910569 -0.136591 -0.390138
22.2761 21.0429 7.5876 0.03223 -0.419049 0.907391
19.9754 19.5492 14.4372 0.913496 0.385414 0.130309
19.4756 21.2958 15.4242 0.823965 0.320151 0.46753
22.6128 19.2399 7.58241 -0.0171462 0.581174 -0.813599
22.6228 22.1458 10.1375 -0.204669 0.633315 -0.74634
20.1521 20.2073 9.34949 -0.168881 -0.0844354 -0.982013
11.4493 21.9948 12.4273 0.2641 -0.96423 -0.022611
10.6522 22.2056 14.2315 0.412032 -0.87033 -0.269732
11.6154 21.689 14.798 0.311438 -0.950219 -0.00948498
12.2718 22.2915 12.906 -0.406335 0.872221 0.272253
10.0308 23.7389 13.7675 0.669207 -0.280066 -0.688277
12.846 23.7184 14.0973 -0.0021003 0.802512 0.596632
12.0728 20.745 10.3513 0.212687 -0.663563 0.717251
11.9136 12.169 9.54934 -0.463193 0.00437613 0.886247
10.8093 11.9274 11.708 -0.0389476 0.997588 -0.0574633
22.6527 11.9098 10.8595 0.749878 -0.594539 0.290183
11.5357 11.7894 8.3086 -0.270504 0.803088 0.53092
11.0461 21.7539 9.53302 0.00402493 -0.444216 0.895911
14.6219 23.3523 11.7049 -0.259238 -0.579666 -0.772517
15.3168 17.8024 14.118 -0.261645 -0.047103 -0.964014
15.8505 21.2275 11.7023 -0.837931 -0.0648414 -0.54191
16.0073 19.4831 13.2427 -0.703233 -0.0727265 -0.70723
18.4454 22.8465 13.7135 0.814517 0.462401 0.350353
16.8782 20.8039 15.2924 -0.974564 -0.181367 -0.131644
20.3085 22.4193 12.4343 -0.210502 0.440993 0.872476
16.8645 18.511 13.7372 0.652147 -0.0861587 0.753181
14.88 21.0983 12.308 -0.879905 -0.166812 -0.444906
17.7903 19.1615 14.8935 0.975834 -0.209895 0.0607584
21.4171 21.6713 6.20991 0.554864 -0.15262 -0.817822
21.1596 21.2054 8.91378 -0.448822 -0.257566 0.855698
21.8431 23.5494 12.3521 0.276104 -0.846803 -0.454633
9.93995 22.0289 15.0182 -0.936677 0.0660445 -0.343912
22.0264 21.5855 11.8737 -0.0907532 0.211479 0.97316
22.9885 21.8817 11.8775 0.0402378 -0.997459 0.0587995
21.6601 12.788 15.9948 0.106068 -0.595816 -0.796086
12.2514 22.5097 14.0736 -0.434468 0.757046 0.487974
9.90467 12.2501 9.66564 -0.19463 0.788145 -0.583907
22.5968 12.5193 13.7051 0.532068 -0.124181 -0.837546
11.036 12.3566 14.5559 -0.126452 0.459553 0.879103
12.4619 12.7977 13.9737 0.343945 -0.459178 -0.819059
14.4567 13.4086 13.4659 -0.110659 0.993851 0.00382681
10.2609 13.3489 15.0487 -0.24682 0.331887 0.910456
13.0389 12.3366 15.7156 -0.160207 0.93671 0.3113
17.2678 11.2767 15.2405 -0.506635 -0.772909 -0.382013
15.4251 11.946 12.1677 0.0355332 -0.774112 0.632051
14.556 11.4727 11.8011 -0.180283 0.679588 0.711096
14.2793 22.4051 14.7574 0.0645579 0.863297 0.500551
16.8086 22.941 13.4557 -0.825362 -0.302861 -0.4765
16.8413 22.9645 9.54144 -0.0319667 0.80414 0.59358
16.3023 21.7359 13.7149 -0.852824 -0.474881 -0.217209
16.0143 22.5577 10.023 -0.28136 0.77906 0.56027
15.3838 22.078 11.9598 -0.711239 0.0973137 -0.696182
20.2587 11.6358 10.0659 -0.379032 -0.600078 0.704444
17.6067 21.5264 13.4176 -0.868054 -0.211341 -0.44924
17.3068 23.2924 11.7304 0.386275 -0.605765 -0.695586
17.967 20.802 12.6975 0.912171 0.116815 0.392807
20.4624 12.5002 12.59 0.287455 -0.449506 -0.845762
20.8899 11.11 11.7141 0.432706 0.556796 0.709044
19.6605 11.8913 12.554 -0.453026 0.833064 0.317446
19.039 20.1578 13.6152 0.863261 0.199574 0.463628
10.555 23.0487 11.5829 0.486368 -0.870398 0.0765112
20.6471 11.2892 14.4742 0.389659 -0.914818 0.106179
19.5481 11.3503 14.6125 0.308042 -0.946186 0.0992084
12.0838 12.3976 15.1011 0.366435 -0.630019 -0.684691
22.875 13.4182 14.144 -0.551456 -0.0464147 0.832912
12.8006 13.4035 12.7544 0.0795405 0.898254 0.43222
18.5796 11.7543 13.7937 0.463523 -0.847782 0.257705
13.1845 24.1747 13.2547 0.140977 -0.881154 -0.451324
10.7082 13.9816 14.0731 0.333029 -0.333418 -0.882
16.2699 13.5781 14.2387 0.678626 -0.734375 -0.0126244
12.1423 16.1385 15.4315 -0.97896 0.201883 0.0296876
17.61 12.6699 14.9776 -0.698316 -0.669435 -0.253399
13.4092 13.3621 11.8137 -0.556379 0.810197 0.184454
13.6315 11.2701 11.4589 -0.237784 0.859334 0.452774
14.2326 15.0805 14.3891 0.657659 -0.640121 -0.397152
17.1537 22.0362 11.776 0.322709 -0.118265 -0.939081
15.8894 24.1284 11.9068 -0.599235 -0.463457 -0.652783
14.9754 22.9074 9.54736 0.0509865 -0.402519 -0.913991
15.9995 13.2437 10.7115 0.207107 -0.365283 0.907565
17.7521 23.0101 10.1579 -0.323401 0.773894 0.544518
18.415 11.6702 9.98063 -0.760354 0.162656 -0.628812
18.6292 21.6592 11.455 0.43191 -0.292498 0.85317
19.7841 23.3363 12.1653 -0.409122 -0.369507 -0.834316
19.6007 11.9649 11.5311 0.83244 -0.329818 -0.445267
18.838 13.2518 13.6701 -0.827178 0.347734 -0.441427
20.7031 11.8152 13.3352 0.0794996 0.77676 0.624759
21.3129 18.2174 15.8632 0.0668113 0.929547 -0.362601
18.5192 22.5939 14.72 -0.911391 -0.366304 -0.187585
18.3788 12.5072 10.982 0.462193 0.047824 -0.885489
22.811 12.1026 12.1069 -0.522595 0.843406 0.124741
19.8041 11.3203 13.6591 -0.149415 0.97716 -0.151105
18.3928 11.745 14.915 -0.0440991 -0.887073 0.459519
22.9922 15.8896 14.3424 0.0877582 0.0648548 -0.994028
22.2287 14.9567 14.5536 -0.313354 -0.279219 0.90766
22.529 14.0345 15.6094 0.390686 0.233094 -0.890523
14.2614 12.5712 14.3644 0.111512 -0.991882 -0.0611099
12.5435 16.1849 13.0793 0.301498 0.234736 -0.92412
12.2251 14.1033 14.7063 -0.913217 0.376024 0.156971
11.8843 18.8159 14.4323 -0.135893 -0.698738 0.702352
12.1189 15.1362 14.514 -0.685346 0.366116 0.629492
13.0135 14.7839 15.0001 -0.683761 0.420565 0.596319
15.8229 13.3826 8.63712 0.284347 -0.387253 0.87703
13.4234 15.6799 13.4811 -0.419035 -0.145438 0.896246
14.9822 13.8016 9.45668 0.116192 0.330346 -0.936681
16.1125 14.3874 9.38529 0.310418 -0.0070897 0.950574
16.082 12.0967 10.9327 -0.197449 0.171614 -0.965175
15.9788 12.9163 13.3929 0.433487 -0.641557 0.632845
17.9177 24.1012 12.4351 -0.674292 0.5563 0.485655
17.0237 13.4429 13.3111 0.670785 -0.308501 0.674444
16.4557 14.2293 7.86694 0.300051 -0.554093 0.776499
17.4228 14.4371 13.1132 0.799287 -0.125596 0.587678
18.2162 13.5942 10.7862 0.0758794 0.0577923 -0.995441
18.139 14.9783 10.743 -0.145116 0.602029 -0.785177
19.0648 13.158 11.4138 -0.250955 -0.0570524 0.966316
19.7792 13.9576 14.0734 0.813888 -0.233161 0.532186
21.6079 16.7945 15.5405 -0.177765 -0.715817 0.675282
10.6224 17.401 15.3528 -0.385586 -0.697269 0.604268
22.6395 15.577 11.3483 -0.06668 0.273463 -0.959568
10.5219 18.1846 15.9614 -0.756885 -0.469844 0.454281
17.8225 10.9735 14.3478 -0.812713 0.564208 -0.145487
22.4891 15.1497 15.8817 0.782426 -0.20797 -0.586991
10.5649 14.6001 15.9544 -0.874123 -0.169191 0.455284
21.5253 13.8352 15.2785 0.490788 0.252073 -0.834018
10.5265 16.7805 14.2088 -0.114869 -0.484023 0.867483
10.9387 16.4226 11.0207 0.0971922 -0.251572 0.962946
11.5975 17.4083 14.5439 -0.00428521 0.359976 -0.932952
13.8439 19.9487 15.3837 0.619916 0.428952 0.657042
13.455 17.0244 13.3004 0.219263 -0.649274 0.728263
15.9418 15.5977 13.7072 -0.592137 0.39759 -0.700925
18.0162 15.5626 13.2609 -0.367348 0.190829 -0.910297
13.8862 17.6745 16.3649 -0.306768 -0.711454 -0.632239
14.4963 16.773 15.8368 -0.442877 -0.889379 0.113427
15.8826 18.917 16.1743 -0.122405 0.524491 0.842571
14.7353 18.6853 16.3654 0.292461 0.459582 0.8386
15.2246 13.7136 11.5153 0.665483 -0.366897 0.650014
16.0269 14.2064 11.1716 -0.652069 0.0762214 -0.754319
15.5553 14.5851 12.1671 -0.333607 0.34517 -0.877248
17.459 13.1254 12.3924 -0.825345 0.280127 -0.490239
16.8453 14.3377 13.9308 0.652839 -0.480165 0.58587
18.7636 13.9197 12.6939 0.879989 -0.333805 0.337925
19.7062 18.5469 13.2202 0.352246 0.0766115 -0.932767
18.8742 11.2264 11.7669 0.874357 -0.469192 -0.123927
19.8975 16.0357 14.845 -0.524227 0.519 -0.675148
9.77894 18.6217 14.0603 -0.736051 0.660333 -0.148957
22.6124 17.567 14.1861 -0.140931 0.8054 0.575734
10.5421 19.3689 14.228 0.606838 -0.750796 -0.260871
22.0938 17.8523 3.60891 -0.0465685 -0.613728 0.788143
21.6964 15.7401 15.2223 -0.578042 -0.628843 0.520023
21.8317 18.7448 12.271 -0.0512049 -0.910423 -0.410498
21.9934 18.4514 13.2972 -0.386684 0.919308 0.0731365
10.1859 20.0335 11.3346 0.110142 0.35665 -0.927723
14.4217 19.7931 3.71382 0.479944 0.334653 0.810963
12.6055 17.4705 14.7887 -0.281269 0.652925 -0.703261
10.8137 18.6003 12.8975 -0.0778155 0.686258 -0.723184
10.1709 21.231 9.63294 -0.0842372 -0.117933 0.989442
15.3257 20.9119 4.2896 0.635074 0.170014 0.753509
13.7506 16.712 11.9438 -0.293092 0.11134 -0.949579
16.4391 16.4744 13.3237 -0.328149 -0.0705372 -0.941989
15.0234 19.6812 16.0798 0.448538 0.44342 0.776011
14.4256 19.6648 5.31583 0.0143067 0.475768 0.879455
13.171 16.6026 9.37031 0.518856 0.16698 0.838395
14.5147 14.2903 12.1481 0.506093 -0.264731 0.820846
15.655 17.8334 16.4018 0.0194518 -0.683665 -0.729537
14.917 15.0383 13.0024 0.649595 -0.243574 0.720207
17.8931 18.8872 11.3235 -0.677294 -0.395903 -0.620108
16.7351 15.088 11.7316 0.824247 -0.124662 0.552336
14.4955 19.8403 14.5593 -0.691168 -0.308578 -0.653503
15.9718 15.4895 12.478 0.905278 -0.156491 0.394947
16.8328 19.6492 3.73627 -0.751283 0.465531 0.467819
19.2551 16.5569 15.5781 0.582587 0.669121 -0.461377
21.662 20.2302 10.578 -0.789193 0.611186 -0.0602163
10.038 20.7534 12.7995 0.600794 -0.785733 -0.147207
21.8712 19.4957 8.38407 0.142117 0.622712 -0.769436
21.8315 16.8904 13.0202 -0.390917 0.810075 -0.436993
22.5808 21.8792 13.8154 -0.873687 0.483662 0.0523564
21.3538 20.4613 12.2627 -0.1758 -0.402576 0.898347
20.9835 19.1285 11.7784 0.168271 0.897048 -0.408644
22.5542 20.7311 10.3206 0.174232 -0.183982 0.967364
11.9969 21.0984 13.7721 -0.40527 0.814546 -0.415056
10.1213 20.4968 13.7191 0.919207 -0.381362 -0.0980924
12.6014 21.8339 14.7945 0.278721 -0.876414 -0.3927
12.8172 19.6492 13.3671 0.360244 0.361387 0.860014
11.6343 19.5188 12.4283 -0.231448 -0.0518335 0.971465
14.0806 18.0479 13.8471 0.438215 -0.206437 0.874844
13.7181 18.7763 14.9272 -0.0919825 0.032172 -0.995241
13.8243 18.0754 12.0113 -0.530187 0.400544 -0.747306
13.1307 18.029 15.4131 -0.883114 0.42642 0.19564
13.6491 17.0158 14.6363 0.33991 -0.812648 0.473355
13.1081 17.9224 10.2745 -0.246906 0.320225 -0.9146
13.7982 18.6387 9.90204 0.591723 -0.445554 0.671822
16.7978 21.5705 15.9225 -0.983915 -0.140688 -0.110086
15.9926 19.8062 15.7167 0.384032 0.497471 0.777844
15.3464 20.3884 13.179 -0.892439 -0.0461657 -0.448799
17.7018 19.3951 13.679 0.762065 0.186461 0.620072
14.4405 20.8919 14.9147 0.910505 0.282653 0.301808
