32.9563 26.8003 31.8093 0.616593 -0.777223 0.12545
37.6557 22.2882 17.674 0.0827722 0.946365 -0.312317
20.9971 24.151 34.6609 0.745348 0.0429924 -0.665287
21.6784 22.7899 16.9723 -0.523892 0.851675 -0.01364
21.3354 23.0894 34.5712 -0.934101 -0.314166 0.16957
33.0213 32.9103 18.8328 -0.690437 0.498046 -0.524639
39.2402 27.3839 19.3385 0.301873 0.828909 -0.470938
23.3904 23.7112 16.9488 0.324168 -0.54918 -0.77027
23.5212 30.8034 16.235 0.603766 -0.796857 0.0220286
27.8327 28.7079 17.512 0.856953 0.359295 0.369511
22.8202 32.5393 18.3347 -0.0571516 0.873874 -0.482782
22.4687 32.9063 20.0442 -0.52754 -0.487598 -0.695665
24.5738 31.1844 16.6886 -0.887663 0.176894 0.425163
28.2623 29.5985 16.9013 -0.65625 0.709355 0.2572
22.9035 30.9408 18.1913 0.902584 0.218483 -0.370954
30.1623 26.4752 21.5112 -0.910869 0.196729 -0.362788
31.0343 32.0461 31.3775 -0.55482 0.808463 0.196371
31.8954 28.7676 33.4391 0.422746 0.901565 0.0920113
30.1401 31.372 33.1314 0.472639 0.779088 0.411866
30.6729 30.3073 32.4147 -0.73449 0.154308 -0.660842
29.2984 30.9455 33.8121 0.0677846 0.997684 -0.00556192
31.6167 29.1556 32.4913 -0.870049 -0.436102 0.229846
30.8516 34.4064 20.6148 -0.865782 0.250259 0.43335
31.6928 28.585 16.306 -0.709426 -0.405812 -0.576221
28.8139 30.2642 32.094 0.0765976 -0.996938 -0.0157549
31.4203 25.6347 31.3694 0.0973897 -0.239988 0.965878
33.409 24.8821 33.1627 -0.000499373 0.395344 -0.918533
39.2219 27.1174 21.5776 -0.941341 0.226667 -0.249999
35.9631 31.3078 17.7328 0.440378 -0.560729 0.701178
34.4004 25.0491 33.2614 -0.0134945 0.97745 -0.210734
35.4487 30.3628 18.9038 0.306527 -0.147703 -0.940332
39.6821 26.7537 20.6825 -0.699638 0.672184 -0.24223
37.557 30.8683 18.9422 -0.342487 0.040555 -0.938647
23.3447 31.0531 34.6231 0.0525657 -0.974327 0.218914
36.2231 33.3499 16.5505 0.581362 0.737449 0.343783
22.3263 33.9575 22.8702 0.973688 0.10956 -0.199821
24.7263 34.8963 17.408 -0.821382 -0.297464 -0.486669
24.3509 31.5292 34.1103 -0.482213 -0.764677 -0.42748
22.4239 35.0738 22.9346 0.590406 -0.207766 -0.779907
24.816 32.6491 17.0327 -0.905471 -0.352938 -0.235707
24.1852 35.0718 18.3942 0.0210487 -0.971188 0.237384
24.2749 31.2173 35.1472 0.346144 -0.884165 -0.313745
24.1197 33.5901 20.2213 -0.408388 -0.649576 0.641304
29.9265 27.9466 16.6629 -0.499055 0.42126 0.757287
28.5316 30.6746 30.0104 -0.312083 0.573301 0.757582
30.5346 31.4966 32.1657 -0.935656 -0.112481 -0.334509
29.3828 36.4715 21.2505 0.341054 -0.405786 -0.84795
29.7378 30.3983 34.7645 0.252043 -0.926892 -0.278109
29.204 31.7159 30.4467 -0.0362806 0.703901 -0.709371
28.7267 32.2059 31.437 0.973735 -0.0194669 0.226852
33.3536 36.6163 16.5283 -0.798993 0.158791 0.579996
31.8709 29.9818 34.9876 0.383108 0.400433 -0.832395
30.0338 31.6843 29.7046 0.289422 0.956982 -0.0205028
32.0117 37.7279 18.4721 -0.604173 0.514179 0.608765
33.0998 35.0703 16.2931 0.827506 0.486005 -0.28113
36.5554 32.3306 20.4002 0.426405 0.886258 -0.180901
34.8949 33.1404 17.6774 0.0761617 0.558609 0.825927
35.2619 31.3934 18.6362 -0.422564 -0.251107 -0.870853
34.1709 33.7345 17.1306 -0.361101 -0.885147 -0.293463
37.1083 31.6859 19.7709 0.678939 0.542306 0.49492
37.1869 32.8033 16.8147 -0.0950138 -0.725524 -0.681607
36.591 32.2111 17.4374 0.671387 -0.740059 -0.0393912
35.219 36.1311 17.5425 -0.999499 -0.0238025 -0.0208592
39.9353 34.5552 22.3601 0.695966 0.147598 0.702742
26.4849 33.522 19.537 0.49455 -0.131905 0.859082
25.0048 33.9131 17.2899 -0.266825 -0.0262818 -0.963387
25.8732 32.6841 19.7792 -0.305672 0.260583 0.915785
24.5467 34.0803 21.0779 -0.335595 0.929035 -0.155786
24.2742 23.7331 31.445 0.676396 -0.577987 -0.45653
24.7201 32.7505 18.3027 -0.127052 -0.829002 -0.544622
25.728 35.3476 20.0425 -0.93616 -0.307463 0.1705
28.065 38.118 22.3723 -0.91358 0.378302 0.149191
30.6679 35.3148 17.0887 0.148423 0.744735 0.650646
29.1234 30.1708 30.8035 0.867336 0.257364 -0.426019
29.3195 36.2763 34.7498 0.820438 -0.562432 -0.10272
32.3883 35.7067 21.0992 -0.198562 -0.631361 0.749637
31.4208 35.1916 15.9972 0.266535 -0.00353247 0.963819
30.184 31.722 30.8525 -0.179972 0.953945 -0.239998
30.1589 37.8984 15.9987 0.411579 0.206437 -0.887686
32.5448 34.9765 17.5897 0.0885746 0.722458 -0.685717
33.3744 36.5532 19.3969 -0.65245 -0.721972 0.230359
31.0293 31.8993 30.2361 -0.0587844 -0.948548 -0.311128
32.4388 37.2786 19.3489 0.719379 0.100682 -0.687283
33.501 34.0512 16.2919 0.827268 0.560117 0.0435408
34.5721 36.8727 18.2084 -0.748358 -0.538653 0.387057
35.3947 34.0381 16.9811 0.392317 -0.112397 0.912937
34.1557 38.1315 17.3229 -0.0696445 0.345063 -0.935992
37.8553 34.5268 18.1961 0.110912 0.961032 -0.25321
37.4656 35.3251 19.9704 -0.708696 0.532563 -0.462738
26.9727 26.0663 32.2914 -0.330058 -0.896953 0.294172
37.7896 36.7141 19.5089 -0.010959 0.778678 0.627328
38.4785 38.4907 19.3017 -0.807282 -0.264477 0.527587
25.6457 24.8846 32.5555 -0.439978 -0.551731 0.708528
26.0628 34.4847 19.628 -0.79528 -0.107887 -0.596565
39.2775 38.1016 19.9062 0.539673 0.836762 -0.0926426
24.8902 35.4064 19.2072 0.861114 -0.156323 -0.483782
28.3906 24.8581 33.2329 -0.306133 0.0367098 0.951281
28.6099 23.1769 31.944 -0.891103 -0.432889 0.136172
39.6322 37.4302 21.0092 -0.359551 -0.836175 -0.414168
27.532 37.3264 20.5476 0.193527 -0.973142 0.124669
29.2075 37.4245 18.1588 -0.571283 0.244678 -0.783434
28.583 36.6838 18.6665 -0.253492 0.0176248 -0.967177
29.3217 36.5273 17.5634 0.0773649 -0.605859 0.791802
30.4333 36.875 35.3792 0.929185 0.259746 -0.262958
29.6955 37.3012 34.7114 0.674959 -0.395987 -0.622596
33.3312 34.4116 34.8563 -0.97666 0.0822316 0.198425
30.2119 37.3887 17.8012 0.0475753 -0.937765 0.343996
31.3367 35.8088 19.0486 -0.545732 -0.447452 -0.708493
32.0872 37.9336 17.1699 0.232247 0.617562 0.751451
34.1529 35.8085 19.2675 -0.551767 -0.808421 -0.20496
34.6081 39.0446 19.6834 -0.168524 -0.706876 -0.686968
34.0266 37.0591 17.2756 -0.662462 -0.180416 0.727045
35.9602 37.5156 19.6933 -0.841743 -0.107585 -0.52905
33.2919 35.5057 18.0283 0.504602 -0.835495 0.217544
36.2063 38.6403 20.0913 -0.984363 -0.176129 -0.0030176
35.4141 34.267 19.9041 0.192009 -0.118848 -0.97417
39.5935 37.8744 17.9943 0.0355754 0.98023 -0.194637
39.513 39.963 19.0151 -0.531907 -0.630282 0.565526
39.5175 22.4106 22.0783 0.78909 -0.226813 0.57087
25.5086 36.4278 20.828 0.0267793 0.964758 -0.261774
21.2547 39.5104 21.4159 -0.0156433 0.988245 -0.152073
38.3488 38.6308 20.528 -0.0743917 0.978482 -0.192456
21.8457 22.8408 19.0216 0.321398 -0.374131 -0.869902
26.4069 20.7181 19.9542 -0.291914 -0.871761 -0.393471
25.253 22.1336 19.1569 -0.675725 -0.550149 0.490643
39.9919 36.6849 22.0619 -0.499452 -0.263376 0.825337
26.8356 24.2983 19.7216 -0.705009 0.645457 0.293848
27.1556 21.7474 21.4014 0.262715 -0.630666 -0.730234
32.5252 23.2996 16.0955 -0.626756 -0.750374 -0.210039
26.271 23.6825 20.3439 -0.916924 0.359094 -0.174078
31.4748 25.049 17.963 0.265557 -0.859829 -0.43609
35.2276 36.7221 21.1007 -0.00810945 0.241112 0.970464
33.2152 25.3054 16.2751 0.29454 -0.718889 -0.629638
35.7038 39.2757 21.0239 0.82783 0.501982 0.250424
29.7829 26.1919 22.7614 -0.681905 0.31543 -0.659931
32.4515 38.2994 19.7732 0.18674 0.0272266 -0.982032
33.2358 20.9853 19.3378 -0.478641 -0.859484 0.179417
37.255 38.9415 18.9508 -0.74402 0.461832 0.482852
36.2223 21.3603 20.0923 -0.094246 0.979122 -0.180107
34.8405 20.618 21.8479 0.574003 0.0927069 -0.813588
33.3909 20.5969 18.3291 -0.850384 -0.498858 -0.167296
38.1149 39.6031 22.444 -0.788677 -0.600743 0.130754
37.862 20.8009 21.6235 0.769795 -0.32729 -0.547994
39.8665 21.9592 21.1278 -0.283312 0.470382 -0.835748
21.1098 21.1956 19.4502 -0.891176 0.421031 0.168935
21.1218 22.0604 18.8388 -0.470322 0.696643 0.541743
40.1763 23.6446 20.6792 -0.116777 0.914209 0.388054
23.6501 22.2083 20.3291 0.068843 -0.564221 -0.822748
25.2356 25.8578 22.2998 -0.992056 0.124801 -0.0158235
39.4674 39.3553 21.3243 -0.183744 -0.873386 -0.451037
21.0431 23.1781 18.4062 0.077527 -0.691548 -0.718158
23.5686 23.7216 20.3309 -0.767818 -0.490803 0.411785
27.6998 27.128 20.0889 0.25184 -0.149437 0.956162
26.8744 24.4802 20.9011 -0.981127 0.188502 0.0430812
26.775 25.8861 19.6449 0.121556 0.751365 0.648594
27.5778 22.4607 20.7894 -0.308388 -0.367558 -0.877381
27.7341 25.8859 22.1989 -0.648212 -0.445186 0.617762
32.1367 24.1784 34.9974 0.767511 0.551593 -0.326607
27.3682 25.1597 20.1377 -0.622614 0.424652 0.657284
31.1858 25.4751 16.8194 -0.945845 -0.0484348 -0.320985
31.1217 26.5741 33.9266 -0.607835 -0.791806 -0.0598222
32.6512 24.8242 17.9341 -0.445501 0.178075 0.877393
32.3583 25.6927 23.9917 -0.473658 -0.620315 0.625186
34.3776 21.6578 21.2686 0.321781 -0.523366 -0.789015
30.7953 26.5866 16.5825 0.476277 -0.557385 -0.68006
34.5525 21.8199 17.6912 0.782743 -0.0241429 -0.621876
36.6828 23.8707 21.9193 0.425144 -0.888731 -0.171493
38.1181 23.6573 20.3717 0.151233 0.414176 -0.897545
38.9767 26.1602 21.1687 0.573496 -0.313651 0.756786
38.7413 22.6819 17.7181 0.0911193 -0.983625 -0.155499
37.1848 25.5414 21.3235 0.854328 0.459584 0.242708
37.9811 21.8024 21.1319 0.0545848 -0.602406 -0.796321
36.8532 22.1557 17.0539 -0.460867 -0.605293 0.649016
39.7573 22.9378 17.3686 -0.136099 -0.918315 -0.371718
38.0967 27.3808 19.3086 -0.0314621 0.00838983 0.99947
22.2325 24.0079 19.1215 -0.0206902 -0.305506 0.951965
22.8729 30.6583 17.146 0.892905 -0.450135 0.00998378
22.5407 30.3353 16.0523 0.184689 -0.682391 0.707271
25.4953 30.0828 18.4119 -0.457266 -0.183259 0.870244
25.3137 28.0134 22.0097 0.196946 0.149719 -0.968915
27.7878 29.3635 19.9454 -0.911608 0.358147 0.201748
25.6518 25.7518 19.4098 -0.396539 -0.912312 0.102192
28.4962 31.6671 17.9693 0.820466 -0.537777 -0.193987
27.2559 27.5658 22.173 -0.0934014 -0.500825 -0.860494
27.8598 26.0505 20.1249 -0.29853 0.12852 0.945707
28.6966 26.7771 19.9779 -0.129837 0.646306 -0.751951
30.2409 25.3733 24.2334 0.163507 -0.703513 -0.691618
30.2753 27.2689 24.9038 0.12581 0.70631 0.696634
30.8842 30.0829 34.5682 -0.26299 0.546866 0.794842
32.4065 26.1789 32.4598 -0.834811 0.232553 -0.499008
30.6229 28.7072 16.9908 0.181547 0.54919 -0.81574
33.6596 26.738 34.6383 0.670845 0.599308 -0.436803
33.29 27.4889 35.2566 -0.0378284 0.75397 -0.655819
32.9643 27.3933 34.1077 -0.692382 -0.290284 0.660563
36.6122 28.2321 19.7932 -0.984982 0.109287 -0.133663
38.0974 24.9155 20.9714 -0.575351 -0.351891 -0.738338
31.4032 27.5358 16.5705 -0.00326628 -0.485868 -0.874026
39.4382 25.5051 20.4929 0.149547 0.617928 -0.771881
39.6905 24.3817 22.6413 -0.338445 -0.940311 -0.0356359
37.3057 25.9169 20.3732 -0.932422 0.351428 0.0841865
38.9666 23.5034 16.7791 0.742187 0.669945 0.0182277
40.0671 27.6123 19.9929 0.084156 -0.916119 -0.391973
23.0208 27.8952 21.7515 0.642492 0.36193 -0.675434
26.0963 30.7282 19.4045 0.404279 -0.265641 0.87521
21.5224 31.4174 20.1175 -0.294764 -0.145874 -0.94437
23.0794 29.915 18.012 -0.955045 -0.00163073 -0.296456
22.7083 32.2056 22.8476 -0.557292 0.189848 -0.808322
28.7895 30.1439 18.1377 0.263306 -0.503509 0.82289
23.8561 32.9994 17.7286 -0.335431 -0.93886 -0.0776422
27.5248 28.3373 19.7448 0.853344 -0.390598 0.345307
26.6343 31.3367 17.9903 0.00338531 -0.390328 -0.92067
26.9764 29.6389 21.1934 0.717567 0.608811 -0.338299
29.5239 32.1055 32.6943 -0.733961 -0.605031 0.308609
26.9744 28.4378 21.6381 -0.680436 -0.60823 -0.408734
28.4465 34.6864 22.8159 0.905185 0.418517 -0.0740517
32.6799 30.399 16.0013 0.272553 -0.84944 0.451849
31.4128 30.984 34.205 -0.168812 0.0122874 -0.985572
31.6995 28.9963 34.6558 0.973774 -0.0886594 -0.209533
30.411 30.1253 19.8587 -0.562749 0.767859 -0.306116
36.069 29.3364 19.4621 0.985925 -0.0498179 -0.159593
31.6162 34.6872 18.5651 0.202801 -0.0266577 0.978857
32.3709 27.744 16.166 0.308874 -0.269329 0.912173
34.0723 35.318 22.0581 -0.576478 0.699279 0.422708
37.2212 26.232 22.2326 0.72346 0.66724 -0.177191
33.5451 33.8258 19.1878 -0.989812 0.137361 -0.0374731
37.3966 26.6324 19.6035 0.678382 -0.611588 -0.407135
21.3717 28.3896 20.8269 0.310405 -0.521092 -0.795054
23.2308 30.4057 19.0562 -0.707465 -0.691756 -0.1448
38.5063 28.2238 20.9144 0.975867 0.122735 0.180612
36.3752 30.9627 16.7925 0.0124033 0.947644 -0.319087
22.9091 34.47 23.6578 -0.788888 -0.335085 0.515144
23.853 33.546 24.8443 0.613314 -0.776486 0.144618
40.1557 35.175 20.9527 0.379393 0.426657 0.82099
23.7883 32.5994 18.7265 0.143049 -0.973923 -0.176102
25.1606 32.3458 23.1836 0.479316 0.0967504 -0.872293
24.6656 30.7436 18.3262 0.225852 0.218078 0.949438
25.4201 32.4689 16.1178 -0.513317 0.754904 -0.408198
25.706 31.8901 17.6917 0.141248 0.898386 0.415875
25.989 34.633 25.3299 0.604449 -0.26528 0.751177
26.7113 36.9257 21.1575 -0.461245 0.808497 -0.365494
28.5593 37.4693 21.0152 -0.139419 0.883116 0.447961
30.3458 30.7125 33.8927 0.0882192 0.765773 0.637031
29.0935 35.6937 22.0483 0.813268 -0.44942 -0.369617
30.7259 35.5259 19.8861 0.231767 -0.931887 -0.279052
29.9846 35.5272 19.2027 0.16712 0.927958 -0.333115
32.3893 34.657 20.668 -0.558394 -0.556224 0.615477
29.3696 32.1658 18.4212 0.0935902 0.414596 -0.90518
33.7983 34.7103 23.0031 0.839106 -0.297823 0.455195
33.7627 33.2288 18.0781 -0.477974 0.861297 0.172362
33.3174 28.3186 16.4256 0.591074 -0.647835 0.480564
32.514 37.4701 22.4175 -0.372197 0.715913 -0.590709
20.8568 30.1965 20.1744 -0.934814 -0.225204 -0.274602
33.9923 33.3104 35.2477 -0.806603 0.0591037 -0.588132
34.5626 32.1543 18.8624 -0.613279 -0.784648 -0.0906384
36.074 33.2768 22.5332 0.194138 -0.508255 0.839039
21.0324 29.9023 21.24 0.769312 0.601425 0.215517
36.5205 33.8245 19.0975 0.329483 0.391229 -0.859291
36.8281 32.9018 18.23 0.893886 -0.314908 -0.319062
23.0431 35.3485 20.5189 -0.460123 0.194283 -0.866337
23.0686 35.5667 23.8587 -0.661889 -0.214458 0.718269
22.4046 36.2511 22.7483 0.811561 0.536791 0.230703
21.2029 33.6451 21.9041 -0.61482 0.554408 -0.560917
24.4324 36.081 24.0061 -0.349975 0.66948 -0.655221
25.7674 33.0599 23.6685 0.0506594 -0.562156 0.825478
24.2295 33.7694 22.0744 0.790474 -0.454684 0.410383
25.3937 33.936 20.2516 0.299839 0.660011 0.688826
24.6752 36.9536 21.3021 -0.584205 0.00477914 -0.811592
27.5718 37.4374 21.5931 0.657394 -0.748392 0.0879884
26.935 39.6155 22.4695 -0.427592 -0.480903 -0.765439
28.873 35.5269 20.9314 -0.782045 0.435976 0.445343
28.4201 37.7913 20.0366 -0.417987 -0.762622 -0.493654
31.4223 35.2491 20.8939 -0.440419 -0.132122 0.888017
28.5688 35.2598 19.8837 -0.343512 0.935052 0.0876216
33.9953 35.2051 20.1986 0.41592 -0.897293 -0.147905
30.5031 36.1093 21.5966 0.124154 0.61743 0.776766
32.3836 36.7247 21.5358 0.363786 -0.609209 0.704645
32.2073 35.5341 18.4184 -0.570825 0.340185 -0.747284
33.3399 34.4032 17.2338 -0.382414 -0.915324 0.126262
31.1352 37.1672 21.4863 0.521829 -0.113489 0.845467
36.8015 34.1275 22.6833 -0.758679 0.650359 0.037932
35.0974 35.9074 18.6302 0.609079 0.582333 0.538434
34.831 35.0155 19.3479 0.363003 0.605584 0.708164
36.4125 36.5607 20.3962 0.535243 0.547875 0.642922
36.5304 34.637 19.8038 -0.530961 0.532483 -0.659197
35.7752 35.0375 18.1506 -0.782646 -0.613835 -0.103303
37.3838 34.5611 19.2028 0.177043 -0.875838 0.448958
23.1642 36.7112 19.7856 -0.41869 0.72303 0.549479
26.3458 35.5306 21.4655 0.434917 -0.770547 -0.465944
38.2525 36.288 20.45 0.428474 -0.683625 -0.590819
25.1286 36.2128 19.8611 -0.710235 -0.240086 0.661759
22.1033 34.2307 21.8745 -0.643543 0.698415 0.313159
24.6112 35.3494 23.2972 0.324296 0.588144 -0.740891
21.3941 37.3799 19.1669 -0.345104 0.142863 -0.927628
29.6721 37.4469 20.8667 0.27027 0.0437895 0.961788
26.2994 20.8245 21.1264 -0.130222 0.962008 0.239966
27.6172 39.4839 21.4133 -0.343787 0.316374 -0.884148
27.1715 21.0721 19.2778 -0.57341 -0.312685 -0.757251
31.6926 36.1323 35.0894 -0.894124 0.0969894 -0.43719
29.2756 39.8019 20.2831 0.106703 -0.948253 -0.29905
27.6534 34.609 19.6818 0.0598308 -0.928307 0.366969
30.9009 36.0807 16.3482 0.762586 0.515962 0.390187
33.5186 37.7745 22.1332 0.0849272 0.994437 0.0623017
33.9801 38.2403 21.2404 -0.884792 -0.319612 -0.339103
34.3038 37.2412 21.3321 0.293578 0.454684 0.840877
35.7999 37.8602 22.8207 -0.889997 -0.368193 0.268958
35.6077 35.088 17.033 0.947062 -0.255177 0.194828
33.3549 20.9246 21.1084 -0.910769 0.399087 0.105965
35.9195 34.7567 21.6355 -0.744341 -0.0388754 0.666667
36.606 38.6655 21.5531 0.216652 0.77903 0.588366
36.3408 38.271 19.0608 -0.876892 0.43597 -0.202461
39.7382 21.6593 23.5604 0.176711 0.184482 0.966819
21.8991 36.2651 19.4414 -0.612767 -0.732743 0.29598
38.5383 20.9811 19.0897 -0.204239 0.241017 -0.948787
38.9798 21.4211 21.2331 -0.179215 0.049916 0.982543
24.3981 22.1647 21.2378 0.583948 -0.0184837 -0.811581
23.7601 21.3357 23.0654 0.22598 -0.0168202 -0.973987
23.5995 21.4127 21.0141 -0.767081 0.35928 0.531511
22.9109 21.3512 20.1836 0.434207 -0.828664 -0.353243
23.5244 24.3243 21.3778 0.187861 0.533453 -0.824704
25.4472 22.1847 23.1845 -0.286915 0.91951 -0.268666
24.4668 23.8601 21.225 0.363247 0.673861 -0.643399
27.5431 39.5113 19.2802 -0.516984 -0.286696 0.806556
24.6554 24.1414 23.5009 0.974783 -0.220085 -0.0368771
28.5524 36.1593 26.0974 -0.221122 -0.126753 0.966974
27.8417 20.8333 22.0578 0.964429 -0.261523 0.0384933
28.0252 21.899 22.0462 -0.454291 0.0204021 0.89062
30.4452 21.3469 26.5103 -0.256909 -0.716606 0.648439
33.5306 22.2296 25.0467 -0.247361 0.315042 0.916276
28.5904 37.8074 18.9604 -0.844486 -0.369485 -0.387718
31.2847 21.1488 25.6662 -0.55591 -0.707973 0.435589
30.1696 27.1948 26.288 -0.892845 0.248798 -0.375402
33.2822 37.7427 23.2201 0.700844 -0.712194 -0.0399702
33.9632 39.7001 19.2001 -0.582301 -0.7119 -0.392586
33.675 39.0879 20.231 0.35857 -0.931895 -0.0547621
34.7368 23.3385 26.0166 -0.530535 -0.844673 0.0711302
38.2843 37.9707 24.1126 0.163013 -0.180796 -0.969917
35.5663 39.6714 23.6888 -0.332551 0.555205 -0.762337
35.4982 20.9336 19.1312 -0.0588343 -0.392629 0.917813
37.2894 38.1765 23.8433 0.116167 0.645811 0.754608
38.6447 21.6121 23.7633 -0.397446 -0.485752 -0.778513
37.9895 21.8129 19.4426 0.67137 0.156356 0.724442
39.5721 22.7481 18.4626 -0.26751 0.868304 0.417716
21.941 21.9356 19.6061 0.461673 -0.363482 -0.809159
22.757 22.7342 21.8538 -0.742935 -0.206979 -0.636558
21.4916 23.7255 21.3776 0.273083 -0.647366 -0.711577
25.6474 22.8565 19.9765 0.589813 -0.56067 0.581179
24.4756 25.3727 21.3223 0.848366 -0.346311 0.40043
25.8175 23.0672 21.1183 0.926841 -0.0607512 0.370507
25.6239 26.9251 21.8598 0.717432 0.0235298 -0.696232
26.2721 23.4966 19.2842 -0.358331 0.899152 -0.251245
24.1642 24.3025 22.4133 -0.247192 0.933047 -0.261381
30.3192 24.5262 25.1798 -0.380361 0.888053 0.25824
25.1651 26.2036 21.2564 -0.788595 0.614898 0.00427702
30.44 24.9243 17.878 0.0626817 -0.957068 0.283005
29.5759 23.5797 26.7168 -0.0568689 0.935817 0.347868
32.4253 24.117 25.9758 0.738026 -0.136584 -0.660805
31.2182 26.2575 24.3017 0.376982 -0.248777 -0.892185
33.2097 37.7913 17.2032 0.00488374 -0.230928 -0.972959
30.9242 25.2487 22.6427 0.135898 0.99068 -0.0092578
33.7264 22.5486 26.9278 -0.275959 -0.936604 -0.215916
38.8793 24.2754 20.6472 -0.0522214 0.630355 -0.774548
33.8002 39.1823 17.9268 0.796791 0.323413 0.51042
35.2635 21.7358 21.9523 -0.228377 -0.029784 0.973117
38.9409 39.17 24.2469 -0.80378 -0.0822052 0.58922
37.5161 24.7318 21.9146 0.122339 0.681618 0.721409
39.2431 23.4668 20.1222 -0.40593 -0.706053 0.580268
36.4762 22.8705 24.8262 0.316711 0.755802 0.573112
38.119 40.0544 23.9664 0.533434 -0.582003 -0.613776
37.2584 21.7223 20.1111 -0.134546 -0.866146 -0.481341
20.7611 23.0726 21.7185 0.606765 -0.794579 0.0219112
39.2977 23.7895 23.7894 -0.141188 0.908434 -0.393463
36.6477 23.2737 22.891 -0.927236 0.374438 -0.00535099
26.5607 29.926 18.7727 0.365508 0.405163 -0.838001
21.6051 24.5292 20.7301 -0.200207 -0.54063 -0.81709
25.8596 30.0186 20.9888 0.311808 0.275021 0.909472
25.236 29.3836 21.6929 0.239924 -0.430399 -0.870169
28.343 30.8969 18.7644 -0.624382 -0.0961717 -0.775176
25.7961 26.6989 20.3847 0.281444 -0.95877 0.039365
23.3805 31.0299 20.4486 -0.90334 -0.0623782 0.424365
29.0265 26.3912 26.067 0.337945 0.0774225 -0.937976
31.2182 25.6178 25.4796 -0.210163 -0.586393 -0.782288
26.8225 26.5606 22.4465 -0.0531715 0.40319 0.91357
30.2379 27.9323 22.8363 -0.478503 0.36411 0.799036
31.3321 27.3917 24.8454 -0.292061 0.208121 -0.933481
30.7248 29.7553 17.1816 0.543395 -0.396118 0.740143
32.1577 26.5344 24.7366 0.00346802 0.319062 -0.947728
27.1841 25.2483 24.0968 0.379753 0.590847 -0.71182
35.3306 21.5614 25.7374 -0.736614 0.614476 -0.282523
36.2808 29.9482 21.253 -0.262004 -0.918006 0.29769
38.3038 24.6916 22.871 -0.462807 0.255181 0.848936
31.8851 25.3025 22.1502 0.400957 0.773292 0.491176
35.6661 21.1451 24.785 0.269495 -0.92884 0.254221
39.1915 24.5201 24.614 0.714105 -0.625314 0.3147
36.9048 26.6324 21.3256 0.908054 0.21082 -0.361929
39.0399 28.4556 22.006 0.679861 0.722244 -0.127088
22.8752 23.076 19.1496 0.377257 0.248549 -0.892133
21.1328 29.1394 20.0268 0.58966 0.272245 0.760384
38.3544 29.5679 19.2195 -0.821787 0.43897 0.36328
21.3905 29.9966 19.3056 0.781296 -0.464718 0.416671
25.4245 31.8996 21.1559 0.776802 0.628433 0.0406224
22.0097 27.6376 21.3 0.669507 0.0301699 -0.742192
25.7325 31.2377 21.9461 -0.612875 -0.74897 -0.251848
23.0841 32.0854 20.3993 -0.300378 0.326303 0.896269
28.2818 28.4707 22.9051 -0.40616 0.913145 0.03466
24.7661 32.2087 19.2498 -0.752116 0.422342 0.505913
27.7842 30.2173 19.417 0.279046 -0.588286 -0.758981
27.9171 26.9268 22.8003 -0.389336 -0.224192 0.893395
27.8825 27.6531 24.1242 0.909007 0.197286 -0.367129
29.4551 28.8853 21.2475 0.481187 0.269852 0.83405
29.751 27.0102 23.4499 -0.994604 0.0373813 0.0967767
28.5134 28.7186 21.8627 0.416287 0.867695 0.27168
28.3405 25.4039 23.9822 0.0820674 -0.991154 0.104304
30.6656 30.6213 17.8724 0.877696 0.465736 0.112869
29.7243 29.2326 16.9323 -0.0633393 0.041399 0.997133
31.2728 30.7196 19.9498 -0.617775 0.685364 0.385526
36.2728 21.9473 25.4027 0.511126 -0.77204 -0.377763
35.8065 30.0066 20.2917 -0.739095 -0.401121 0.541148
36.363 29.1511 20.4767 0.804279 0.583598 -0.11202
36.6407 28.4238 22.063 0.266283 0.182453 -0.946469
37.8452 26.9168 23.0742 -0.0843575 0.906085 -0.4146
38.3793 28.3797 19.3008 0.651218 -0.272047 0.708453
38.7461 26.7395 22.5393 0.351088 0.916781 0.190392
37.3595 29.9194 21.5796 -0.0698091 0.753875 0.653298
38.4493 29.1156 20.1398 0.986418 0.0758309 0.145705
21.6351 28.7017 19.0963 -0.599935 0.18084 -0.779342
23.7534 29.7055 19.6953 0.734015 0.659076 0.163834
22.2066 28.625 21.525 -0.211013 -0.260719 0.942072
22.9012 33.2715 23.5751 -0.826212 -0.475358 -0.302337
24.7918 34.1075 24.7443 0.0599609 -0.540398 -0.83927
23.5448 33.1351 22.7146 0.890961 -0.0378641 0.452498
24.6182 29.4884 20.548 0.233913 0.881336 0.410525
23.5922 31.8781 22.3491 0.239217 -0.77312 0.587419
25.4649 35.982 23.7353 0.145683 -0.985071 -0.091711
28.4392 25.4261 22.9521 0.248119 0.967241 -0.0536778
26.6743 33.4881 23.9155 0.0977133 -0.737346 0.668411
28.5328 27.8971 17.8852 -0.626303 -0.211098 -0.750454
28.5164 34.8055 21.7802 -0.911132 0.409703 0.0445318
27.8879 33.9019 21.5836 0.533158 -0.108676 0.839007
26.5308 35.9793 23.7824 0.115806 -0.800437 -0.588123
29.1464 29.943 21.3549 0.858973 0.308442 0.408693
30.6933 31.0754 16.9577 -0.757893 0.485616 0.435633
29.5876 30.6908 20.6565 -0.98589 0.0859824 -0.143625
27.3274 32.2902 19.8468 0.293812 0.846655 -0.443677
29.6006 29.7235 20.3782 -0.683177 0.22582 -0.69446
33.3816 35.553 21.2924 0.0581441 0.998124 0.0192004
38.3379 30.2303 21.2465 0.00380449 -0.0321916 0.999474
38.4485 36.0754 22.5199 0.594436 0.278735 -0.75429
38.1963 37.1126 22.3567 -0.418604 -0.14202 0.896995
35.93 33.914 23.417 -0.833689 0.0945024 -0.544089
21.1505 27.2456 20.8167 -0.631052 0.531005 0.565515
39.0706 34.0713 25.3908 -0.569545 0.382425 -0.727578
38.642 31.2746 20.9592 0.359792 -0.232737 0.903539
36.7994 32.651 19.2817 -0.976539 -0.176374 0.123546
36.2553 32.0267 18.4578 -0.920191 0.268049 -0.285305
38.7215 33.1872 23.0511 0.0496293 -0.32989 -0.942714
22.4258 30.7968 19.6284 0.285012 -0.795719 0.534415
22.5638 36.8252 21.7447 0.924647 0.350128 -0.149792
24.9768 34.3727 22.9679 -0.936115 -0.317723 0.150799
22.4048 20.9561 21.0693 -0.621253 0.778202 0.0919039
25.9676 33.647 24.9109 -0.20348 0.338644 -0.918649
26.11 36.6093 23.048 -0.39113 -0.849652 -0.353708
26.9089 34.2042 24.7341 0.541425 -0.528413 0.653941
26.9847 37.2654 25.6761 -0.254112 -0.768915 -0.586683
28.2985 36.5713 23.6544 -0.0313861 -0.406649 0.913045
28.1392 39.4806 20.2124 -0.181316 -0.848853 0.496562
26.8199 37.2397 22.3547 0.835518 0.135152 0.532582
28.6038 39.7691 21.1794 0.418447 -0.872278 0.253047
29.8051 31.3533 21.4469 0.844484 0.438687 -0.307246
28.3132 38.6184 18.3323 -0.941932 0.118938 0.314034
27.2014 36.4225 23.0852 -0.135375 -0.554175 -0.821318
35.6503 35.9569 23.9886 0.145718 -0.306995 -0.940489
36.6438 35.7328 24.2945 0.555001 0.430245 -0.711943
33.3802 37.0242 24.1552 0.834862 0.213623 0.507318
31.4899 36.2161 21.2861 -0.132941 0.239484 -0.961756
34.465 36.1066 21.5018 0.250808 -0.594429 -0.764035
40.0279 35.1502 23.8077 -0.725629 0.563899 -0.394311
36.4655 37.2073 18.7519 -0.368355 0.573994 -0.731331
36.4422 34.959 23.6506 -0.925185 -0.0738161 0.372269
36.7726 35.7359 21.3788 -0.491828 -0.284432 0.822924
23.001 29.3856 21.6916 -0.408419 0.69008 -0.597481
21.4254 34.39 20.0088 -0.485087 -0.816548 -0.312954
23.5039 34.6044 19.9313 0.0314361 -0.470048 0.882081
38.93 22.3921 22.9919 -0.847623 -0.377545 -0.372819
22.4851 35.6917 21.569 0.768993 0.180775 0.613164
23.7006 39.7108 23.1496 0.772113 -0.0221098 -0.6351
22.4905 34.21 20.2866 0.0821012 0.431251 0.898489
24.8206 21.001 21.5154 0.562591 0.807497 -0.177314
24.7834 34.6794 22.0321 -0.847134 0.440741 0.296836
21.7685 33.4669 21.0111 0.223157 -0.974746 0.00843165
24.2945 36.0916 21.8836 -0.471086 0.693936 0.544547
26.3626 22.5718 23.3598 0.473108 -0.700331 -0.534513
27.6993 33.8113 24.0585 0.320088 -0.883568 0.341836
26.8923 36.8905 19.8156 -0.357219 -0.692336 0.626949
28.1201 38.6231 19.4679 0.903709 0.392178 -0.171773
28.3313 37.3907 24.2817 0.610954 -0.387031 0.69061
28.6653 34.4492 23.8537 -0.0205731 -0.91606 -0.400512
35.1568 37.7478 20.7967 0.42464 0.312305 0.849792
28.0763 34.7977 20.7185 0.754448 -0.637763 0.155135
31.8899 22.6574 25.8586 0.678035 -0.175392 0.713797
35.8617 36.7533 23.2038 0.944057 0.187414 0.271353
33.0255 39.6312 22.3372 0.422394 0.882595 -0.206423
35.5913 35.7211 21.4375 -0.254695 0.203732 0.945317
35.2345 37.2079 23.9407 0.806859 0.587341 0.0633094
36.3196 36.5897 22.1179 -0.235242 0.589755 -0.772561
33.3785 39.1942 21.3621 -0.987124 -0.127217 -0.0969623
37.4064 36.6294 21.883 -0.445017 0.886505 0.126765
35.662 39.5115 22.1992 -0.506527 -0.816748 0.276322
38.8399 34.1423 22.7178 -0.604444 -0.234895 -0.761231
22.6773 36.353 20.7778 0.955883 -0.149224 0.253023
39.2186 37.7147 22.4049 0.311869 -0.517487 0.796834
38.1257 22.2619 25.9743 0.589053 0.283568 -0.756707
21.1182 38.9999 24.787 0.631112 0.536313 0.560416
22.2937 22.9967 22.8232 0.641225 0.723735 0.255026
25.6667 39.8172 22.0663 -0.0685522 -0.938226 -0.339166
40.1825 22.3804 26.21 -0.58491 -0.798267 0.143706
23.0065 22.1681 23.0309 -0.525001 -0.453696 -0.720093
25.3328 23.5525 21.9615 -0.576555 -0.791005 0.204684
26.0427 22.9036 22.4147 -0.190746 -0.882045 -0.430828
24.6752 22.997 23.8088 -0.80525 0.285457 -0.519699
30.4978 21.7429 27.4939 -0.748151 0.602008 -0.279027
32.1461 25.2336 26.0075 0.2819 -0.395873 -0.873966
27.7254 37.9286 24.9752 -0.884696 -0.344628 -0.313917
28.2094 24.5957 29.0397 0.731331 0.187213 0.655825
34.8708 38.543 27.8743 -0.6537 0.418022 -0.63082
30.5924 23.828 26.3999 -0.036779 -0.637307 -0.769732
32.1887 20.6388 25.0126 0.93719 0.345559 -0.0475844
34.1727 21.256 26.1033 0.863839 -0.211725 0.457116
34.8593 20.6852 25.3518 0.506887 -0.51036 0.694693
36.4533 21.6875 27.5962 0.522912 0.485161 0.700844
36.3875 39.4467 23.0888 -0.031418 0.941892 -0.334444
33.0584 22.8285 27.7456 0.187287 0.945732 -0.265544
38.2926 20.8928 26.1899 0.597181 0.796293 -0.0963954
36.5771 20.728 23.9729 -0.684953 0.561966 -0.463717
39.4125 38.4297 23.1782 0.928412 -0.187091 0.321011
37.5673 21.4047 25.6284 -0.817212 -0.0608117 0.57312
39.0372 39.6624 25.8712 -0.762705 -0.604734 -0.229298
37.3544 20.8384 23.2069 -0.0273565 -0.991379 0.128139
24.4883 22.0295 23.5095 -0.35853 0.447846 -0.819079
21.0507 24.5729 26.2967 -0.0729682 0.519358 0.851436
38.9439 22.5005 26.6499 -0.0652805 -0.762129 0.644126
22.844 25.0179 21.8327 -0.331709 0.425289 -0.84208
22.4894 24.1476 21.2293 0.182789 0.166665 -0.968923
21.4749 23.1143 27.9026 0.147927 0.70208 0.696564
27.2278 22.6474 24.0207 -0.730278 0.0389947 0.682036
24.9126 26.1882 20.0771 -0.226151 0.837764 -0.496998
24.9503 25.222 23.2784 0.0854148 -0.545323 -0.833863
25.8211 25.0472 27.8501 0.599705 0.59623 0.533726
31.2134 23.5526 27.5829 0.267223 -0.0786252 -0.960422
28.1905 25.6745 25.8258 -0.899916 0.414299 0.13604
28.9371 24.427 25.9755 0.992769 0.0659845 0.10028
30.0371 25.4506 28.1857 -0.0868278 -0.888286 -0.451009
31.4245 25.4723 27.9085 -0.128448 -0.607139 -0.784145
29.7308 25.6739 26.3906 0.753794 0.590421 -0.288441
31.3013 24.4242 25.7077 0.29088 -0.729258 -0.619331
32.4449 25.2603 28.4342 0.000949423 0.0209046 0.999781
34.425 24.8534 28.2787 -0.172929 -0.120448 -0.977542
35.4885 23.4058 25.1368 -0.640604 -0.715392 -0.279
35.6965 23.2386 26.8029 -0.854828 -0.140157 0.499625
34.954 25.8095 28.3462 -0.512572 0.363839 -0.777748
37.2486 20.9311 27.8129 0.0215817 0.112021 0.993471
38.3804 23.0628 23.6414 0.241855 0.54614 -0.802021
39.2542 20.741 23.8959 0.231608 -0.167371 -0.958303
37.2486 22.3318 25.2457 -0.146022 0.434642 0.888686
37.6553 23.1962 28.2642 -0.531913 -0.550777 -0.643206
37.8781 23.9102 27.5306 0.901833 -0.0508811 0.429079
38.5397 23.7014 24.535 -0.63661 0.406095 -0.655603
37.4677 23.9998 22.6614 0.627215 -0.490529 -0.604964
22.0309 26.957 28.8955 -0.602446 0.0969616 0.792248
23.7325 31.5576 21.3742 0.455942 0.857566 -0.238114
25.981 25.4662 26.7188 0.974841 0.142843 -0.171118
39.9633 23.4125 28.1706 0.341919 0.910804 -0.23136
26.7741 24.7861 27.3965 0.655651 0.344975 0.67165
26.0527 31.0691 20.8937 -0.815152 -0.237112 -0.528494
24.7995 26.3765 28.4346 0.659934 -0.389313 -0.64259
29.8081 24.6616 28.9442 0.384348 -0.866396 -0.318802
29.5472 26.2143 27.404 -0.440818 -0.882428 0.164318
29.197 27.5124 24.5298 0.582866 0.812139 -0.0264008
30.6235 25.9487 27.4156 0.418603 0.806093 0.418313
27.0083 27.0575 26.2379 -0.242892 -0.569826 0.785049
33.0197 24.7861 26.5042 -0.388726 -0.417026 0.821572
32.9154 25.0306 22.4182 -0.0761862 -0.0432935 -0.996153
33.245 25.6595 24.6239 -0.00390158 0.999651 -0.0261408
27.8293 25.43 24.9166 -0.299287 0.939146 -0.168617
35.8406 23.9334 27.6692 0.194106 0.613618 -0.765373
32.1792 24.2914 24.084 -0.976473 -0.113885 0.183112
35.7502 22.1991 26.6505 0.980593 0.183367 0.0693806
35.3849 28.8749 22.2548 0.51828 0.088731 0.850595
36.7374 26.0872 29.8748 0.502313 0.346959 0.792023
38.3493 29.0625 21.5102 -0.683391 -0.496228 0.535476
36.2812 22.4153 23.402 -0.932282 0.0144077 -0.361446
38.1026 32.3398 23.115 0.175404 -0.348416 -0.920782
39.4418 24.4388 26.2664 0.346722 -0.887181 -0.304457
39.0347 25.3664 25.3489 -0.982772 0.145594 -0.113851
37.7005 23.2291 24.9967 0.456241 0.0794187 0.886305
37.6102 30.9325 21.1191 0.393592 0.326421 0.859381
22.1953 25.993 31.5229 0.692043 -0.70594 0.15075
36.0593 23.4088 23.9505 0.868535 0.489583 -0.0771744
22.7307 31.2062 22.4115 -0.2125 0.373581 -0.902929
21.2725 28.1833 30.5863 0.324219 0.342831 0.881674
22.3802 28.5488 30.5983 0.581791 -0.531987 0.615232
24.5961 31.5443 22.0777 0.23252 0.957339 -0.171573
25.3951 31.7731 20.0598 -0.931834 0.184285 0.312607
24.3832 27.8851 29.2543 0.174961 0.447984 0.876755
25.8928 26.5296 26.4912 -0.166364 0.1215 0.97855
29.2924 28.1673 22.3417 -0.204496 -0.844375 -0.495188
26.5098 26.2834 24.0468 0.0969504 0.531711 0.841359
27.6599 26.3543 28.4133 -0.802905 -0.299155 -0.515607
28.2329 27.8291 25.0806 -0.251946 -0.928713 0.272057
30.1639 31.3809 18.3834 0.563273 0.673288 -0.478964
29.3412 25.4218 23.6366 0.0856327 0.851847 0.516743
26.1875 27.5545 26.7209 0.146761 -0.0950201 0.984598
34.2404 29.866 21.92 0.160918 0.762872 0.626205
36.1105 27.7419 21.4138 -0.684016 0.174314 0.708334
36.8182 27.3646 22.1398 0.807635 0.447575 -0.383931
37.2679 37.3642 28.8639 -0.267552 0.951071 -0.154532
35.5002 30.851 22.9353 -0.444533 0.287889 -0.84824
37.2247 34.7724 24.4333 0.60944 0.712144 -0.348475
39.5508 30.4126 21.3815 -0.298785 -0.63524 0.712178
36.4198 32.6809 21.7103 -0.671993 -0.574309 0.467541
38.8775 35.3805 21.2378 0.820049 0.570015 0.0510156
21.5261 33.2011 24.1391 0.728154 -0.658189 0.191255
39.8147 31.7137 21.5399 -0.8964 0.438845 0.0623055
24.2372 38.0094 27.3865 -0.0693174 0.776409 -0.626406
22.2071 27.6642 29.9992 -0.282285 -0.300091 0.911186
23.5173 29.4528 20.6868 -0.285499 -0.929343 -0.234121
24.2207 36.2124 25.1967 0.562309 -0.538014 0.627973
23.7352 35.0005 25.3148 -0.0280137 0.607937 -0.793491
26.6151 36.8684 30.9586 0.871947 -0.460849 0.165308
24.979 31.0314 23.0595 0.678204 -0.629978 -0.378374
21.7809 31.7457 23.1379 -0.0855854 -0.145547 -0.985643
26.7406 36.4019 32.0403 0.88187 0.103526 0.459987
26.3151 28.5914 27.0839 0.592713 -0.353331 0.723774
27.113 32.9443 23.0629 -0.794252 -0.606787 0.0311992
29.3621 27.6232 21.0123 -0.983798 0.119402 -0.13373
27.3923 29.0675 27.3043 -0.661616 0.711795 0.235822
29.7792 28.499 29.2256 0.730181 -0.0407767 0.682036
28.2649 32.2021 20.2584 -0.0358299 0.959397 0.279776
29.9473 29.1842 19.4814 -0.0418111 0.697287 -0.715572
37.4019 35.0655 26.6165 -0.716393 0.0171076 -0.697487
36.8251 35.6121 29.1578 -0.443894 0.754277 -0.48376
37.3412 34.888 22.1179 0.0983929 -0.828665 -0.55103
30.9103 30.6857 18.9571 0.0283471 0.978538 0.204107
36.4713 36.5825 24.9749 0.190986 0.623804 -0.757887
37.4148 31.6134 23.3278 0.551227 -0.619477 -0.558924
38.4085 33.2883 25.5015 0.095174 -0.290785 -0.952043
37.663 34.0001 25.149 0.231226 0.834988 0.49933
22.8858 35.1183 26.1758 0.203122 0.234241 0.950722
39.8842 31.4191 23.4269 0.359859 0.373102 -0.855158
24.2157 29.2515 21.5359 -0.393299 0.848663 0.353678
40.1411 30.6638 22.622 0.882038 0.162298 -0.442344
39.587 35.3216 24.7183 0.887456 0.181535 0.423635
26.3167 20.8914 31.9588 0.403296 0.169214 0.899288
21.5528 21.7516 24.002 -0.327328 0.159351 0.931377
21.2174 39.397 22.4886 0.594266 -0.799162 0.0904933
21.595 20.6149 24.2915 0.962954 0.266685 -0.0399811
26.7599 38.3395 32.322 -0.527471 -0.315305 0.788896
25.7716 35.9316 24.7608 0.793328 -0.603025 -0.0836184
26.9356 37.9256 30.8488 0.6863 -0.667635 -0.288543
26.4756 21.8868 31.7786 -0.723607 -0.0719032 -0.686456
27.1356 37.4086 32.8527 -0.763882 -0.575739 0.291562
27.6105 35.7123 23.7901 0.389302 -0.196288 -0.899953
27.8555 31.7597 19.1221 -0.705703 -0.707359 -0.0403272
28.25 34.2864 24.7983 0.700785 -0.713364 -0.00353867
27.6493 31.842 21.0421 0.537637 -0.839837 0.0749679
29.3499 36.2635 22.9957 -0.620337 -0.720987 0.308802
29.2737 31.7982 20.6928 0.667877 -0.288552 -0.68606
29.372 35.4651 26.1334 0.35554 0.684669 -0.636255
37.2574 37.6077 25.6058 0.12097 0.986132 -0.113619
34.5248 35.6461 23.2214 0.780769 -0.624632 -0.0152919
37.48 36.1627 24.7851 -0.183701 -0.816711 0.547026
38.3256 36.0858 26.2603 -0.326499 0.647507 -0.688573
39.3151 33.1947 28.2124 0.573662 0.516521 -0.635702
33.8172 38.8695 23.1203 -0.444818 0.869204 0.215921
22.3938 34.2729 26.784 -0.570983 0.255904 0.780058
38.228 36.9664 26.9424 0.770117 -0.519362 0.370383
23.5139 36.912 25.7925 -0.937477 0.179558 -0.298154
37.981 34.2344 23.6041 -0.516896 -0.83839 0.172977
39.5069 33.2496 24.7455 -0.0977336 0.864902 -0.492334
40.1455 22.7302 24.9897 0.709953 0.399731 -0.579812
21.8114 38.1958 24.8168 -0.252748 -0.376199 -0.891399
24.858 21.2638 22.7639 -0.0903565 -0.734403 0.672672
21.9817 20.5795 22.0797 -0.492054 0.860983 0.128806
24.3879 22.801 24.9374 -0.47386 -0.58787 -0.655641
27.4245 40.0237 31.9935 0.0644552 -0.890281 0.450827
26.9709 35.2787 25.6431 -0.66602 0.744794 -0.041233
27.4625 36.3081 26.0304 0.335535 -0.483828 -0.808286
24.1064 23.2151 30.2859 0.451641 -0.873401 0.182183
27.2346 35.4945 26.6693 0.894756 -0.251262 -0.369161
28.0386 37.0585 25.5619 0.379693 0.326716 0.8655
29.2412 36.9191 23.8207 -0.297451 0.801011 -0.519522
31.5799 38.666 28.0135 0.852477 0.0648422 -0.518727
33.5843 38.7908 26.0216 -0.300686 0.16996 0.938457
32.1497 20.7138 26.0442 -0.454218 -0.890428 0.0286963
39.7611 36.8328 27.9148 0.456077 -0.657575 -0.599657
34.211 37.8144 28.102 -0.201998 -0.0761211 -0.976423
40.2186 37.94 28.6586 0.403041 0.283621 -0.870125
33.7229 38.0664 24.0995 -0.947624 0.100556 0.303145
34.4897 39.0235 23.9216 -0.771566 0.265231 0.57822
32.9286 39.5749 25.7909 0.435756 0.525843 0.730483
21.244 37.4316 26.6355 0.279696 0.0327224 -0.959531
39.6981 37.7431 26.1117 0.36747 -0.907787 -0.202208
39.1629 35.3103 22.5386 0.914211 0.39732 -0.0797144
38.2346 37.4002 28.3604 0.243747 0.953925 0.174971
39.2857 37.329 24.3697 0.858362 0.208876 -0.468599
40.0832 38.4221 22.3343 -0.686058 0.721303 -0.0951093
39.4 38.661 25.1615 0.269151 0.949456 -0.161526
21.2839 39.1504 27.6959 -0.0879936 -0.136911 0.986667
26.2423 26.4318 31.4928 -0.429089 -0.0992485 0.897793
39.9224 22.6028 27.2183 -0.134975 -0.904744 0.404006
20.8655 38.1501 25.4002 0.0962992 0.809091 0.57974
27.0148 24.3131 29.4868 -0.0853148 0.696022 0.712934
26.6397 23.5572 30.1287 -0.591198 0.781764 0.198318
26.7054 21.6618 24.045 0.953384 -0.283408 -0.10363
26.9935 23.4295 23.3801 -0.242613 0.38204 0.891731
28.2843 25.2035 30.9264 0.460716 0.20792 0.86285
30.8969 21.8135 28.6427 0.966883 0.170739 0.189696
30.3763 23.1108 27.1854 -0.474221 0.51019 0.71751
31.4506 21.1059 26.7826 0.0415225 0.989495 -0.138472
31.1305 20.79 28.8733 0.538471 0.224283 0.812248
30.9987 22.584 27.8677 -0.866354 0.0970495 0.48991
31.8492 39.532 28.7035 0.0108299 0.244317 -0.969635
35.3752 39.264 27.0429 -0.0427523 -0.962616 -0.267473
32.3278 20.9862 28.692 -0.417493 0.514475 -0.74901
35.8935 37.6451 25.0048 0.735003 0.67694 -0.0390088
34.7669 23.9092 27.7472 -0.14626 -0.337412 0.929925
33.638 26.433 29.6519 -0.893716 -0.364123 -0.262079
31.9917 24.7966 31.1007 0.298601 0.677734 -0.671948
38.7743 23.0578 34.9531 0.761396 0.455033 -0.461759
37.1057 39.4167 27.9646 -0.446357 0.180075 0.876549
38.3934 21.5942 28.2518 0.745157 -0.330695 0.579122
35.7609 26.457 30.0462 -0.514719 -0.836167 -0.189446
38.8732 39.774 26.8994 0.437616 0.891735 0.115326
39.9078 39.6889 27.3205 -0.0562218 -0.40916 -0.910729
38.1601 22.8461 27.3155 -0.567235 0.349653 -0.745645
39.0585 24.6503 27.4546 0.895357 -0.356849 -0.266448
25.4319 25.7199 31.1354 0.49133 -0.418584 -0.763794
24.8283 24.3364 28.678 -0.611441 0.0584644 -0.789127
21.9465 24.0354 26.5088 -0.689762 -0.346162 0.635924
21.5782 25.4766 30.8484 0.382005 -0.810754 0.443565
27.9294 25.5735 32.3574 0.255415 0.754327 0.604775
25.8845 26.3701 28.8044 -0.502401 -0.332002 0.798353
24.369 23.7736 24.4483 0.918713 0.394599 0.0160365
25.0535 23.2488 28.4471 -0.398996 -0.386852 0.831353
31.8197 24.3237 28.6469 -0.0392423 -0.030287 0.998771
27.8074 25.5743 29.2024 0.88253 0.316962 0.347385
30.7964 25.0376 28.8462 0.0714677 -0.545887 -0.834805
27.7774 24.7886 26.9072 0.407787 -0.274229 0.870923
33.4782 23.8096 26.4331 0.804279 0.519666 -0.288239
33.5256 25.4404 27.2695 -0.309519 -0.742593 0.59393
33.0319 23.0741 28.7315 0.213252 -0.95123 0.222901
33.6058 24.3938 28.7677 -0.249668 0.678819 0.690558
34.149 22.3711 27.9691 -0.158308 0.742198 0.651215
35.8937 22.5517 27.6761 -0.697724 -0.715302 -0.0390279
35.3766 24.8484 27.956 -0.0737706 0.47668 -0.875976
34.1141 24.4005 29.9155 0.745651 -0.431975 -0.507348
38.1736 22.2337 29.0911 0.911831 0.403851 -0.0739522
33.1837 25.9863 28.1577 0.560538 -0.28777 0.776522
38.2315 40.011 27.7061 0.00993603 -0.801464 0.59796
34.8278 24.618 30.6718 -0.761299 -0.286128 0.581855
35.1046 25.8166 31.0778 -0.0754949 0.901148 -0.426887
38.6519 23.9549 26.7183 -0.487411 0.663915 -0.56714
39.3103 23.6956 29.1614 -0.156338 -0.655961 0.738426
21.2382 27.6739 28.6377 -0.329238 -0.764375 -0.554377
24.274 24.7543 29.5584 -0.678558 -0.592296 -0.434447
22.7852 26.776 29.6212 -0.648563 -0.219984 0.728679
22.5441 25.9419 28.9751 0.953791 0.106578 -0.280935
24.0548 26.0364 27.7809 -0.408432 0.894151 0.183516
24.7113 26.6182 27.1165 0.118658 0.634362 0.763875
24.5656 25.3391 28.736 -0.984885 -0.050609 -0.165653
26.2317 24.2659 28.353 0.15994 -0.51594 -0.841561
26.9701 26.409 29.4001 0.657555 0.736286 -0.159703
25.4996 28.1473 29.3192 -0.442258 0.242194 -0.863568
28.9462 27.9022 29.5698 0.357835 0.518761 0.776428
28.9735 23.8611 28.61 0.126545 0.919773 -0.371489
27.9733 26.1436 30.3335 -0.967643 -0.252298 0.00351693
32.0372 23.1998 28.1896 0.285165 0.441717 -0.850627
27.1842 24.4101 23.0158 0.432898 -0.0271371 0.901034
31.759 24.8216 23.2719 -0.547657 0.466282 0.694732
32.8395 24.0727 31.4048 0.277387 0.944612 -0.175398
33.4497 26.2678 30.7605 0.406874 0.772109 0.488161
34.4942 29.4129 22.9269 0.0652731 0.880952 0.468683
36.4939 23.9017 28.6644 0.211268 -0.975125 0.0670552
34.154 23.5275 30.5996 0.984016 0.130284 -0.121399
35.8743 25.8567 31.8937 -0.463845 0.885724 0.0184604
36.2795 30.3498 22.2458 -0.208247 0.902855 -0.376146
34.7983 26.682 28.9263 -0.970518 -0.00520309 -0.240974
35.3552 30.3535 21.5754 -0.0224929 -0.49925 0.866166
20.8694 23.5751 29.122 0.0510511 0.995768 -0.0764156
37.7236 24.3157 25.0931 0.93362 0.1581 0.321495
23.8575 28.5172 28.5368 0.765879 0.601549 0.227086
25.6798 36.4657 26.8121 -0.144227 -0.487074 -0.86137
39.8882 26.8195 29.1723 -0.375193 0.750058 -0.54465
23.3815 26.2927 30.3606 0.611698 0.697902 -0.372503
23.6741 25.6385 29.6153 -0.861353 -0.506214 0.0426367
25.0695 35.7685 27.3723 -0.0927287 0.782975 0.615103
24.1874 25.6406 30.5676 0.631553 0.774854 0.0272221
23.6997 26.3283 31.4388 -0.0119156 -0.996743 0.0797568
25.2256 27.1865 29.0965 -0.323098 -0.11826 0.938947
26.9339 27.7937 30.0818 -0.375524 0.73072 -0.570113
26.2343 27.1734 29.4178 -0.26627 -0.588783 0.763174
27.8821 27.6707 28.1385 0.758734 0.522083 -0.389553
28.1098 25.6904 27.6781 -0.513187 0.37739 -0.770854
29.3444 29.3918 30.1242 -0.996243 0.0751159 0.0431091
32.1279 23.8134 30.6425 0.580173 0.657237 -0.481081
28.1001 27.7963 26.2226 -0.0163372 -0.995255 0.0959151
29.1887 25.1457 24.683 0.467703 -0.830857 -0.301548
29.2668 26.9496 28.2491 -0.0928681 -0.956992 0.274848
34.2158 25.5076 30.5375 -0.280098 -0.25357 0.925877
37.7628 34.2234 27.6473 0.0678691 0.291744 0.954085
35.2719 31.8438 23.2898 -0.769946 -0.0585349 -0.635419
38.8392 34.1934 28.1583 0.11619 -0.299771 0.946909
39.2824 32.3805 23.4631 0.277035 -0.0264389 -0.960496
37.5584 32.3393 21.4587 0.413265 0.673002 0.613417
36.6611 30.9727 23.0094 0.464256 -0.871515 0.157885
37.1832 30.886 24.0401 0.931269 -0.310631 -0.190383
39.5397 27.2489 30.111 0.798074 -0.0842084 0.596646
20.8949 32.4423 23.6553 0.0462758 0.384961 -0.921772
39.6239 33.4461 22.3644 0.182455 -0.0783944 0.980084
23.679 37.7875 25.2591 0.71365 -0.446624 -0.539658
25.6655 37.2357 26.0886 0.766137 0.202816 0.609835
24.0179 35.6269 27.8283 -0.228688 0.968282 -0.100655
23.1394 27.4947 30.3637 0.308295 0.623503 -0.718469
22.7232 36.3929 27.6396 -0.32324 -0.944573 0.0574329
24.9408 37.323 26.9552 0.477891 0.871066 -0.113416
26.7039 37.401 31.8577 -0.972929 -0.00387903 0.231074
29.4423 29.2656 31.2336 0.880526 0.468918 0.0692167
25.504 39.7748 32.184 -0.0697658 -0.59349 -0.801812
27.5941 29.5358 29.352 -0.513228 -0.543281 0.664411
28.1039 28.5696 29.1881 -0.693613 -0.720298 0.00850949
27.9901 27.8988 30.1542 -0.258666 0.881433 0.39518
36.2591 39.9122 27.6336 -0.199424 0.657352 0.726718
27.5489 28.9656 28.4056 -0.925696 -0.263835 0.271069
27.1357 28.0577 26.6625 -0.153488 0.680595 -0.716403
28.7206 27.2834 27.2189 0.853961 0.455178 -0.25212
36.0904 36.6756 27.5531 -0.591582 -0.455036 0.665562
21.822 34.95 26.1737 -0.0501869 -0.502144 -0.863327
36.9426 34.9415 27.5992 0.468816 0.744562 0.475225
38.3289 33.3207 27.8055 0.555536 0.0502324 -0.829974
38.9938 35.1259 28.8375 -0.728231 0.195617 -0.656821
23.5315 34.5044 27.2341 0.705028 0.494558 -0.50828
38.6473 37.4396 26.143 -0.525862 0.849861 -0.0347148
37.0832 31.9736 22.3702 0.148856 0.794148 0.589212
21.1047 34.5728 26.9085 0.264635 -0.80173 -0.535908
38.6373 31.4731 23.4503 -0.593173 0.099768 0.79887
22.8134 36.3447 26.5033 -0.783419 -0.433431 -0.445412
24.1628 37.7397 26.2679 -0.81384 -0.242736 0.527962
23.4003 35.8999 25.7628 -0.598795 0.144397 -0.787778
24.4608 23.1059 33.3046 0.892827 0.44916 -0.0334062
21.9546 39.7697 23.1726 -0.808419 0.556057 0.193029
25.6918 22.0125 32.4977 -0.335378 -0.766939 -0.547108
24.5553 21.1333 31.2737 0.747538 -0.0688312 -0.660643
24.29 24.0529 32.6961 0.820182 -0.102981 -0.562758
26.7112 22.6171 30.9737 -0.894734 0.151696 -0.420046
25.6128 38.5449 32.2663 0.104523 -0.480118 -0.870954
24.0209 23.0816 32.2669 0.973201 -0.228613 0.0248097
26.4486 39.3755 32.2814 0.00466775 0.0191511 0.999806
29.0764 35.0537 25.0875 0.862641 -0.216785 -0.457006
35.5697 36.087 26.6081 0.854168 -0.413708 0.315029
35.4051 38.184 25.808 -0.572751 -0.792638 0.209001
35.7467 39.1585 28.1004 -0.772916 0.629355 0.0807058
37.1843 37.3064 27.7094 -0.0957346 -0.895781 0.434065
36.1305 37.5333 26.1468 0.451926 0.80446 0.385495
35.1689 37.3061 27.9056 0.0995426 0.029743 -0.994589
39.6403 34.9183 27.9506 0.610239 -0.721539 0.327093
36.1793 37.5886 28.1025 0.180369 -0.463924 0.867319
37.4704 36.1533 26.997 0.730568 -0.254497 0.633641
33.7029 39.8939 27.6115 0.856362 0.428941 -0.287494
39.5339 35.0935 26.8141 -0.0112529 0.999315 -0.035257
39.0917 35.2056 25.8959 -0.664417 -0.703359 0.25266
39.0248 37.6702 27.1576 0.774995 -0.591222 -0.223244
20.8286 35.1904 26.0771 0.139417 0.89029 0.433529
22.0235 36.8714 26.9645 0.544829 0.691635 -0.474133
38.8045 36.0825 25.1168 -0.639017 -0.761825 -0.106209
39.3703 36.2949 24.1685 -0.937849 0.0588324 -0.342021
40.1679 21.2236 25.3129 0.926051 -0.366208 -0.0912175
23.7549 22.7861 31.2637 0.721991 -0.630617 0.284695
22.9042 20.7963 22.6861 -0.391167 0.441672 0.807412
21.8288 39.1033 24.0366 0.72336 0.111177 0.681461
24.967 23.9863 30.3029 -0.199303 0.882732 0.425513
23.7085 22.1283 32.2801 -0.773141 0.0935823 -0.627292
26.5666 23.6791 31.2278 -0.982101 0.133168 -0.133206
26.1773 22.9064 31.8637 -0.879064 -0.264093 -0.396865
25.2822 24.7318 31.49 0.87936 -0.0837118 -0.46874
30.6127 21.539 29.6381 0.51202 0.723073 0.463682
30.9176 38.4717 27.1801 -0.665177 0.695471 0.271773
29.5167 34.4063 25.7742 0.931702 0.360717 0.0426067
33.3359 38.001 28.7541 -0.21552 -0.6943 -0.686658
34.8933 38.1325 24.8203 -0.714878 -0.31064 0.62646
34.7248 38.9319 25.6532 -0.174313 -0.393434 0.902677
20.8506 36.7445 28.8234 0.768257 -0.0391065 -0.638945
32.691 38.8716 28.7389 -0.623548 -0.781013 -0.0347406
32.5048 20.8159 27.0214 0.041552 -0.990135 -0.13381
34.0961 39.7321 25.9143 0.349337 -0.14724 0.925356
33.7587 38.8673 28.2026 -0.675836 -0.517869 -0.524459
37.5578 21.6896 35.2708 0.886145 -0.439893 -0.145746
38.2146 39.4989 19.0471 -0.578603 0.0637949 0.81311
22.0007 37.9583 27.3782 0.118905 -0.664745 0.737547
39.7866 35.9075 28.5043 0.910138 -0.383904 -0.155776
37.7714 21.5269 16.8143 0.782003 0.622635 -0.0282365
39.6062 22.7847 16.2017 -0.622796 -0.777191 -0.0899921
37.4021 39.87 25.3436 -0.961694 0.00447874 0.27409
39.7558 38.5288 27.2629 -0.763908 0.172742 0.621775
36.2076 25.973 30.9268 0.0309039 0.943603 0.329634
27.3923 24.6478 32.9244 -0.170862 0.743829 0.646161
27.5164 25.9212 31.38 0.861531 0.471552 0.188154
22.3406 31.7993 17.6877 -0.668588 -0.0728106 0.74006
26.558 24.0541 33.2833 0.419719 -0.894285 -0.155213
28.1551 23.8166 33.2405 0.804751 0.0908916 -0.586612
28.6755 24.1465 31.0073 0.326538 -0.0543638 -0.943619
27.692 24.0194 30.3688 -0.56226 0.546363 0.620767
27.2946 23.8682 27.1697 0.295689 -0.188617 0.936478
30.1225 22.5025 29.2984 0.905521 0.406879 0.120337
29.7688 23.4469 29.7606 -0.903975 -0.330582 0.271192
30.9342 23.9971 30.3577 0.177909 0.954178 -0.24061
29.7693 25.7065 31.7069 -0.726884 0.492162 -0.478975
30.5303 24.5335 31.2267 -0.21109 0.922782 -0.322358
33.6517 23.4896 29.6063 -0.784184 0.606928 -0.129205
29.7146 21.8746 30.181 0.297678 0.912805 0.279597
31.8038 36.6901 18.6281 -0.941021 0.337253 -0.0272063
