11.9559 4.48186 18.1746 -0.625169 0.390819 -0.675592
8.61305 3.67502 15.6369 0.460607 -0.0204186 -0.887369
13.6774 0.881567 14.8213 0.893925 -0.447932 -0.015992
11.9784 2.34073 15.3096 -0.658173 0.21927 0.720229
13.692 0.137567 17.0067 0.243095 0.887653 -0.391122
14.425 3.02187 16.2373 0.375625 -0.577114 -0.725152
14.6303 18.3706 18.1455 -0.552818 0.811996 -0.187226
15.4089 0.8756 15.2147 0.652503 -0.756355 -0.0465486
1.19858 0.0565254 0.921492 -0.858759 0.507905 0.0675639
14.7785 0.149365 17.1441 0.320853 -0.367034 -0.87312
1.95723 8.08764 0.217704 0.643404 -0.562948 -0.518768
1.25806 9.7869 2.00906 0.69347 0.0869991 -0.715213
0.859172 1.75505 17.6715 -0.0283748 0.600095 0.799425
3.56626 10.8752 16.5968 -0.701661 -0.108941 0.704133
9.17634 8.75852 16.9346 0.623964 0.512456 -0.589965
3.67929 6.83733 18.4495 0.909761 -0.0100889 0.41501
4.55981 4.70549 19.2716 -0.644629 0.747584 0.159911
5.73254 6.34969 18.8443 0.525332 -0.643894 0.556262
8.49448 4.77469 16.4073 0.866816 -0.483776 0.12079
4.88035 5.93388 19.2658 0.167164 -0.0459095 0.98486
7.51494 6.9777 18.0356 0.521805 0.795691 0.307563
6.69409 5.11499 18.6909 -0.208499 0.887246 -0.411487
10.7806 3.39562 15.879 0.477822 -0.315987 -0.819657
8.17472 5.59905 0.544131 0.556828 -0.668191 -0.49342
9.81283 3.57889 18.233 0.573489 -0.174146 -0.800489
5.13158 7.93951 17.1617 0.998083 -0.0351279 -0.0509545
9.74064 2.95216 16.9603 0.709073 -0.380579 -0.593612
10.5768 5.55406 17.6224 -0.763297 -0.451331 -0.462254
13.1875 1.94958 15.4277 -0.795043 -0.226774 0.562566
10.8851 5.71865 16.6255 -0.83539 -0.1004 -0.540411
12.8162 6.10414 17.1012 -0.0287119 0.950518 0.309339
12.1472 4.10347 17.044 -0.066992 0.972085 -0.224863
13.4975 2.65219 17.4373 0.901661 -0.135685 -0.410606
0.519964 5.53728 7.65149 0.299866 -0.536765 0.788647
15.2339 1.84333 16.0974 0.906453 -0.110331 -0.40764
14.8358 7.05438 3.05587 0.578501 -0.36275 0.730581
1.19442 2.5141 0.823743 -0.456165 -0.183111 -0.870852
0.614831 10.2641 18.3163 0.839367 -0.453099 0.300273
0.958816 8.73692 19.3235 0.0798326 -0.980159 -0.181426
0.457226 9.92531 1.42177 -0.615886 0.488336 0.618233
3.77554 7.75199 0.724088 0.384544 0.282739 0.87874
4.5889 9.93773 17.285 0.204983 -0.949714 0.236696
2.69391 11.7251 16.9601 -0.390554 -0.102905 0.91481
2.29819 10.8261 18.5777 -0.800533 -0.279033 0.530365
6.45642 6.04598 1.26693 -0.339566 -0.900803 -0.270646
4.82064 10.2571 16.2299 -0.400126 -0.874175 -0.275168
5.855 5.62706 17.7082 0.455183 0.279646 -0.845344
7.03265 8.06527 3.76041 0.473287 -0.0583064 -0.878977
8.30446 7.22642 2.83037 -0.6718 0.069336 -0.737481
11.7819 9.10494 16.6239 0.97806 0.195535 -0.0718653
7.85092 6.47915 19.1931 -0.0327192 -0.434605 -0.900027
10.9771 8.1727 18.7047 0.63386 -0.601734 0.485939
10.3269 7.90754 17.382 -0.428255 -0.901879 -0.05668
10.6834 8.5059 15.8089 0.995573 -0.0932096 -0.0121387
10.6627 4.38584 18.0684 0.565388 0.00604519 0.824803
11.0181 6.90101 18.8131 -0.0731342 -0.433695 0.898087
13.265 3.16277 16.4966 0.292413 -0.940796 -0.171459
12.6307 5.71604 15.9704 0.868685 0.49404 -0.0362036
12.7093 4.33979 15.8346 -0.608555 -0.744674 -0.274083
11.3906 6.4906 15.9384 0.811574 -0.235147 -0.534839
14.1864 9.33655 19.4483 0.714445 0.0617995 0.696957
14.5714 10.3742 1.3509 -0.662146 -0.516405 -0.543036
14.3483 7.22348 1.34914 0.19337 -0.753156 0.62878
14.4584 9.43456 1.74261 0.0798256 -0.709592 -0.700077
0.137336 9.11286 0.636437 0.49762 -0.867303 0.012618
1.25471 10.6343 1.27454 -0.11155 0.408411 0.905957
19.2238 10.5175 19.0416 0.90533 0.189472 0.380103
0.251468 11.1551 1.05576 -0.140113 0.865366 0.481155
2.86937 10.0328 17.9483 -0.99323 0.105161 -0.0493555
1.38286 11.5784 1.01584 0.623676 0.145186 0.768082
4.20661 11.4299 17.908 0.152477 0.839966 -0.520777
4.02107 12.1007 16.3516 0.397133 0.486309 -0.778325
6.98558 11.5277 18.3856 -0.529938 -0.445644 -0.721503
5.75859 8.3671 0.628893 0.992235 0.0807432 0.0946071
4.2937 8.27682 19.2127 0.657158 -0.750431 -0.0706903
6.34937 12.1963 17.5823 -0.440688 -0.681588 -0.584151
12.8032 8.42588 17.461 0.586379 0.151516 0.795741
14.1521 9.18405 17.9099 0.932484 -0.355561 0.0636322
10.8011 7.78964 16.4992 0.73374 0.413602 0.539035
9.64241 13.6331 0.350773 0.926098 0.310377 0.214496
10.7804 4.98617 3.06461 -0.40061 0.669378 0.625655
8.42778 12.8087 17.1151 -0.0491889 0.495949 -0.866958
13.3621 8.20038 16.2767 -0.0140452 0.920879 -0.389596
11.3801 6.88127 17.1695 -0.870351 -0.440658 0.219794
13.6728 7.46033 18.5559 -0.302546 0.201102 -0.931678
13.7966 6.22391 17.3022 0.291683 -0.345049 -0.892111
15.218 9.75852 18.5467 0.0142368 -0.597788 0.801527
14.8761 11.5498 18.3654 0.265787 0.913979 -0.306595
16.1578 9.0126 19.4253 0.139487 0.926999 -0.348163
15.4855 11.7173 17.3673 -0.817795 -0.575393 0.0115918
15.238 7.20732 0.210376 0.206744 -0.775458 -0.596591
16.0362 11.1146 18.2821 0.0598385 -0.997863 -0.0262407
2.56638 11.0755 0.0555296 -0.123808 -0.904081 0.409035
1.19442 13.809 0.587699 -0.055 0.639896 -0.766491
4.46005 12.4172 18.4129 -0.620225 0.573577 -0.535099
17.1495 12.6949 19.4438 0.346458 0.232065 -0.908907
0.367281 12.7013 19.1929 0.182834 -0.612175 -0.769294
5.42493 11.9647 15.9865 -0.661029 -0.418275 -0.622966
3.35596 12.1281 17.8872 0.130032 -0.482187 0.866365
6.42787 11.4842 16.0202 0.342476 -0.293528 0.892497
5.79034 10.354 15.4973 -0.105484 -0.411495 -0.905287
7.13463 12.2757 15.185 -0.0536289 0.977937 -0.201897
6.24794 7.21638 18.957 -0.63687 0.719351 0.277363
6.79838 14.2514 16.9857 0.724117 -0.259525 -0.638984
9.48995 14.245 17.3385 -0.31961 0.68202 -0.657799
6.08837 12.8572 14.6586 -0.742793 -0.20961 0.635863
6.86184 14.7748 14.6048 -0.479859 0.37691 -0.792259
9.69838 10.4533 0.0112663 -0.70465 -0.704124 -0.0876291
13.3124 8.5986 0.045889 0.329336 0.49656 0.803098
8.50521 12.5081 19.0775 0.798744 -0.025778 0.601118
14.1459 8.20604 17.5853 0.565369 -0.55849 0.606998
11.8623 12.6729 18.6222 -0.331942 0.933835 0.133293
12.2019 10.1514 18.3818 -0.397498 0.905885 -0.146179
16.0723 13.8492 17.8081 0.245162 0.96789 -0.0555424
15.2423 12.8135 17.1037 0.924349 0.093808 -0.369837
12.9816 10.818 17.987 0.0652311 0.734322 0.67566
15.3857 13.8063 18.6878 0.137251 -0.990125 -0.0285394
12.8582 13.5393 18.3562 -0.806464 0.570616 0.154965
16.4506 13.1874 18.7245 -0.251346 0.681629 0.687173
17.7964 14.1182 19.2459 0.815394 0.350774 -0.460532
1.15956 12.5847 0.492184 0.746555 -0.0424749 -0.663967
15.967 12.5618 19.4721 -0.588694 0.5506 0.591844
18.1363 11.5454 18.9263 0.90247 -0.251744 -0.349531
2.09067 16.603 1.37582 -0.843496 0.146207 -0.516853
7.20066 12.2137 16.9815 0.461385 -0.173508 0.870068
6.41166 14.5148 18.7538 -0.375026 -0.402858 0.834902
5.54266 14.7823 16.7079 0.0894043 -0.995167 -0.0406075
3.59171 14.7902 17.9121 -0.872152 -0.00375677 -0.48922
4.65856 13.8368 16.8995 0.0575038 -0.827685 0.55824
4.28495 17.5356 18.6461 0.884104 -0.204787 -0.420026
3.96204 17.4494 1.25575 0.159325 0.849783 -0.502478
3.50544 13.9445 16.8611 0.484345 -0.00532106 0.874861
9.31548 12.1544 18.3858 -0.101152 -0.76656 0.634156
1.83973 14.7805 18.3182 0.525816 0.769251 -0.363002
6.51351 15.031 16.4473 0.0697095 0.502758 0.861612
6.66054 15.486 19.0406 -0.621283 0.540639 -0.567201
10.3934 15.0213 18.8258 0.697369 -0.643271 -0.316036
6.59669 16.7655 6.44043 -0.697895 0.502888 -0.509947
7.16858 13.2064 15.9825 -0.762453 0.644001 0.0626738
11.8316 14.4804 19.3409 0.978666 0.0422512 -0.201068
12.3576 12.188 17.5974 0.14682 0.989126 0.00857091
10.6697 0.66359 15.0943 -0.00985965 0.645886 -0.76337
14.9021 13.628 17.8112 -0.461993 -0.5787 0.672064
18.3711 14.4512 1.94715 -0.895474 0.372041 -0.24436
16.5736 14.4501 1.31777 -0.0389077 -0.043735 0.998285
11.5656 1.56134 14.5445 -0.506124 0.853245 0.125743
8.80508 2.4901 16.6644 -0.821084 0.527795 0.21738
18.8707 13.2821 0.958683 0.291411 -0.945987 -0.142086
18.6627 11.4211 1.29835 -0.286671 0.957205 0.0397177
15.7682 15.9201 18.2834 -0.25103 -0.926973 -0.278756
17.1734 13.3904 17.58 0.127272 -0.493188 -0.860562
2.17408 19.1634 19.4168 -0.38266 0.891159 0.243735
1.62712 17.829 18.8419 -0.555205 -0.508576 0.658101
0.0582244 17.6263 1.47953 -0.857574 0.163814 0.487577
2.96092 15.3231 0.389575 -0.081415 0.951429 0.296908
0.966299 0.111237 18.2076 0.976229 0.0986006 0.193013
3.37901 18.1791 18.146 0.322376 -0.709625 -0.626503
7.56486 5.1469 19.282 0.573631 -0.81761 -0.0496102
2.94066 16.876 17.9603 -0.960344 0.104898 -0.258331
2.08833 17.1771 0.307975 -0.105073 0.989731 0.0969088
5.26838 16.6893 18.9402 0.997044 0.0683864 -0.035015
9.69056 2.71082 14.6104 0.789234 -0.182945 0.586209
6.58138 13.9769 13.8246 -0.0868451 -0.117776 0.989235
3.00923 16.7311 19.3275 -0.165244 -0.678591 -0.715688
11.3619 16.2508 19.4543 -0.400642 -0.881878 0.24855
11.047 4.24912 16.888 0.272732 -0.594304 0.756584
6.79773 17.7155 5.69615 -0.750117 0.591122 -0.296479
9.82146 1.77748 14.0456 0.196976 -0.107423 0.974505
12.9715 15.9275 1.09103 0.0569449 -0.598282 -0.79926
13.3524 0.00979028 15.2044 0.621704 0.152018 0.768358
11.5346 19.287 15.0156 0.823598 0.555645 0.113778
13.9001 3.88659 0.818294 0.811051 0.122314 0.572045
18.5482 15.398 0.250004 0.190462 0.967245 -0.167816
13.136 0.853546 15.9027 -0.851812 -0.512541 0.108249
16.0583 15.2556 19.0326 -0.305872 0.870607 0.385339
10.5267 0.974465 16.2861 -0.7681 0.117526 -0.629453
0.574255 15.6474 0.919567 -0.0756906 -0.892825 -0.443999
14.8483 16.3511 18.6294 0.146088 -0.724099 0.674046
1.5041 19.3645 2.11489 -0.893082 -0.0849798 -0.441796
2.45177 1.78088 1.7039 -0.213004 0.636142 -0.741588
4.59249 0.0539519 3.96769 -0.540329 0.00142589 0.841453
2.01142 18.3977 2.43093 0.299151 0.126978 -0.94572
2.57468 0.364235 17.4197 -0.049964 -0.735696 0.675467
1.73179 1.63579 2.73451 0.250442 -0.15777 0.95519
6.23891 17.6713 2.04093 0.614359 -0.710766 0.342599
6.7977 18.4883 1.6357 -0.386089 0.871692 0.301807
1.75353 17.527 1.66815 -0.907326 -0.21884 0.358982
8.00523 0.720917 1.97745 0.266955 -0.288635 0.91947
8.52349 4.02063 2.52397 -0.441083 0.172447 -0.880743
8.90363 6.67182 17.7004 -0.318346 -0.918021 0.236419
7.64095 4.34099 18.3336 -0.246165 -0.868357 0.430534
10.94 5.50632 0.848225 -0.812511 -0.35297 0.463937
10.1913 2.0429 1.9367 -0.784159 -0.337936 0.520475
8.62291 4.79906 18.6057 0.0184232 -0.972581 -0.231835
11.2919 1.53671 15.6492 -0.892377 0.386467 0.233039
12.9716 5.83782 0.0475398 -0.623662 -0.58405 0.51955
13.2944 3.88343 2.84207 0.589343 -0.647118 0.483647
11.6215 1.53489 17.6556 -0.935756 -0.338264 -0.0996866
12.7784 5.19487 18.7332 -0.865295 0.0897127 0.493169
12.3827 5.91857 1.2075 0.21253 -0.883478 0.417489
14.1588 0.204424 19.2879 0.558213 -0.219741 -0.80007
15.107 2.0619 17.508 0.432743 0.823996 0.365737
13.0828 1.87658 17.0288 -0.748345 0.578629 -0.324297
14.4508 4.2344 17.8609 0.226173 0.817272 -0.530012
0.283567 18.2847 3.75957 0.352778 -0.916846 -0.186925
1.69121 1.83899 19.4071 0.0360868 -0.177644 0.983433
0.936263 1.29252 18.7071 0.670988 -0.311044 -0.673072
2.59921 7.40232 2.23421 0.0733203 -0.961119 -0.266222
2.71894 0.169917 0.986951 0.37282 -0.348357 -0.860031
3.7391 6.66592 0.753494 0.248963 -0.39225 -0.885527
2.79154 5.6793 0.111592 -0.276683 -0.886955 0.369807
3.67972 6.01465 1.99793 0.685826 0.183349 -0.704291
6.28981 18.8449 0.829407 0.501811 0.864911 -0.0106879
5.68121 4.76806 2.00285 -0.170147 0.888695 -0.425759
6.02133 7.06127 2.28282 0.0509796 -0.992832 -0.108097
4.7627 5.8252 2.2429 -0.4304 -0.865519 0.256188
8.79346 6.99144 0.146101 -0.21227 0.0976403 -0.972321
9.49993 5.25485 19.0917 0.230834 -0.653266 -0.721082
9.87562 6.73074 19.3201 -0.524227 -0.586167 -0.617733
9.46564 5.89129 1.69579 0.278825 0.763329 -0.58274
13.6408 5.7757 0.820707 0.548359 0.821715 -0.155198
9.07047 5.71698 17.0381 0.886597 0.435956 -0.154559
10.6465 4.72198 0.251796 0.99672 0.0740327 0.0326846
11.5726 7.43988 1.21712 0.437624 -0.000433202 0.899158
11.6072 5.93467 2.8371 -0.959504 0.0956688 -0.264952
13.7445 4.62207 16.7545 -0.189848 0.675569 0.712436
15.2215 0.912672 16.4637 -0.770992 -0.15834 -0.616847
13.0242 5.57474 2.3271 -0.628024 0.74298 -0.231446
15.0994 3.57028 18.76 -0.171077 0.967314 0.187179
12.7767 4.75545 17.6467 0.562144 -0.793696 -0.232467
14.5564 1.88018 0.0098354 -0.111294 0.892936 -0.436209
14.1499 5.50409 4.99888 0.284208 -0.946179 0.154827
0.596146 19.2173 19.0948 -0.499049 -0.845986 -0.187771
0.203735 8.94043 1.67179 0.996747 -0.00288502 -0.0805464
1.95274 8.94999 19.1553 -0.106988 0.631676 0.767814
1.54227 8.09707 1.51713 0.930542 0.32974 0.159258
4.49021 7.11684 1.60601 0.361787 0.305254 -0.880869
4.38931 8.94945 1.4163 0.955379 0.117156 -0.271155
5.89726 6.75225 0.326041 -0.976178 0.114793 -0.184118
4.43894 10.0172 2.71132 -0.10557 0.185328 0.976989
6.17124 8.87443 1.68054 0.684555 0.720605 0.110058
7.32356 7.66241 0.528717 0.134901 0.190175 0.972438
5.20461 4.95115 0.691068 0.462951 0.195276 -0.864606
9.42931 8.09149 3.4019 -0.931861 0.0837622 -0.353014
9.28273 6.31178 2.63107 0.396984 -0.798382 0.452758
11.798 9.3035 17.6306 0.326386 0.91019 -0.255004
8.36245 8.1709 0.908004 0.0424181 0.772358 -0.63377
10.8694 6.23173 4.29494 0.699466 0.227606 -0.677453
9.28342 8.01795 1.59682 -0.400509 0.893664 -0.202379
12.6609 7.43933 19.3036 0.214259 -0.423766 -0.880066
10.7376 5.64052 19.2391 0.705171 -0.257731 -0.660537
11.2451 11.7671 1.58855 0.56578 0.0401061 0.823581
10.5658 6.7259 1.53686 -0.149696 0.96165 -0.229825
12.8787 6.99849 15.9187 -0.655503 -0.53301 0.534992
12.4046 6.28618 18.7733 -0.535276 0.389139 0.7497
15.4509 7.56695 4.31492 -0.922977 -0.151749 -0.353676
14.5208 5.34935 3.09421 0.199745 -0.286564 0.937007
14.6644 8.10501 1.83415 0.865977 -0.447337 -0.223547
15.1481 8.40116 18.9353 -0.867706 -0.266536 0.419578
15.4583 8.89233 1.77171 0.0531992 0.191389 0.980072
2.78611 7.43463 1.07932 -0.434844 -0.62301 -0.650207
1.16196 11.1163 18.2198 0.781049 -0.219206 -0.584732
1.57622 11.8323 18.8107 0.090396 -0.596139 0.797776
18.3194 11.8763 4.77124 -0.615397 0.421624 0.665973
2.88043 8.91428 0.863579 -0.950495 0.212979 0.226272
2.32736 10.5476 1.80366 0.206624 -0.467716 0.859388
4.59583 9.25966 0.276968 0.575983 -0.489937 -0.654374
0.00893 11.8729 4.79107 0.3312 0.301398 -0.894129
3.40088 9.50941 2.60218 0.0744604 0.994053 0.0794571
7.6023 10.794 16.4918 0.0897299 -0.925912 0.366927
6.86891 8.70247 2.48613 0.0110443 -0.942338 -0.33448
6.36741 11.0631 0.506023 0.377598 -0.461375 0.80284
8.27515 10.2291 4.45591 0.0378771 0.303082 0.952212
8.37816 13.9416 18.9695 -0.768219 -0.602479 -0.216466
11.9759 7.27024 15.3407 -0.0857547 0.343908 0.935079
8.33832 11.5534 19.2651 -0.147822 -0.0841389 -0.985428
9.07972 12.2297 2.50021 -0.809493 0.444663 0.383402
13.2703 7.60068 1.46784 0.120632 0.122593 -0.985098
12.0869 7.45308 18.1468 0.0440297 0.957226 0.285973
12.9038 12.0208 2.2188 0.235356 -0.936965 0.258272
15.5014 8.89148 5.80862 -0.69906 -0.509328 0.501897
11.5539 11.8512 0.354554 -0.321373 0.817511 -0.477907
15.7461 9.83852 0.552527 -0.387539 0.497357 -0.776176
16.2144 11.7735 1.77201 -0.88643 -0.267236 -0.377925
15.8243 10.1323 2.28476 0.530185 0.354206 0.770352
15.4714 11.6495 19.1942 -0.557126 0.826316 -0.0825344
16.2136 8.27631 2.03012 0.649208 0.38607 -0.655347
17.0255 10.9135 1.54653 0.191477 -0.063343 -0.979451
17.6863 12.2092 3.62264 0.302817 0.477219 0.824963
15.3077 10.8849 0.681334 0.656612 -0.295888 0.693765
18.7223 11.1289 0.218815 0.805413 0.592414 0.0188712
18.9437 12.5863 3.85068 0.125793 -0.0656541 -0.989882
0.551597 12.0835 2.48592 -0.543687 -0.270975 0.79434
1.49732 14.8918 3.62562 -0.687505 0.115081 0.717003
6.8576 12.617 19.3828 -0.940294 -0.310105 -0.140292
3.17774 10.3046 19.1062 0.741233 0.568412 0.357045
4.71759 12.1234 0.250793 0.870073 0.47083 0.145922
7.12598 13.1712 17.3803 -0.763706 0.0329526 -0.644723
6.57161 10.2486 16.925 -0.225095 -0.168597 0.959639
5.64967 13.2878 19.2219 -0.930833 -0.10251 0.350773
8.72213 12.9497 1.02579 0.595808 0.559711 0.575965
10.2719 13.8973 18.9304 -0.807402 0.374802 -0.455659
8.75551 13.5661 17.979 0.561228 -0.186157 0.806454
4.71859 15.9158 1.36325 0.0632228 -0.714163 -0.697119
12.3001 9.95083 0.667988 0.935647 -0.0641341 -0.347062
10.7344 13.6876 17.9757 -0.0947827 0.74996 -0.654657
10.6974 11.9496 18.6017 -0.618259 -0.0448323 0.784695
10.8507 12.6595 2.44146 0.875289 0.211634 -0.434835
13.4609 11.4037 0.123815 -0.352901 0.36668 0.860818
10.5798 10.945 18.7037 0.951324 0.00564752 0.308142
11.8399 12.5703 1.10758 -0.509706 0.790623 -0.339287
13.7958 12.0177 18.3431 0.509882 -0.0867418 0.85586
0.262312 10.8383 2.99231 -0.939734 0.315497 0.131767
18.1919 13.2598 2.04124 -0.866179 0.456184 0.204036
16.8828 9.77216 0.465173 0.55108 -0.834442 -0.00427768
18.8797 11.729 2.23347 0.803926 -0.585552 -0.10407
17.5883 13.0087 3.03656 0.81465 0.337277 0.471795
18.0127 12.4357 0.48604 0.142904 0.980508 -0.134843
15.7563 11.8241 0.602691 0.986723 -0.153826 -0.052111
3.10719 14.3558 1.26816 -0.591282 0.334954 0.733615
1.84656 16.7763 2.40892 0.64506 0.627471 0.436094
0.383113 15.7482 19.3982 0.647508 0.75561 0.0989339
5.42632 12.5198 17.2166 -0.511812 -0.828521 -0.227158
3.19461 16.4886 5.00791 0.148078 -0.988298 -0.0366044
4.8574 14.9155 17.4787 -0.477549 0.86488 -0.154688
5.11382 14.1693 19.0856 0.603963 -0.0901144 -0.791901
7.36307 14.0413 18.0827 0.921649 0.388009 -0.00348966
3.74897 14.2704 18.9683 -0.286054 -0.614386 -0.735325
4.97073 13.0793 1.01742 0.353424 0.850695 -0.389112
3.2128 15.0778 18.7825 -0.602923 -0.738947 -0.300735
6.95982 13.7715 0.0928342 -0.552578 -0.612807 0.564912
4.95891 15.9636 0.154382 0.534715 0.648732 0.541503
10.3857 12.816 0.226101 0.388366 -0.149058 0.90937
12.8065 13.9483 0.456302 0.769939 0.52531 0.362275
11.6975 14.0037 17.6905 -0.115248 -0.98896 0.0931475
11.817 14.3884 1.09973 -0.418738 0.883146 -0.211453
12.0922 15.7217 1.54011 -0.504804 0.857759 0.0970701
18.4699 14.9755 3.05739 0.600627 0.785642 0.148372
13.6348 12.6543 0.091094 0.590414 0.157705 0.791543
13.5025 14.9002 2.61817 -0.932768 0.240773 -0.268277
18.9202 13.5734 19.4173 0.307187 0.851171 0.42561
17.1753 15.8757 19.0988 -0.53438 -0.289353 -0.794175
17.6413 14.1871 0.950746 -0.221175 0.937633 -0.26819
0.26058 14.4804 1.41068 -0.769384 0.571987 -0.284394
3.27878 14.6106 2.64302 0.57238 0.748189 -0.335551
19.47 15.4475 18.3843 -0.94556 0.0816455 0.315042
0.0069967 17.3369 0.378168 -0.0529448 -0.99189 0.11555
0.0118378 17.4297 2.82705 -0.327592 -0.775745 0.539355
18.7732 16.4044 2.5308 0.764679 0.364928 -0.531125
0.949457 19.277 3.01587 0.119493 0.991993 0.0408815
1.53996 15.5792 0.678542 -0.252385 -0.205205 -0.945618
4.42723 0.313192 5.85986 0.0783315 0.96219 0.260872
4.20969 16.6322 0.4085 -0.319876 -0.943234 0.0893787
1.8905 16.6835 18.756 -0.682208 -0.730876 -0.0203023
5.32504 12.9343 18.2874 -0.566297 0.80994 -0.15266
5.59319 16.943 2.18988 0.438515 -0.16815 0.882853
5.62728 15.1977 19.3925 -0.0249146 -0.199079 -0.979667
2.13597 14.6112 19.3153 0.113034 0.964439 -0.238915
4.20918 15.8266 18.2238 -0.920293 0.00581802 -0.391186
9.52338 3.42688 2.37118 -0.222489 0.881553 -0.41637
10.5429 15.8306 1.33984 0.757008 -0.424075 0.497091
7.56786 2.76929 17.7714 -0.484606 -0.869304 -0.097296
12.173 16.5092 0.705061 -0.176328 -0.955989 -0.234505
9.85837 3.33133 0.719659 0.177945 0.491502 -0.852503
10.9868 17.2639 0.717601 -0.288026 0.937071 -0.19733
13.407 4.72277 0.0974319 0.978037 0.196625 0.0691611
17.2252 14.8177 18.2356 -0.0532585 -0.00247099 0.998578
13.9313 3.34816 1.83662 0.329663 0.798235 0.504126
0.07204 13.9124 3.11265 -0.952807 -0.170973 -0.250852
12.6726 0.902582 17.2309 0.773612 -0.308576 0.553448
17.5879 16.0231 1.42201 0.524425 -0.821566 -0.223625
14.1563 1.44296 18.36 0.954951 0.0578247 0.291076
1.51604 15.8864 2.93312 0.293442 -0.70347 -0.647318
1.06448 18.3733 0.963941 0.104129 0.0532995 0.993135
19.101 18.7428 1.64915 0.117978 -0.0146324 0.992908
16.5541 8.69406 4.55323 -0.8888 -0.207325 0.408719
4.32883 18.557 4.72525 0.90281 0.420451 0.090303
1.24045 0.916768 1.69542 -0.656638 0.0986114 0.747731
4.01522 19.2718 2.77369 -0.064945 0.703311 0.70791
1.79785 2.96191 5.23431 -0.28816 -0.913881 0.285983
6.05065 15.7823 3.48388 -0.74449 -0.349733 0.568702
7.42518 18.8279 0.785418 -0.173719 -0.482133 -0.858702
6.41823 16.8258 1.35963 0.212281 0.624292 -0.751795
5.22601 3.98169 4.34676 -0.753255 -0.457034 0.472997
8.19307 16.9719 0.85808 0.259019 -0.908554 -0.327778
8.30861 6.20415 2.03642 -0.392098 0.0355123 0.919238
8.89839 4.19558 0.784575 0.886329 0.264676 0.379956
9.08015 0.0558868 2.56065 -0.107541 -0.883063 0.456766
10.3186 18.3695 3.69245 -0.641066 0.72395 -0.254817
13.2751 4.11664 1.60307 0.552486 0.833276 -0.0202492
11.6015 3.23054 1.51588 0.678783 0.173333 -0.713589
10.6992 2.76726 3.37288 0.877288 -0.478328 -0.0396034
13.6056 0.783667 3.95942 0.823568 -0.356324 -0.441326
12.0906 3.96504 1.92777 -0.195942 -0.510994 0.836954
13.0043 3.20474 18.7688 -0.535413 -0.223601 0.814454
13.796 2.11333 2.3439 0.421846 -0.270248 -0.865455
17.8563 17.5323 4.161 0.316408 -0.658991 0.682361
14.4928 6.04612 18.7827 0.176151 0.983158 0.0486923
12.213 0.805489 18.1762 0.423247 0.567028 0.706641
16.8119 16.4202 3.06334 -0.753375 0.119293 0.64668
1.76163 1.15804 6.16269 -0.471844 0.613083 0.633635
2.97415 0.727398 3.72268 0.172758 -0.883077 -0.436267
1.64304 6.70046 1.15576 0.361278 -0.751356 0.552215
3.41351 9.71261 3.58077 0.706243 -0.701375 -0.0964055
3.24231 2.42841 3.87441 -0.518938 -0.325473 -0.790424
3.58279 5.30539 3.33688 0.53422 0.746738 -0.396221
6.03039 6.91153 3.28222 0.583581 -0.811354 0.0337355
5.98959 9.78826 2.35661 -0.257226 -0.87663 0.406637
6.97231 4.83012 4.60386 0.474452 0.823891 0.309998
5.04681 8.08869 2.38502 0.0476613 0.966138 -0.253585
5.62132 0.976095 2.65064 0.905092 0.0148987 -0.424955
5.33112 8.61811 3.90403 0.322689 -0.464458 0.824712
10.0661 0.330489 1.71185 0.534596 0.822127 -0.195739
10.0205 4.17182 2.99967 0.822375 -0.550834 -0.14241
11.293 4.74089 1.6539 0.685457 0.420935 0.594107
7.2915 0.21407 3.015 0.234315 -0.103195 0.966668
9.9209 9.28796 5.5842 -0.692867 -0.713683 -0.102913
13.1523 6.58731 2.82793 -0.969185 0.240407 0.0537107
10.2668 4.43266 2.05631 0.129394 -0.946502 -0.29562
11.2144 7.35137 4.01486 0.190912 0.100537 -0.976445
12.8566 1.54628 2.59684 0.543599 -0.781515 -0.306162
12.8241 6.36507 3.835 -0.854027 -0.504732 0.126029
14.0272 3.8092 19.2058 0.697604 -0.45629 0.552402
12.2751 7.22918 3.80443 0.397199 0.563556 -0.724319
12.5782 5.07914 3.57649 0.515252 0.411935 0.751548
14.2489 6.15879 3.8843 -0.710935 -0.485247 -0.509025
13.7104 2.54236 0.408021 -0.789667 -0.405949 -0.460033
13.8299 4.53634 3.97387 0.497862 -0.346505 -0.795027
17.4342 11.9792 6.47283 -0.0293179 -0.697427 -0.716056
4.21238 7.85051 3.10552 -0.420145 -0.176827 -0.890062
3.46367 5.63223 0.970826 -0.686953 0.689941 0.228203
5.23262 8.11452 5.75297 0.37529 0.303659 0.875756
6.28432 9.82635 0.917375 -0.759257 -0.0561227 0.648367
2.46447 9.32476 1.93414 0.805381 0.464494 -0.368248
7.0867 6.54639 2.35663 0.300416 -0.743365 -0.597628
5.27404 9.26678 5.96464 0.978427 0.184694 -0.0925683
8.25528 8.44347 3.95729 -0.48278 -0.857087 0.179794
8.32299 9.06644 2.78803 0.818812 0.117645 -0.561878
5.97737 7.33907 1.30295 0.684921 0.714092 0.144761
7.34112 9.13579 4.33436 -0.188396 0.844995 -0.50049
9.40313 6.84519 4.75848 -0.247486 0.799381 0.547486
11.6664 9.00755 4.91385 -0.841193 0.539134 -0.0415782
9.44541 8.18955 4.47751 0.721135 0.605105 0.33736
9.85303 7.7922 5.90415 -0.457182 0.655952 0.600593
10.1973 6.99199 3.9825 -0.00160757 -0.678928 -0.734203
10.7209 10.8521 2.10091 -0.811107 0.218576 0.542522
10.5722 7.04943 2.52545 -0.945077 0.286728 0.156894
9.39177 10.918 1.77451 -0.359683 0.903759 -0.232053
11.8101 7.98655 4.40849 0.39005 -0.622532 0.678465
15.5978 7.41176 5.42589 -0.550994 -0.805993 -0.216287
12.9575 7.33399 4.53244 -0.0844694 0.952339 -0.293115
10.987 8.9622 6.00267 0.617647 0.563205 0.54892
17.5286 8.8588 6.35243 -0.305387 0.910059 0.280233
13.9695 8.2522 3.11647 -0.589647 -0.657034 0.469704
12.762 6.07469 6.20898 -0.41147 0.449435 0.792907
14.9558 9.24834 3.75118 0.0913837 -0.915066 -0.392815
4.18325 8.67989 4.51157 0.818307 0.12061 0.561985
17.6327 9.80851 1.40161 -0.981004 0.175958 0.0816677
0.985576 11.5387 3.51081 -0.759958 -0.411177 0.503386
4.16865 12.116 4.59766 0.264536 0.104702 0.958675
5.67803 10.1243 7.47523 0.0275519 -0.983668 -0.177869
2.25908 11.5957 4.8303 0.420172 -0.90744 -0.00292871
6.20911 8.9936 3.52585 -0.0949014 0.927049 0.362732
4.18281 12.415 6.69353 0.576931 -0.351697 0.737197
5.43742 9.38426 4.52386 -0.917046 0.297891 -0.265119
4.01136 14.3464 4.76411 0.132726 0.990017 -0.0474287
8.07576 8.47385 1.88739 0.672196 -0.576578 0.464446
8.0854 10.4565 0.560117 -0.606625 -0.2468 0.755709
11.7756 10.4515 5.59037 -0.422762 0.338302 -0.840728
9.13303 10.6815 0.825674 -0.184208 -0.82493 0.534377
8.4418 14.3215 4.42144 -0.680998 0.210336 -0.701428
8.03956 11.6174 2.37706 -0.903534 0.402582 -0.146812
9.84819 12.5896 1.57494 -0.0254711 0.664229 0.747095
13.2494 10.2972 18.8638 0.821408 -0.273588 -0.500439
10.1313 10.4873 1.00013 -0.106453 -0.901937 -0.418542
9.90108 12.1385 5.11934 -0.290009 -0.620279 -0.7288
12.9962 10.1605 5.87281 0.298884 -0.929497 0.21611
12.5859 12.2483 0.26448 -0.144219 -0.82825 -0.541482
14.3447 7.35171 6.52102 0.955988 0.292654 0.021007
9.17696 10.8982 5.58611 -0.273144 0.847706 -0.454738
14.3596 11.391 4.57114 0.440434 -0.586899 0.679387
15.0668 12.4177 1.49425 -0.875195 -0.277848 0.396023
16.5124 8.73786 2.93938 -0.144948 0.646861 -0.748706
15.4917 9.65141 4.79528 -0.602938 0.333846 0.724577
3.44387 11.403 4.73969 0.238364 -0.73411 -0.635818
18.016 10.792 3.70481 0.958275 -0.156452 0.239231
0.400575 13.1077 2.35942 -0.0317269 -0.243807 0.969305
1.54222 13.281 6.45489 -0.233074 0.160933 -0.95905
2.62983 13.0181 5.15004 0.579714 0.323229 -0.747967
5.40089 10.7254 17.3341 -0.196411 0.857167 0.476117
2.66675 11.9 3.95389 0.668657 0.645374 0.36931
2.11627 13.2376 4.04313 0.16974 -0.452816 -0.875298
5.33387 11.3465 0.574118 -0.578528 -0.265922 -0.771097
4.22619 13.0735 2.05114 0.0363912 -0.55343 0.832101
5.70944 10.5023 19.2041 0.218915 0.128071 -0.967302
6.96453 11.6072 1.34144 -0.537896 0.660471 -0.523875
7.40411 11.1042 0.0616788 -0.119792 -0.808095 -0.576743
6.13479 15.2661 1.94506 0.519828 0.0578793 -0.852308
8.55424 10.4154 2.14585 0.246302 -0.521998 0.816611
8.1014 12.6821 1.72674 -0.131917 -0.908649 -0.396176
9.12622 13.4347 4.25505 -0.00431772 0.734644 -0.678439
10.359 14.0861 2.1478 -0.156082 -0.576065 -0.802364
13.5095 11.0012 1.50135 0.922434 0.370618 0.10843
11.266 13.9623 2.85612 -0.207546 0.325376 0.922527
8.87637 11.4824 6.47351 -0.89564 0.418246 -0.151325
13.4227 13.3991 1.57864 0.124798 -0.982548 -0.137934
10.8445 10.2031 19.4725 0.222062 0.567303 0.793004
10.9454 14.0334 5.37394 -0.817037 -0.545164 0.187742
16.0238 11.9778 4.36153 -0.159545 0.709422 0.686488
16.7444 13.1058 1.72189 0.829971 -0.557659 0.0128596
17.9121 11.2887 2.04355 -0.403413 0.581151 -0.706769
15.1757 11.8167 2.39358 -0.666282 -0.743836 0.052692
15.1178 12.3829 3.97108 0.0250152 0.99768 -0.0633082
0.540637 12.9855 4.61854 -0.675847 0.382648 -0.62993
2.69911 15.5087 2.55417 -0.151351 0.134684 -0.979262
18.8513 13.5637 4.94235 -0.941392 -0.00645051 -0.337254
2.8607 14.3017 4.98683 -0.417635 -0.52218 0.743579
4.04465 17.0288 4.75737 0.0643448 -0.771919 -0.632456
5.25069 9.89558 18.1853 -0.580412 0.452853 0.676791
1.27741 16.2026 4.3957 -0.704646 0.531925 0.469606
1.58017 14.6546 4.84154 0.744445 0.43604 -0.505639
2.56012 17.959 3.8459 0.128183 0.723897 -0.677896
6.1547 13.1808 1.67874 0.77782 -0.62846 0.00581612
4.28976 16.8436 3.29592 0.162164 0.63411 0.756047
9.43676 14.4388 2.59416 0.342247 0.910874 0.230596
4.76734 14.2456 2.36321 0.955907 0.114458 0.270445
5.27022 14.9001 1.62916 -0.557642 0.563394 0.609609
8.53871 17.1464 3.18754 -0.807884 -0.450649 -0.379787
10.7683 12.8419 4.96719 -0.6307 -0.141366 -0.763042
11.9195 15.0386 3.04232 0.785513 0.110747 0.608855
12.5944 14.0064 2.32751 0.66707 -0.649953 0.364113
12.158 0.443478 2.5027 -0.0939987 -0.720556 0.686995
9.93627 14.7598 5.32615 0.78473 -0.0837066 -0.61416
13.1436 17.6482 3.42672 0.110774 0.848689 0.517161
16.3331 13.3087 3.11801 -0.69064 -0.716763 0.0962698
10.8579 17.6437 2.01032 0.687998 0.219119 0.691842
0.299679 14.2788 4.59642 -0.729117 0.522178 0.4424
18.491 16.4827 1.51906 -0.525992 0.667378 0.527199
16.4243 11.9489 3.08988 0.406114 0.692999 0.59567
13.7408 15.8485 2.83872 0.816329 0.00595762 -0.577556
0.39897 13.0315 6.28455 -0.323863 -0.298234 -0.897869
1.0243 14.484 2.43053 -0.962654 0.2543 0.0928952
0.602676 16.4938 2.73494 0.5152 0.851755 0.0953013
1.44457 1.76098 4.6195 0.775849 0.576544 -0.256234
2.3324 15.5375 5.23072 -0.0510161 0.809432 -0.584993
3.49451 19.0723 4.07972 -0.662124 0.415579 0.623607
3.21553 16.8762 4.01509 -0.470939 -0.879502 0.0685017
18.7434 17.6725 4.93723 0.545209 -0.818614 -0.180605
5.16825 16.1434 3.01829 0.268362 -0.179421 -0.946462
5.91721 18.2646 3.02541 -0.876129 0.463568 0.1323
3.98308 15.1052 1.34046 -0.582968 0.811902 -0.0310344
5.03084 17.6358 2.85341 0.389799 -0.337818 0.8567
9.05041 15.773 3.13428 0.031245 0.80386 -0.593997
8.74582 5.22009 1.2757 0.855052 0.0610045 -0.514942
6.77153 16.1506 0.588485 0.800705 0.0994564 0.590745
9.56529 18.3867 1.22611 0.997608 -0.0447114 0.0527215
12.4332 0.722215 3.50094 -0.468592 0.806908 -0.359612
11.7846 3.61495 19.2668 -0.129744 0.374534 0.918091
10.4722 14.7873 1.06311 0.647938 -0.264142 0.714427
10.6914 1.04709 4.688 -0.103809 -0.432493 -0.895641
12.6121 19.0268 4.70705 0.144251 -0.979097 -0.14339
11.3803 2.82565 0.438608 -0.599406 0.644065 0.475282
12.2227 2.31048 1.04864 0.813838 0.567661 -0.124214
13.4661 1.16613 19.4789 -0.176323 -0.522345 -0.834306
14.7183 16.771 2.64796 -0.183044 -0.496365 0.848597
13.3254 2.31726 18.4818 0.956017 0.232627 -0.178649
18.5259 15.4767 2.08835 -0.953982 0.0187849 0.299276
18.0193 17.0719 3.27421 0.558519 0.650888 -0.5142
18.7873 17.9877 3.67295 -0.143411 0.93109 -0.335417
1.61231 14.6422 1.30451 0.688443 -0.560803 -0.459942
19.0871 0.15077 4.77799 0.977847 0.182696 0.10216
1.32818 4.5587 7.69362 0.14962 0.838802 -0.523475
3.19744 0.633525 5.37669 -0.357709 -0.0385009 0.933039
3.31168 2.4552 6.26253 0.0582271 -0.155608 -0.986101
1.99254 19.3831 3.62988 0.199689 0.819446 -0.537245
3.83037 1.60856 4.05529 -0.409795 -0.0157268 0.912042
2.58549 17.9536 5.90745 -0.830042 0.552267 0.0776607
4.35203 4.7421 4.06219 0.0500494 0.410774 0.910362
5.8493 0.380388 4.23581 0.077945 0.97009 0.229889
3.74764 4.58386 5.42833 -0.10725 -0.864382 -0.491264
7.22533 18.7015 2.67754 -0.562927 0.17157 0.808503
8.01556 17.1502 1.98209 -0.734508 0.618037 0.280229
9.33999 17.587 1.77763 0.175136 0.663897 0.727027
11.1193 0.848334 7.86608 -0.642583 -0.264421 -0.719145
9.51569 19.0419 4.49242 0.317926 0.904403 0.284568
12.5388 2.08456 3.86953 0.704731 -0.571751 -0.420066
11.0936 19.0327 3.27385 0.45581 -0.362228 -0.813036
11.0052 0.0193447 2.14588 0.0245584 -0.538139 -0.842498
14.4622 18.5999 4.3922 0.536261 -0.124534 0.834815
12.8504 3.50347 3.86359 0.294655 0.437788 0.849424
12.977 1.95199 1.69196 -0.064507 0.853876 0.516464
13.8683 0.91046 4.94054 0.714415 0.535732 -0.450113
13.8234 18.5112 6.16846 -0.691801 0.541775 0.47738
16.9515 14.9596 4.50947 0.263882 -0.924863 0.273853
17.5811 19.2934 3.82995 -0.542778 0.773823 -0.326481
16.0955 1.37677 6.67314 -0.942671 0.2635 0.204791
0.156325 18.7859 5.3436 0.636398 0.105672 0.764088
0.646944 0.799276 4.03231 0.996206 -0.0609559 0.0621095
17.0742 9.34362 5.49655 0.0751983 0.993565 0.0847023
2.81846 5.2135 6.15343 -0.45024 -0.522879 -0.723797
3.02583 3.47871 4.10725 -0.957947 -0.258595 0.124363
3.21421 7.41475 3.3958 0.163557 -0.467855 -0.86854
2.43088 1.47278 5.10279 0.0510771 0.857292 0.51229
4.05739 7.28471 4.25349 -0.249801 0.464379 0.849677
3.25147 5.07437 4.57697 0.414578 0.896809 -0.154465
5.92651 4.61332 5.0256 0.270433 0.934115 -0.233014
5.331 5.62858 3.69585 -0.0650982 -0.683584 0.726963
7.44791 6.29268 4.23504 -0.872373 -0.483247 -0.073742
8.97046 1.49092 4.89458 -0.0187999 -0.99857 -0.050043
7.94092 1.27952 3.18982 0.985598 0.118863 0.120279
8.86597 19.3531 1.36425 0.633802 0.130399 -0.762424
6.33086 0.260264 3.24018 -0.387845 -0.637504 -0.665706
12.3274 2.81883 8.20824 -0.383487 -0.814106 0.436084
11.3792 7.05719 6.21881 -0.453689 0.879806 0.141802
9.33545 2.22934 3.64289 -0.97162 0.154153 -0.179418
12.5194 4.04174 6.55574 -0.840005 -0.366823 -0.39979
10.6343 2.91549 5.01492 0.813395 0.417135 0.405447
12.3104 7.4907 6.98097 0.123399 -0.366568 -0.922172
13.3803 2.75083 4.93921 0.069991 0.103577 -0.992156
14.5891 1.20138 6.3591 0.50898 -0.828218 0.234507
15.9469 1.89857 5.81426 0.281557 -0.823998 -0.491684
12.2999 5.56883 5.062 0.159041 -0.927755 -0.337603
14.5637 0.18592 4.6369 -0.92804 -0.285833 -0.238835
1.35546 6.62704 6.46823 0.480844 0.876622 -0.0179579
2.38211 6.50963 6.82499 -0.314003 -0.734988 -0.600995
17.0971 10.2151 4.1987 0.43563 0.376915 0.817412
3.08649 9.20805 4.67959 0.658958 0.737494 -0.147909
16.7369 11.193 5.01357 0.455341 0.853558 -0.253187
2.87611 8.41492 7.86425 0.643721 0.375031 0.667064
5.84996 7.30641 6.02204 0.542301 0.182002 -0.820235
5.26586 6.81126 5.36977 0.793865 -0.261409 -0.549039
3.82983 8.40749 7.39316 -0.282093 0.568567 -0.772758
6.98317 6.55259 5.11461 0.289758 0.875109 -0.387587
7.74896 8.60003 5.69504 -0.827645 0.507231 -0.24025
8.22613 7.46755 5.05455 0.272157 0.944551 -0.183722
4.99152 9.45928 9.08578 0.595749 0.654278 0.465837
9.18349 10.5102 4.03863 -0.515288 0.226698 -0.82649
10.4353 9.79229 4.02566 0.239075 -0.970896 0.0142903
8.81115 9.56532 5.3502 -0.391234 0.0075445 0.92026
11.2654 10.4182 7.40204 0.100636 0.198568 0.974907
11.3889 2.79746 6.39227 0.394903 0.524257 0.754458
13.2665 9.19436 8.72841 0.320756 0.803179 0.502015
13.5018 7.83717 7.26816 -0.534695 -0.687978 0.490701
13.619 9.15836 7.43845 -0.680869 0.426372 -0.595503
13.5086 7.20333 5.52332 -0.791715 0.599347 -0.118196
14.4832 9.01858 5.44976 -0.456309 0.333002 0.825162
11.4067 8.12931 5.34845 0.686108 -0.0490076 0.725847
11.5861 9.65249 8.22403 -0.542541 -0.0776314 0.836434
17.5596 10.721 6.48507 0.506506 -0.452931 -0.733693
14.8654 8.83061 7.12926 0.0711063 -0.755615 0.651145
16.482 9.6934 7.15246 -0.468922 0.860754 -0.198026
15.5698 12.1902 8.82885 -0.147025 0.741087 0.655113
1.92023 4.14676 6.22885 0.23989 -0.951844 -0.190905
15.6798 10.1407 6.11196 0.0271832 -0.834277 0.550676
2.20391 12.2853 7.9081 0.497351 -0.405954 -0.766709
2.4069 11.2138 7.91554 0.907053 -0.14439 -0.395482
3.95028 11.0942 8.51655 -0.134849 -0.381046 0.914669
3.7284 14.2035 5.72319 -0.458411 0.881614 -0.112318
6.58939 8.38521 6.06157 -0.671593 0.214298 -0.709253
4.90203 11.409 6.61341 -0.120361 -0.371158 0.920736
3.49422 7.42463 8.99184 0.231485 -0.198497 0.952373
3.1347 8.9458 11.5206 0.751455 -0.235182 -0.616445
7.52464 9.90209 5.50026 0.541963 -0.596906 -0.59159
6.46426 11.1751 10.1993 -0.654367 0.0701703 0.752914
9.20307 10.3496 6.9105 0.847836 -0.043446 0.528476
9.47212 11.7303 3.47541 -0.964641 -0.199943 -0.171727
7.54332 10.6631 3.0398 -0.523658 -0.300347 -0.797229
7.14291 9.09999 9.86705 0.115099 -0.905744 0.407898
11.3714 8.63204 8.14688 -0.954285 -0.176088 0.241522
9.1584 13.4754 6.64691 -0.0557629 -0.0282328 0.998045
14.0014 8.0375 5.85207 -0.860169 0.0228086 0.509498
8.87446 12.5039 3.85831 0.548683 0.47694 -0.68664
13.4563 10.221 7.83208 -0.760999 -0.599047 0.249045
10.2531 11.0342 5.40489 -0.460065 0.673637 0.578406
13.7275 8.27637 4.86173 -0.17834 0.927449 0.328685
12.494 12.089 7.04391 -0.435614 0.725944 0.532208
13.2743 12.4456 9.01808 0.723824 -0.684796 0.0844569
14.835 12.9581 2.4275 -0.235134 -0.575822 0.783034
15.7544 10.3991 4.01485 0.115226 -0.690907 -0.713702
14.2149 10.7246 3.78016 0.395435 0.788646 -0.470818
14.7528 11.5029 5.93435 0.86746 -0.161271 0.470643
3.31095 10.3963 6.79395 -0.593763 0.796013 -0.117509
3.85062 11.5046 6.21785 0.361963 -0.187609 -0.913119
1.47373 13.8212 8.55535 0.247794 0.753627 0.608805
4.92261 10.4215 5.88408 -0.689976 0.30118 0.658198
1.1928 12.3531 4.08257 0.0335344 -0.803081 0.594925
1.89179 11.742 5.82715 0.939261 0.22359 0.260378
4.83332 13.2862 6.55639 0.488898 -0.866739 -0.0987051
4.91655 10.7824 11.8401 -0.995231 0.0147576 -0.0964263
2.59925 14.9891 6.70863 -0.950304 0.248332 0.18776
7.86442 13.6887 0.624588 -0.373741 -0.842772 0.387367
5.28036 10.493 10.4281 -0.236379 0.961106 0.142831
6.8921 10.7786 8.47936 -0.165887 -0.956825 0.23868
9.75393 15.9831 2.08455 0.796898 0.601013 0.0611308
8.44344 12.85 6.22941 0.635954 -0.667071 -0.388045
6.99444 15.0623 5.34921 -0.537066 -0.751224 0.383697
8.25919 15.392 7.50369 0.175416 -0.240797 -0.954592
11.1013 16.7543 3.50244 -0.273776 -0.201214 0.94051
8.83443 12.3812 7.08185 -0.859505 -0.178839 0.478819
6.95109 16.5861 5.32013 -0.107741 -0.73256 0.672122
11.5703 11.6237 6.0755 -0.621902 -0.782805 -0.0213224
10.0846 13.9349 3.54024 0.258315 -0.963726 -0.0671298
17.5347 14.4469 3.76808 0.157971 0.985565 -0.0608773
10.1135 13.3754 6.93519 0.201135 0.701819 -0.68337
18.7174 14.3287 7.94896 -0.313214 0.600051 -0.736095
17.7044 14.2006 5.6778 0.983601 0.0528352 -0.172445
15.2527 10.6431 3.08923 -0.249012 -0.952677 -0.174355
18.0817 14.7941 4.73716 -0.432519 0.574269 0.695085
16.7196 13.2298 4.63327 0.204924 -0.68644 0.697715
19.0446 13.6371 6.06233 0.779693 0.584506 0.224571
1.70602 14.1763 7.62612 -0.810526 -0.127608 -0.571632
1.70197 16.0689 7.58599 0.252203 0.0165387 -0.967533
3.62558 13.5488 6.887 -0.600865 0.516836 -0.609788
0.407857 16.0711 3.74214 0.208344 -0.89985 -0.383226
1.66911 11.2579 7.00607 0.217361 0.927306 -0.304727
0.753446 15.9628 6.66406 0.294336 0.839208 0.457271
4.13365 10.9207 10.4548 -0.406495 0.660052 -0.631738
5.85164 16.4102 4.89266 0.116955 -0.158214 0.980454
2.65552 15.6439 7.58234 0.351305 0.573492 -0.740062
5.5241 17.8024 4.53671 0.572049 -0.535407 0.621369
7.70421 14.3865 5.13722 -0.734118 -0.601577 -0.314922
9.61972 14.67 1.62131 -0.689307 -0.536599 -0.486742
10.1708 17.3072 2.87961 0.270597 0.955866 -0.114439
8.62253 16.5592 4.54884 0.349972 0.926495 0.138298
8.67405 16.1987 6.40893 0.752154 -0.478472 -0.453132
10.2339 15.7197 4.48586 0.00852169 -0.0205225 0.999753
11.6931 15.9418 2.58369 -0.983043 -0.0249611 0.181666
11.8923 18.9698 6.28715 -0.824848 -0.537585 0.175008
9.4247 14.8487 6.85406 -0.70612 -0.454328 0.543121
12.9089 18.8837 2.91099 -0.469086 -0.880179 -0.0724079
10.8756 13.6981 4.45403 -0.940678 0.339094 0.0118476
11.0933 15.3344 5.37642 0.253454 0.605652 -0.754285
17.365 15.3011 6.82079 0.609422 -0.241298 -0.755235
13.4417 17.0353 4.44187 -0.310501 0.361424 0.879183
14.1754 17.608 3.76343 -0.0519966 -0.0903041 -0.994556
18.9051 16.1139 7.62274 -0.240106 0.910481 -0.336709
1.94303 14.1675 6.63026 0.769544 -0.296851 0.565404
0.779154 12.1763 7.03249 -0.472623 -0.263143 0.841061
3.18869 13.8872 9.64881 0.625787 -0.484069 0.61161
0.138211 17.812 5.60886 -0.321447 0.237949 0.916543
1.10554 18.574 4.9473 -0.121236 0.65183 -0.748612
0.809941 15.5145 5.27287 0.699692 -0.372529 0.609634
4.30526 16.2386 5.39132 0.743651 -0.288844 -0.602953
0.969227 0.723988 5.74297 0.361142 -0.930232 -0.0651483
5.00465 17.0089 5.35588 -0.0053524 -0.0388439 -0.999231
6.84409 16.4112 3.98836 -0.270062 -0.572065 0.774472
4.23724 15.7307 6.62034 -0.70866 -0.403085 0.579072
4.41283 14.2884 10.5471 0.693747 0.141509 -0.70618
9.24001 18.1148 5.4359 0.311755 -0.918926 0.241628
8.08557 18.0815 2.80179 0.64334 0.420269 -0.639912
10.311 0.619959 5.76806 -0.300878 0.566088 0.767474
9.34968 0.280065 5.68159 -0.592092 0.789133 0.163391
11.2562 0.0115797 6.94644 -0.10159 0.640389 -0.761302
10.0468 0.534312 2.82273 0.0136966 0.984826 0.173004
11.5157 0.277426 4.49154 -0.0464404 -0.172295 0.98395
10.0394 2.15272 5.6678 -0.252053 -0.906525 -0.338648
7.93177 18.6734 5.40445 0.576972 -0.412137 0.705157
11.5353 2.00263 2.19504 -0.599943 -0.797172 0.067716
12.12 17.6277 3.9247 0.279558 0.93167 -0.232032
13.88 1.99537 3.97205 -0.549621 -0.289386 0.783692
13.8488 16.5836 1.66576 -0.0546534 0.229567 0.971757
16.9693 17.3454 3.27175 -0.14444 -0.111537 0.983207
13.3132 17.6141 1.95974 0.228757 0.559891 0.796362
17.8123 17.3311 5.53796 0.944469 -0.118337 0.306554
2.26491 17.1266 6.58423 -0.957931 -0.143628 -0.248475
2.02286 18.9834 4.95768 0.335816 -0.940881 0.0443886
1.26406 3.49052 7.17901 -0.946791 -0.320654 -0.0277102
1.55186 5.67313 8.17522 -0.552676 0.817078 -0.164111
1.43453 2.70852 6.53987 0.865149 0.0861126 0.494066
4.47354 2.24133 5.3666 0.60763 0.737733 -0.294171
5.98782 14.3391 11.5731 -0.995307 0.0825951 -0.05042
3.47558 4.37039 7.62789 -0.970138 -0.0944602 0.223406
5.57437 13.886 12.594 -0.236443 -0.578667 -0.780538
4.29784 2.6285 6.50057 0.21378 -0.501765 0.838171
4.95182 6.03686 6.18049 -0.683507 -0.117768 -0.720381
4.68038 5.07194 6.27764 0.283018 -0.293548 -0.913089
5.9602 4.15156 6.51186 -0.961441 0.145087 0.233627
5.48059 5.12895 7.02069 0.486033 0.0559876 -0.872145
6.43468 18.5044 4.4734 -0.230976 0.728943 0.644432
6.84452 7.86239 16.2266 -0.879051 0.458495 0.130581
8.5431 7.56097 15.3606 -0.907298 -0.254725 -0.334554
12.3601 2.93022 5.88136 -0.125693 0.14057 -0.98206
9.5391 1.10972 4.09022 0.54699 0.623777 0.558305
14.0058 2.76506 6.88206 0.868585 -0.440039 -0.227874
12.409 0.910258 6.24988 -0.362932 -0.207346 0.908454
11.3579 1.41118 3.85449 -0.537758 0.259843 -0.802059
13.7624 18.8842 5.21056 0.23421 0.761487 0.604387
13.5191 1.84379 6.86213 -0.758331 0.0534761 -0.649673
11.7735 1.70277 6.25699 0.161667 0.518276 0.839794
14.3927 3.0775 5.56198 -0.500189 0.785949 -0.363448
14.7031 19.0195 6.73967 -0.00147844 -0.0613901 0.998113
14.9512 0.966819 7.61521 -0.656467 -0.696225 -0.290383
13.8835 3.90736 8.02553 0.802008 -0.596989 0.0196806
1.926 3.13787 8.03407 -0.451134 -0.740709 -0.497823
4.8088 8.4439 7.09698 0.183243 0.95601 -0.229056
1.39054 7.36731 8.61354 0.548924 -0.819967 -0.162285
3.70005 4.72555 8.51748 0.561355 0.755992 -0.336686
3.80706 7.76408 6.61252 -0.290479 -0.516939 0.805231
2.89545 3.40374 5.46641 0.0869414 0.767603 0.635001
2.80528 6.69031 8.52816 -0.236628 0.340996 0.909796
2.98686 5.51118 8.15361 -0.600453 0.26192 0.755549
6.6398 7.13299 4.02086 0.776904 -0.271986 -0.567842
4.91471 5.87717 4.72093 0.613176 -0.228951 0.75604
6.14344 7.87558 14.7454 0.686368 -0.436167 0.581943
7.28237 8.36123 15.045 -0.770867 0.286736 0.568811
6.64773 6.32231 15.0968 0.132791 -0.686892 0.714525
10.5908 2.04495 6.8273 0.599058 -0.798548 0.0587435
7.13849 9.17102 16.4188 -0.479421 0.112295 0.870371
9.92158 7.74739 14.9056 -0.844695 0.121235 -0.521337
12.7579 3.8429 5.62161 -0.808291 0.437821 -0.393672
11.7449 2.01148 4.9626 0.912728 -0.0549222 0.40486
11.1707 15.647 6.4829 -0.330117 0.809361 -0.485755
13.2132 2.3582 7.88153 -0.574659 -0.598299 -0.558395
15.764 19.3919 5.69155 0.21033 -0.943402 -0.256426
16.1019 3.37155 6.95398 0.520112 0.0325086 -0.853479
12.3596 11.8706 8.56716 -0.689229 0.486953 -0.536506
15.553 2.40214 7.31736 -0.883932 0.0403425 0.465872
15.0408 1.51519 5.30311 0.312603 0.91065 -0.270177
15.499 3.96362 6.33661 0.145102 0.719412 0.679259
2.8402 8.47401 6.06248 0.216794 -0.49438 -0.841777
15.0545 5.6633 7.69478 -0.576954 0.687 -0.441763
2.69775 6.66668 5.25678 0.32699 -0.944127 0.0412473
2.40232 8.14037 8.73007 0.062905 0.790907 0.608695
2.2666 10.0984 9.41392 0.512356 -0.477956 -0.713477
3.97144 6.4688 6.74288 -0.87181 -0.0539238 -0.486867
3.9869 10.331 7.67212 -0.794439 0.0447004 0.605697
3.36083 7.18354 5.78426 0.658687 -0.434752 -0.614102
4.04091 9.89263 8.783 -0.728694 -0.508968 0.45821
7.79013 8.34306 16.7331 -0.878201 -0.0173602 0.477976
5.90462 7.70846 10.7939 0.828039 0.553889 0.0869371
7.52892 7.28277 5.90552 -0.49713 0.684344 -0.533418
6.07739 7.1126 9.47209 -0.71469 0.535717 0.449694
7.39056 9.94285 15.1683 0.56483 0.692394 0.448951
11.1756 8.97123 7.25029 0.4069 -0.761491 -0.504544
9.47724 9.21507 7.66057 0.194813 -0.248237 0.948908
5.07466 8.50978 9.56179 -0.640943 0.40964 0.649143
7.48002 13.3821 12.3371 0.591121 0.170943 -0.78826
10.5966 11.0948 8.48895 -0.594518 -0.769391 -0.233638
12.942 4.79728 5.85625 0.907437 -0.397217 -0.137028
13.4901 10.486 10.714 0.119927 -0.277789 0.953127
12.2738 11.165 9.8065 0.518609 0.00559515 0.854993
13.0826 10.4937 6.87039 -0.901053 0.367301 0.230639
16.4732 8.45883 6.56546 -0.00544379 0.918655 -0.395022
11.2617 11.8452 7.20521 -0.376931 0.490429 -0.78575
12.6745 9.543 9.78374 0.0342591 0.883454 -0.467264
16.4893 11.2197 6.01727 -0.178475 0.953031 -0.244699
15.5456 11.2067 9.26087 -0.846258 0.449988 0.285234
15.1526 12.5146 7.83543 -0.270851 -0.957491 -0.0992499
0.883282 7.7108 6.79549 -0.18359 -0.826335 0.532415
14.629 12.3771 4.84546 -0.726935 0.513843 -0.455555
3.67825 9.8323 10.9822 -0.132842 0.164168 -0.977447
17.0389 10.3352 7.6922 -0.757764 0.449455 0.473059
4.10596 9.38907 7.83003 -0.971369 -0.0715061 -0.226559
4.61935 12.2862 8.56185 -0.649285 -0.0458255 -0.759163
3.80889 6.32222 8.48193 0.274187 0.770615 -0.575304
2.62212 11.8889 9.11017 -0.508938 -0.85416 -0.10674
3.74098 8.28263 10.1096 0.776885 -0.626109 0.0666181
5.58292 8.9631 11.481 -0.28089 0.937255 -0.206529
4.64017 7.54372 9.20056 0.573221 -0.818503 0.038351
4.80083 8.18937 10.9093 -0.778909 -0.372885 0.50424
6.48676 9.70505 11.579 0.134902 0.631372 0.763656
4.9771 7.22962 8.21407 -0.0927179 -0.977996 -0.186887
10.2765 9.4024 6.68273 0.0612969 -0.951274 0.302192
6.80373 8.42386 9.14241 -0.703128 -0.234196 0.671389
13.666 11.6286 10.0599 0.881763 -0.312584 0.353251
7.34594 14.8945 7.164 -0.691891 0.709589 0.133307
12.4714 8.92396 6.51227 0.279806 -0.518044 0.808294
14.7747 10.5638 9.70602 0.800439 -0.453007 0.392532
12.4732 10.7442 8.24392 0.499356 0.556174 -0.664315
6.59766 11.6586 14.2571 -0.623988 -0.781226 0.0179925
11.9579 8.7044 9.01329 -0.502113 -0.838904 0.210052
7.6769 14.3482 14.0997 0.220052 0.946854 -0.234615
13.7446 11.4446 8.22894 0.411718 0.775973 -0.477865
14.517 11.8633 6.90448 -0.801506 -0.536717 0.263672
13.921 12.6183 10.1729 0.556943 -0.186375 -0.809369
16.2528 11.9079 7.53175 -0.816971 -0.400932 -0.414501
14.5846 10.8152 8.48629 -0.128731 -0.976359 -0.173641
13.9534 10.3862 5.56322 -0.236375 0.705444 0.668188
1.99025 9.61813 7.82864 0.315665 0.769056 0.555795
15.1061 10.5861 7.13083 0.31627 0.0257035 0.948321
3.03544 10.8073 10.0431 0.150833 0.0509063 0.987248
3.87987 14.2675 7.53307 0.949835 -0.311374 -0.0293299
3.78768 10.3626 5.41854 -0.764565 0.637908 0.0922746
5.57236 12.3987 8.07423 0.573636 -0.68046 0.455978
4.79732 13.2162 9.50423 -0.814871 -0.455713 -0.358205
4.63679 10.4657 9.64168 -0.439403 -0.888314 0.133507
4.54719 8.92797 11.5613 -0.033479 -0.636139 0.770848
7.10432 10.7867 11.1675 -0.944698 -0.326981 -0.0250839
5.63438 10.9923 8.74542 0.667478 -0.459179 0.586198
4.52412 12.5805 11.3492 0.0470485 -0.990737 -0.127385
5.93827 9.09165 9.04659 -0.289368 -0.253121 -0.923145
8.30303 13.3351 13.8018 -0.570118 -0.795596 -0.204919
7.1725 9.86394 10.7151 -0.754638 0.293646 -0.586765
6.6949 14.0418 6.81858 0.0848127 -0.896798 0.434235
7.53181 14.858 6.16228 -0.0819438 -0.988787 -0.12484
8.06456 12.8843 14.8741 -0.171268 0.761712 0.62487
6.91879 11.4088 13.194 -0.733543 -0.0289599 -0.679026
12.1505 13.7815 6.97151 0.348939 0.894681 0.278904
13.0968 13.3258 7.55325 0.310043 0.333347 0.890367
5.10913 13.0479 13.0162 -0.551336 0.78812 0.27367
14.2985 13.3852 7.81968 0.0299234 -0.764404 0.644043
17.7606 16.3349 5.67393 0.285875 0.127466 0.949752
13.5599 12.3567 6.89469 0.397172 0.0423127 -0.916768
0.372839 13.6532 8.16555 0.030647 -0.99205 0.122052
15.3414 13.4665 6.80882 0.759899 0.573138 -0.306704
2.95133 12.8983 7.38105 -0.401226 0.246061 -0.882311
2.37321 13.3276 8.93229 0.0294931 -0.0756583 0.996698
15.3153 5.49972 9.20757 -0.569254 -0.524614 -0.633033
5.31392 14.2104 8.80081 0.912915 0.296344 -0.280654
2.4986 16.635 5.70593 0.486406 -0.812417 0.321541
4.10415 13.4168 8.29192 0.92832 -0.261589 0.264183
5.29111 13.3268 15.9666 -0.515875 -0.596839 0.614538
5.68171 13.4456 13.8787 -0.437988 0.23318 0.868213
5.6464 12.1882 10.7788 0.117508 -0.35937 -0.925767
6.7045 12.285 9.05165 0.870457 -0.492237 -0.00255581
6.16562 13.255 11.2033 -0.205291 -0.194588 -0.959162
6.6266 12.014 10.931 0.0328835 0.59124 -0.805825
