16.2122 14.5361 11.5797 -0.731732 -0.213883 0.647165
22.4469 10.8159 10.5027 -0.224148 0.966266 -0.126838
10.2102 12.6767 17.1227 0.134278 0.914335 0.382049
22.2229 22.7318 17.5752 0.0977612 -0.994613 0.0344525
20.4689 19.13 12.1428 -0.35034 0.599962 0.719241
12.1104 13.8147 12.861 -0.147969 0.757842 -0.635438
16.8168 16.3841 7.74183 0.0177342 0.148899 -0.988693
11.6292 20.2631 18.9866 0.714659 -0.600375 -0.358904
16.3118 16.8812 18.5943 -0.873963 0.438385 0.209782
19.6641 19.339 15.9096 -0.212004 -0.680895 0.701026
22.5466 22.98 8.79732 0.878944 -0.47639 -0.0225724
9.93816 18.5927 15.0819 -0.927541 -0.19893 0.316377
22.7134 22.8534 6.75906 -0.182458 0.655954 0.732416
21.6329 23.1299 16.3619 0.0155836 0.904905 0.425329
13.4061 23.2676 6.06179 0.756558 -0.584742 0.292739
13.0001 11.7726 11.0114 -0.492834 -0.827255 0.269746
15.6668 14.2729 16.1654 -0.46493 -0.490461 0.737081
15.2716 14.7386 17.2319 0.258193 0.541605 -0.8
9.95857 11.2804 13.3849 0.925154 0.375659 0.0545018
12.5868 12.8212 11.4763 -0.187236 0.898868 -0.396205
22.741 13.9801 16.3348 -0.0205439 -0.0309008 0.999311
17.7431 11.1852 8.43614 0.392579 0.919196 0.0309998
22.9303 13.4318 6.57311 -0.203624 -0.0773251 -0.975991
21.6655 18.1112 8.26477 0.804782 -0.58978 -0.0669774
14.5224 16.5049 8.66895 0.276663 -0.274488 0.920931
17.3049 12.9936 8.3274 0.94645 -0.111499 -0.302987
12.8254 19.4192 16.0638 -0.295021 -0.837604 -0.459763
15.6185 15.2373 13.9251 -0.425106 0.598842 -0.67873
18.7863 16.6762 9.77871 -0.931789 -0.183764 0.313051
10.5805 17.0535 10.9317 -0.377787 -0.836673 0.396554
10.5182 12.6415 10.4978 -0.284113 -0.924447 0.254319
23.5838 20.8404 7.971 -0.58244 0.633395 -0.509484
19.9675 18.6267 7.51039 -0.205255 0.589528 0.781234
21.1963 19.6716 13.1173 0.157705 -0.512802 -0.843897
18.2707 10.171 8.72581 -0.385776 -0.890982 -0.239434
17.1837 14.6716 16.2323 0.644535 -0.628839 0.434898
17.852 13.0145 7.03146 -0.652715 0.518524 0.552354
13.667 15.481 16.3416 0.0523502 0.860568 -0.506638
19.1343 20.2215 6.45152 -0.256469 0.964896 0.0565645
17.7476 12.0281 7.60946 -0.942014 -0.299467 0.151426
21.7319 12.9537 13.3296 0.255132 0.289857 -0.922438
22.1466 19.1176 11.8875 0.187162 0.294236 0.937228
11.5457 14.6566 6.30743 0.928429 0.266513 -0.258826
10.7722 13.4125 6.78713 -0.830261 0.360065 -0.425465
11.1762 15.987 16.4354 0.221003 0.640942 0.735086
12.7932 11.8339 17.3845 0.741893 0.58501 0.327655
10.546 20.6011 12.089 0.824434 0.027971 -0.565267
12.571 16.2956 12.6893 0.901909 0.338212 0.268648
11.1319 19.67 17.2671 0.986253 0.0455434 -0.158843
16.9299 13.0959 6.44342 -0.587522 0.728387 0.35252
9.95834 16.2503 13.7013 -0.0671399 0.466594 0.88192
18.9389 17.041 16.1713 0.920821 0.161563 -0.354946
22.164 11.1467 15.2266 0.401852 -0.342419 -0.849273
13.8049 10.9754 17.1196 -0.294196 -0.927804 -0.229408
23.1179 14.9416 16.7744 -0.439185 0.658826 -0.61079
11.8185 12.4424 16.4169 0.951428 -0.307052 0.0224341
17.895 20.7541 19.0058 0.773642 -0.489836 -0.401918
13.3136 21.8599 14.8651 0.333897 0.794421 -0.507354
17.902 15.3928 8.49743 -0.149056 0.63936 -0.754322
19.0755 22.8732 13.1037 0.272581 -0.503279 0.820006
21.4371 16.2872 16.798 0.0769761 -0.595758 -0.799467
21.9547 12.6784 6.98643 -0.544563 0.234876 -0.805161
19.9071 16.9342 10.5279 -0.629385 -0.145356 0.763378
22.5818 19.392 15.3852 0.871283 -0.159663 0.464084
20.0586 13.7425 7.64604 -0.594485 0.155269 -0.788973
18.8186 17.1641 7.39094 -0.662623 0.729026 -0.171614
15.5665 10.2224 15.2476 -0.442469 0.720389 0.534098
22.2103 12.0218 16.9328 -0.879662 0.371116 -0.297434
18.4113 23.1654 18.0801 -0.38742 -0.545464 0.743219
21.8397 18.0839 6.71408 0.321491 -0.724357 0.609877
13.756 15.5346 8.79149 0.435507 0.288414 -0.852731
10.8133 22.2096 18.4563 0.935986 -0.344383 -0.0730135
14.88 16.569 13.622 0.993529 0.102279 0.0493832
12.2641 16.8145 6.29516 0.41776 -0.894716 0.157985
10.2644 14.6147 19.3736 0.746417 0.629998 0.214394
14.5724 11.6671 19.1006 0.389273 -0.530985 -0.752676
22.9549 12.0264 8.80173 -0.0331008 0.903581 0.427137
21.3325 19.8923 18.7825 -0.481175 0.784933 -0.390322
11.7316 17.5038 9.34527 0.201049 -0.943585 -0.263108
20.3032 23.45 6.05751 0.271748 0.913987 0.301299
11.9626 12.8087 18.527 0.296947 -0.187652 -0.936274
17.9073 18.3505 17.1333 -0.721006 -0.536135 0.438986
11.6355 17.8232 13.3658 -0.37107 0.663271 0.649907
19.7982 17.4769 7.84051 -0.605234 0.793868 0.0588712
14.5573 10.4353 17.7321 -0.668982 0.531861 0.519217
16.1056 11.4993 17.7271 -0.324735 -0.00670539 0.945781
21.4882 13.1795 16.8543 0.786234 0.0382451 -0.616745
21.2269 17.9416 10.3239 -0.928226 -0.163115 0.334349
20.8538 17.9489 16.0182 0.946865 0.151566 -0.28368
16.7654 22.2001 18.8672 0.750214 -0.580136 -0.317209
18.8825 12.5837 13.6227 -0.506404 -0.857178 0.0938117
19.8944 23.0582 17.6195 -0.37613 0.758766 0.53179
22.7245 16.8078 18.0459 -0.965803 -0.176267 0.190141
20.8749 21.174 16.4412 -0.563507 0.156252 0.8112
14.0087 14.1796 18.0249 0.343167 -0.813866 0.46889
22.8101 14.9944 12.2799 -0.255038 -0.0540331 0.96542
11.2446 12.6351 17.5757 0.232561 -0.87819 -0.417968
22.5854 13.6401 10.5656 -0.983439 -0.14806 -0.104525
14.9709 9.86168 18.6635 0.615942 -0.747606 -0.248397
12.4533 13.2199 15.8275 -0.50053 0.701729 0.506998
22.1235 14.5788 7.63324 -0.0761815 0.10192 -0.991871
11.9775 19.3127 6.7614 0.797185 -0.601693 0.0496233
23.3478 21.9794 15.6752 0.294881 -0.852059 -0.432483
12.6167 14.2264 10.2936 -0.39465 0.915539 -0.0777194
11.7887 10.968 7.39225 0.634733 -0.237725 0.735256
19.5918 12.7838 17.8165 0.283698 -0.0491463 0.957653
14.702 14.5034 13.3091 0.812791 -0.252889 0.524802
14.882 12.7962 17.4687 0.215459 0.284008 -0.9343
14.9484 13.8118 14.5369 -0.877282 -0.0829692 -0.47275
12.5042 22.9419 18.9329 0.985969 0.0987689 -0.134574
19.9655 19.6766 10.0729 0.285367 -0.0608997 0.956482
17.026 23.2652 6.34779 -0.27106 0.496133 0.82485
11.366 13.4371 15.3432 0.402282 0.0098805 -0.915462
21.3755 12.9366 9.55072 0.850573 -0.351039 0.391531
22.2706 14.6373 17.9487 0.00227733 -0.582426 0.81288
17.0208 14.6241 14.7343 -0.351401 0.476915 -0.805648
20.837 21.1195 14.994 0.280559 0.947891 0.150961
19.9735 12.0236 6.4286 -0.69709 -0.219597 0.682527
14.3631 14.9717 5.9885 0.951406 0.235873 -0.197964
12.8869 21.0395 14.2721 -0.73186 -0.406057 0.547264
14.2787 18.1697 17.5259 -0.0975282 0.983505 0.152333
16.4956 20.1344 14.3409 0.772756 -0.269369 0.574707
21.7569 15.6644 19.3654 0.281785 -0.295303 0.912904
22.8992 16.0161 9.39778 -0.917928 0.367711 -0.148984
11.0739 20.0738 16.2786 -0.991731 -0.106377 -0.0717838
10.9614 18.9353 6.08375 0.127138 -0.984811 0.118247
13.8241 18.9225 12.1036 0.568294 0.822638 -0.0175872
14.8166 20.61 15.1268 -0.709302 0.516303 -0.479919
21.0576 20.6177 19.558 -0.89409 -0.233998 -0.3819
12.7422 20.0546 8.17227 -0.855348 -0.397627 -0.332074
18.1931 20.6432 10.4423 0.209523 0.777545 0.592894
16.6512 17.3716 8.57203 0.0147832 -0.0575472 -0.998233
13.4196 19.1864 17.1403 0.41171 0.911304 0.00439828
17.2499 22.8457 18.2313 0.00348672 -0.670076 -0.742284
15.7049 18.8699 15.8223 0.784896 -0.613935 0.0837913
12.9984 20.7945 12.1136 -0.220246 -0.898043 0.380802
16.1464 10.9066 6.4815 -0.761414 0.53196 0.370496
16.244 12.2555 13.3414 0.975134 0.220421 -0.0230009
18.8517 10.4944 11.0974 0.467102 -0.472336 0.747472
10.2732 19.1286 6.8891 -0.952603 0.133575 -0.273323
17.2901 10.0421 16.6363 -0.301476 0.817251 0.491134
14.217 10.8204 16.1246 0.787505 -0.320545 0.52639
10.5485 12.039 8.33014 -0.945344 0.00412873 -0.326049
19.3853 12.7616 6.26432 0.153929 0.243995 0.957482
15.9393 12.0167 14.3167 -0.84935 -0.502797 -0.160622
20.3573 10.5829 8.72347 -0.507271 0.524135 -0.684076
16.0308 11.5128 11.6252 0.171518 0.98518 -0.00160111
23.0915 16.3816 6.31077 0.334243 0.864176 -0.376141
19.4156 20.8277 15.4749 -0.916191 0.222046 -0.3336
19.3894 18.8089 15.041 -0.70066 0.0903527 0.707751
18.6827 10.8839 17.4439 0.927758 -0.196495 0.317263
19.0679 23.2684 18.9373 0.23811 -0.831639 0.501677
17.5563 17.1344 7.66789 -0.187477 0.563558 -0.804521
10.5195 10.9572 8.70978 0.75482 0.115198 0.645737
18.2549 14.218 18.329 0.438122 0.709398 0.552091
23.0158 23.0167 13.6352 0.286953 -0.955546 -0.0677441
22.7081 15.8922 13.604 -0.676797 0.721418 0.146633
16.7426 22.1996 6.36227 -0.750202 0.244058 0.614518
15.4241 21.2684 16.607 -0.375832 -0.826392 -0.419316
22.2596 18.2259 13.0146 0.649836 -0.146271 0.745868
11.943 22.006 19.4108 -0.919316 -0.339793 -0.19849
11.9885 13.7129 5.98537 -0.183008 0.339328 -0.922694
10.1759 9.87513 13.6807 0.518569 -0.697813 -0.494109
16.0899 11.232 13.4188 -0.434667 -0.0806027 -0.896977
19.0583 14.6926 11.8073 0.720766 0.366403 -0.588426
17.9986 11.0053 18.4111 -0.0599819 -0.96293 0.262999
12.741 19.25 19.4425 -0.714898 -0.617484 0.328077
22.0745 14.8672 15.6754 -0.306986 0.172861 0.935884
11.4687 22.9089 9.48262 0.144268 0.788888 -0.597362
22.8645 10.6324 17.8269 -0.61727 -0.353253 0.702986
19.1791 14.0502 8.05102 -0.522303 -0.742073 -0.420152
19.7559 21.5774 6.41512 0.063808 -0.914398 -0.399757
20.3079 18.4372 16.9678 0.671766 0.558051 -0.487145
17.7165 19.9537 8.66147 0.120254 -0.986554 0.11068
18.3823 13.2829 10.6369 0.101331 0.186153 -0.977281
15.309 19.1907 9.5903 0.934996 -0.0676279 -0.348151
20.1046 22.7224 7.95655 0.124773 -0.707009 -0.696111
21.9657 17.5079 18.8741 -0.914237 -0.199741 -0.352525
12.2985 18.8764 13.4339 0.455774 -0.0916277 -0.885367
14.7971 18.7704 10.9003 -0.965695 0.00401642 0.259647
17.6477 12.5358 10.2402 -0.503725 0.799422 0.327392
22.6965 16.4512 19.1031 -0.886885 0.264087 0.379068
13.433 22.2034 8.64474 -0.882128 -0.318173 -0.347298
12.7045 10.5975 10.1368 -0.630291 -0.161803 -0.759311
15.8036 15.0397 8.90239 0.915867 -0.394209 -0.0760752
11.9355 10.6996 18.7888 0.74963 -0.629442 -0.204591
15.0154 16.8951 11.9526 -0.40908 0.158353 0.898653
13.5776 23.1279 11.5787 -0.616741 0.776716 -0.127838
16.2671 10.8406 7.44467 -0.946271 -0.247607 0.207994
15.7177 10.4638 14.2395 -0.00427895 -0.789522 -0.613707
22.4089 22.482 10.9769 -0.750951 0.624969 -0.213275
16.301 19.5234 13.35 -0.237473 0.908309 -0.344356
16.7576 20.3172 18.9008 -0.0741273 0.822254 -0.564272
14.3689 10.3609 6.95249 0.963355 -0.0159247 -0.267757
20.5153 10.6018 12.2782 0.723114 0.53881 -0.432192
16.2525 15.3527 7.28485 -0.613391 -0.411241 0.674264
17.9426 13.7544 8.91679 -0.536844 -0.676167 0.504576
19.2097 21.8122 10.7887 0.125724 -0.769371 -0.626308
15.661 12.1208 7.30904 0.897693 -0.36832 -0.241843
19.8481 13.6869 18.8133 0.32294 0.0479143 -0.945206
18.4113 20.5416 8.02056 -0.036662 0.994459 0.0985236
18.3912 22.6104 16.1535 -0.297489 -0.876551 -0.378363
16.8202 10.4896 18.2336 0.520225 0.75057 -0.407444
11.4178 10.1903 6.04013 0.374932 0.925578 0.0522669
13.3622 15.9208 7.50621 -0.315924 -0.688762 0.652533
10.1624 11.0341 18.7128 0.14709 0.983255 0.107585
19.3378 21.2942 19.0894 -0.373972 -0.888028 0.267491
10.4776 11.7486 17.7641 -0.144707 0.883075 0.446361
19.0757 12.0251 8.17066 -0.346053 -0.937347 -0.0403565
12.809 21.9997 7.20459 -0.080188 -0.788742 -0.609472
20.6964 11.9095 8.75694 -0.522436 0.841181 -0.139552
20.3498 14.1366 15.3615 -0.178906 -0.00408318 0.983858
18.0429 21.0005 9.35878 -0.820947 -0.361885 0.441684
23.4424 18.2199 16.2002 0.778605 0.557829 0.287405
12.5573 12.4196 12.724 0.29151 -0.801603 0.521973
18.7718 16.5039 6.58281 -0.30177 -0.761047 0.574231
13.0212 11.612 10.0142 -0.985087 -0.149042 0.0859646
12.3541 11.6701 18.766 -0.583167 0.494274 0.644678
21.8966 10.6997 19.3465 -0.227163 0.395055 -0.890128
18.6322 15.7734 16.6369 -0.773936 0.179364 0.607331
22.9258 14.4152 6.35715 0.728141 0.197966 0.656216
15.7544 21.4464 6.64553 0.546437 0.152397 0.823518
15.116 23.1135 6.64498 -0.925487 0.0612107 0.373802
16.5249 10.2497 13.2899 -0.0876586 0.36697 -0.926093
12.2927 12.4372 6.72639 -0.803998 -0.558125 -0.205142
20.4873 20.398 17.7064 0.790347 0.324147 -0.519885
16.0564 13.9715 8.46577 -0.413636 -0.239122 0.878479
17.813 16.9838 6.40514 0.253986 0.892426 -0.372917
19.1589 15.4433 7.95018 -0.318621 -0.316601 0.893445
17.0416 21.1713 13.6206 0.749398 -0.0225174 0.661737
14.9476 11.3107 8.78712 -0.374455 -0.0858085 0.923266
17.2789 14.7155 7.98956 -0.610164 0.768529 0.192518
16.0245 17.5673 16.2532 0.846987 -0.529745 0.0445255
18.7977 19.6068 8.95756 -0.0770091 -0.855357 -0.512284
10.299 23.0122 16.0394 0.609135 -0.68919 0.392392
9.98929 10.3668 6.88328 -0.584865 -0.266398 0.766136
11.3222 16.7697 10.1646 -0.46564 -0.72399 -0.508937
18.5252 18.9645 6.06018 0.495164 -0.858641 0.132474
11.2957 16.082 7.49255 0.311167 0.629191 0.712246
14.6084 12.3449 9.242 -0.890408 0.267299 -0.36841
22.9529 17.5229 6.74764 -0.344854 0.603601 -0.718847
13.7691 11.9261 14.7448 0.0916188 0.983419 -0.1565
22.2354 17.1643 12.2352 0.749662 0.538737 0.384409
16.9668 22.2094 10.5288 0.142802 -0.840854 0.522085
20.982 22.7769 8.46518 0.139491 -0.175719 -0.974508
21.7082 14.8185 10.8567 0.973134 -0.229982 -0.0108727
21.0155 19.3658 10.1155 0.233783 -0.469048 0.851669
18.6926 13.3653 18.7548 0.000445056 -0.617975 -0.786198
17.0026 19.5361 18.113 0.239329 0.800946 -0.548823
13.8535 19.3961 7.11158 0.902563 0.0778257 -0.423465
21.1388 23.3349 15.5269 0.784963 0.617787 0.0465955
13.0411 18.6736 9.51231 -0.888502 0.0497501 -0.456168
15.7354 12.2723 8.39898 0.991945 -0.122274 0.0330825
20.2359 16.1894 17.0042 -0.561099 0.108094 -0.820661
23.1388 12.9875 16.6588 -0.287747 -0.446228 0.847397
17.1884 11.3621 11.5999 -0.217557 0.975879 0.0181506
21.3693 17.2458 15.1657 -0.924518 -0.371673 0.084412
22.2045 22.8546 15.4004 0.454256 0.72173 0.522261
11.2845 11.5691 14.5721 0.537151 -0.630817 0.559945
14.8094 13.3024 7.13843 -0.971396 0.163255 0.172445
20.0926 12.3154 12.0046 0.205894 0.973576 0.0987759
19.4069 14.2876 15.1468 0.13501 -0.395259 -0.908594
18.2831 14.1456 14.7516 -0.506649 0.638959 -0.578824
11.1201 22.8161 10.9527 0.772799 -0.545103 -0.325031
15.8468 16.0263 18.7374 -0.88853 0.433181 0.151223
14.9738 22.6651 19.4911 -0.802232 0.538788 -0.257158
11.8599 12.1079 10.7662 0.832638 0.392352 -0.390862
13.7034 17.4933 18.9739 0.830303 -0.309481 -0.463486
13.5762 16.8337 9.45131 0.0105836 -0.396898 -0.917801
23.1872 23.2656 17.7739 0.158076 -0.189056 -0.969159
22.7583 15.3328 19.0091 -0.61044 0.277487 -0.741865
11.9985 22.34 16.617 0.444098 -0.624223 -0.642747
14.377 11.1298 7.64313 0.087643 0.591191 -0.801756
10.4624 23.4093 17.4788 -0.269255 0.914043 0.303361
12.3478 22.2035 15.0303 -0.39854 -0.874247 0.277233
18.2875 17.3134 17.2997 0.764948 0.568915 -0.301979
14.8404 14.2133 9.74396 -0.286622 -0.0443218 0.957018
21.7187 13.7827 6.44028 -0.59251 0.0624675 -0.803138
18.2761 15.6276 9.65647 -0.736874 0.521188 -0.430557
12.144 17.8402 8.38991 -0.871441 -0.414437 -0.262359
18.3529 18.3631 13.5759 0.316197 -0.653054 0.688143
14.3689 15.4278 18.3652 0.951874 -0.107698 0.286944
16.1571 14.1935 17.1595 -0.38456 -0.841849 0.378688
17.3542 15.2944 12.7498 -0.955278 0.00569945 0.295655
19.3405 9.8287 6.47158 0.27788 0.958359 0.0658128
14.406 15.666 17.2658 0.140376 -0.824051 -0.548849
14.8705 18.8669 16.8455 0.500443 -0.834866 0.22925
21.713 21.0105 18.3015 0.365294 -0.375825 -0.851655
21.4225 13.9074 16.0258 -0.636343 0.0290408 0.77086
22.5005 20.829 19.0331 -0.0968671 -0.656995 -0.747646
21.4414 21.596 12.893 0.866913 -0.455103 -0.20333
19.5302 9.81973 10.433 0.395862 -0.809441 0.433705
21.8525 17.8682 11.581 0.911461 0.268793 0.31143
21.0096 17.5141 12.5514 0.294742 0.588098 0.753172
10.0406 18.3031 6.17307 -0.0719151 0.522263 -0.849747
21.4216 10.466 10.3358 0.291961 0.128566 -0.94775
12.8047 20.0225 6.71039 0.83476 -0.213208 -0.507659
10.1329 13.7443 13.0412 0.341131 -0.933943 0.106678
14.9128 18.5955 19.3395 -0.558624 -0.399345 -0.726954
10.5354 11.3213 7.44089 -0.731783 0.103319 -0.673661
16.8492 20.8685 7.00984 0.628589 0.484085 -0.608718
20.6942 10.2142 16.5433 0.409872 0.886594 0.214376
11.4758 12.2316 7.6105 -0.775836 -0.107831 -0.621651
15.5342 16.0602 8.30287 -0.641725 -0.45577 -0.616816
15.2761 9.99638 19.6273 0.973512 -0.11451 -0.197895
22.7047 12.1507 6.50479 -0.255338 0.347965 -0.902066
14.9645 18.5854 7.01698 0.934928 0.177941 0.306997
14.4321 20.7644 12.4603 -0.43964 0.542247 -0.71602
15.2561 18.1982 9.17213 0.994341 0.0195448 -0.104422
18.0773 22.2533 10.5013 0.468695 -0.724511 -0.50538
21.5178 21.6713 10.7105 -0.196449 -0.500288 -0.843279
22.5333 21.7759 10.1757 0.800703 -0.465261 0.377368
14.8997 14.041 7.79304 0.861461 0.206479 -0.463951
14.1165 20.8944 19.0061 -0.13388 0.64851 -0.74934
10.1746 16.0029 7.19388 -0.0155541 -0.853651 0.520614
22.7899 15.6879 7.6219 0.1795 -0.969382 -0.167569
20.2684 12.4281 7.34638 -0.33931 -0.531123 0.776387
10.6651 12.9208 11.8631 -0.0669589 0.624605 -0.778065
17.398 10.2747 10.2472 0.566465 -0.199747 0.799512
20.577 14.701 9.2003 0.59583 0.698401 0.396512
13.4959 21.3495 12.9072 0.142559 -0.989357 -0.0291413
20.7442 18.3858 19.4125 -0.869941 -0.0093289 0.493067
19.0332 12.4526 11.7993 0.39548 -0.159384 -0.90454
13.4546 17.6003 17.9492 0.113855 -0.993311 0.0192685
11.8802 16.9606 11.6317 -0.717117 0.683492 -0.136317
20.3514 11.288 9.61624 0.854856 0.0681254 0.514373
11.2118 20.5959 13.749 0.638286 -0.0221577 -0.76948
16.7949 21.0471 12.193 -0.119084 0.775442 -0.620088
22.5773 22.7368 14.4144 0.83806 -0.327528 0.436327
12.012 20.9168 18.3831 0.345085 0.346602 0.872229
12.5103 16.514 7.9379 0.266324 0.525356 0.808129
10.9286 19.0807 18.1593 -0.944162 -0.329168 0.0143853
14.7282 19.2854 8.60337 -0.555112 -0.808796 -0.194164
14.1992 23.3581 8.00921 -0.845381 -0.310898 0.434366
19.8344 16.9851 17.4198 -0.890755 -0.284567 -0.354369
22.3794 21.5641 8.14395 0.306163 -0.728608 0.612694
15.8381 13.1349 15.8273 -0.444217 -0.0917068 -0.891213
20.9049 17.5831 7.16273 -0.361266 0.548933 0.753763
18.7408 15.8623 11.826 0.20823 -0.438245 -0.874403
18.6637 16.2197 8.45941 -0.348335 0.274118 -0.896394
14.7144 10.2396 13.7843 -0.346597 -0.86834 0.354763
20.1817 16.5336 18.4771 0.902484 0.0760779 0.423952
22.1855 19.783 14.1598 0.591121 -0.78962 -0.164548
13.7632 18.8865 5.99158 0.832835 0.531364 -0.155041
17.5543 22.871 9.57134 0.0377613 0.954327 -0.296369
10.3156 21.6907 7.16498 0.389527 -0.840848 0.375824
20.3458 18.5885 9.83447 0.0617089 -0.214366 -0.974802
22.753 16.6085 10.3087 -0.749204 -0.640891 -0.16719
12.0147 23.3798 10.2397 -0.517976 0.854417 0.0408927
12.0429 13.7042 17.805 0.629998 -0.0598105 0.77429
16.1019 23.07 7.83556 0.0839847 -0.598622 0.796617
10.9952 19.5709 8.21851 -0.274913 0.386332 -0.880438
21.6155 10.4185 12.5629 0.642182 0.703528 0.304385
13.1054 20.657 19.3199 -0.306027 -0.270496 -0.912787
15.6254 22.3007 10.1544 -0.59991 -0.167164 -0.782409
20.4389 11.1857 7.14697 -0.461657 -0.821775 0.334002
10.4762 17.7797 9.68976 -0.492464 0.407795 0.768884
13.4935 23.2234 17.8979 -0.0881304 0.992149 0.0887316
12.7265 10.4489 6.56171 0.857886 0.322082 -0.400368
23.6252 21.7745 6.19396 0.686599 0.450063 -0.570986
22.0686 16.5906 6.67296 -0.00350695 0.833857 -0.55197
14.8924 21.5568 17.488 -0.337172 -0.902669 -0.267403
16.2509 21.5021 9.55393 -0.649108 0.406961 -0.642683
18.5305 13.9633 6.94431 -0.0982294 0.671453 0.734508
15.7842 16.6498 7.2154 0.115948 0.407686 0.905731
18.6606 18.3882 9.29453 -0.675738 0.528622 0.513748
14.69 14.4741 18.9396 0.939398 -0.277026 0.201958
21.3609 18.0877 17.0779 0.590868 0.775748 0.221564
15.6417 20.4693 12.1652 -0.259523 -0.816085 0.516384
18.7508 13.486 17.4649 -0.587562 -0.596285 -0.547005
21.956 17.6992 9.17953 0.977597 0.158368 -0.138647
18.3549 10.8756 19.4994 0.736869 -0.675696 -0.021421
23.0412 14.2412 9.00398 0.184582 -0.161252 -0.969498
20.2261 17.2593 19.3481 -0.935211 -0.284112 -0.21133
12.0048 13.0769 8.74824 0.967825 0.249705 0.0310189
20.9713 14.079 9.91657 -0.943941 -0.316111 -0.0951337
18.2278 10.749 7.38573 0.897463 0.35526 -0.261441
10.4004 20.0446 11.1355 -0.601183 0.5468 -0.582742
22.5044 10.7978 16.419 -0.391204 0.11941 0.912524
23.016 11.1887 18.6222 -0.242491 -0.646285 0.723542
22.3798 22.9812 9.85537 -0.905531 0.416689 0.0798955
12.057 17.7386 16.4744 0.794745 0.605657 -0.0394843
23.2676 12.3497 13.0202 -0.362559 -0.549644 0.752624
16.4172 20.2148 9.3304 0.729216 -0.681717 0.059215
18.3658 11.8072 16.6883 0.498283 -0.420669 -0.758124
23.6356 16.9281 9.38334 -0.49592 0.792062 0.355951
14.1051 21.4313 8.69166 0.585935 0.0231704 0.810027
14.83 21.8266 14.1778 0.86284 -0.342793 0.371483
14.8051 11.9934 11.7283 -0.483659 0.691294 0.536829
17.8643 19.682 11.0316 0.440251 -0.895584 0.0640891
19.6569 17.7613 15.1138 0.981 0.146048 -0.127706
21.5436 23.4595 7.04934 0.308145 -0.44068 0.843118
17.0457 22.1065 8.73163 0.00228126 0.949375 -0.314138
21.8876 20.0812 11.8554 -0.792126 -0.475075 -0.383198
16.1721 11.9601 10.639 0.593998 0.708275 0.381462
9.91693 11.6281 14.5609 -0.0823686 -0.794073 0.602215
19.7833 11.6001 17.9436 -0.754481 0.519032 0.401701
15.4073 12.1834 19.1002 0.200367 0.165577 -0.965628
20.4265 17.0023 14.2956 0.963212 -0.26874 0.00120707
19.6083 18.6092 18.6603 0.129384 0.700508 -0.701817
14.8761 16.4602 15.9378 -0.320416 -0.91413 0.248394
18.0311 17.8525 11.4894 -0.092678 -0.762345 -0.6405
11.8624 20.9715 6.33631 0.0152445 0.967422 0.252711
22.3273 20.8616 9.77118 -0.499288 0.347014 -0.79391
14.1983 20.4004 7.83632 -0.290727 -0.940649 0.17509
12.5002 10.7663 16.276 0.790125 0.557221 0.255357
19.7605 11.0727 15.944 0.691538 0.367769 -0.621709
18.5938 11.8214 19.0898 0.556266 -0.763759 -0.327475
22.3223 13.2819 8.11832 -0.877533 0.454706 -0.152244
13.0644 18.0165 14.7724 0.943482 -0.324174 0.0689429
16.9099 23.4021 15.35 -0.330066 0.88991 -0.314827
13.9303 11.9839 7.92987 0.10643 -0.356559 0.928191
12.2117 23.4833 7.63771 -0.897136 -0.402317 -0.18245
12.1419 12.5104 9.56698 -0.804712 -0.581887 -0.117669
12.8549 13.2304 19.5977 -0.178083 -0.97989 0.090011
13.4385 14.8297 11.8078 0.902926 -0.289061 -0.31807
18.6899 16.8248 13.7574 -0.43032 -0.64126 0.635304
21.7386 10.6226 7.55302 0.407963 -0.327008 0.852427
15.2951 19.8732 10.4965 0.92893 0.230917 -0.289424
14.181 13.8909 19.5027 -0.663661 -0.0262081 -0.747574
22.5412 16.2626 12.6006 0.348576 0.676001 0.649244
20.4004 21.8914 8.4426 -0.809606 0.139825 0.570076
22.804 18.9247 18.7794 -0.104567 0.0951784 -0.989953
17.1984 18.365 10.7364 0.969056 0.0585477 -0.239797
17.0594 11.2422 9.11021 -0.842195 0.164678 -0.513409
18.9887 13.8949 16.3682 0.739484 -0.287574 0.608658
19.6936 11.3286 13.7298 0.292849 0.917951 -0.267592
23.6155 12.8034 6.07869 0.0822615 -0.497949 0.863296
21.9802 10.2362 11.5639 0.473648 0.880259 -0.0283244
18.8157 11.51 12.9756 0.720997 0.662708 -0.202438
12.5926 14.9735 9.23051 -0.524752 0.780313 0.340216
23.0604 21.6698 12.0152 -0.999065 0.0390556 0.0185622
14.7909 11.6999 15.2879 0.232302 0.740629 0.63048
20.3763 23.5762 11.3609 0.471738 -0.876021 -0.100256
9.9715 13.9599 11.8654 -0.891938 0.0286992 -0.451246
12.8646 20.8532 7.54738 0.783518 -0.48369 -0.390056
16.2703 12.4944 19.6824 0.404931 -0.782596 0.472836
11.7683 15.3226 19.0055 0.495327 0.80683 0.321988
13.5011 16.3042 17.111 -0.708123 -0.514416 0.48367
16.0702 19.8789 18.2186 -0.279137 -0.187532 0.941761
16.0499 17.1455 11.8821 -0.123396 -0.0148964 0.992246
16.3262 16.2133 16.1261 0.812504 0.124815 0.569437
20.6307 13.284 13.018 0.507364 -0.58408 -0.633586
13.4466 13.0064 7.99104 0.963228 0.000112774 0.268685
15.5319 19.527 7.81813 0.787355 -0.422821 0.448658
14.3044 13.6709 12.1607 0.207954 -0.0943472 -0.973578
14.6899 13.8446 15.5356 -0.151414 -0.920907 -0.359172
18.6215 22.4752 8.63351 0.62859 0.570902 -0.528153
22.3977 22.7624 18.77 -0.827655 0.0631415 -0.557674
16.9832 16.5289 14.9632 0.160178 -0.612835 0.773806
18.3324 12.0737 10.9878 -0.733105 0.603558 0.313489
21.683 16.7477 8.00874 0.61147 0.184401 0.76948
12.6175 15.8029 10.6484 0.400501 0.16808 -0.900749
16.1673 18.1531 6.62562 0.644449 0.152432 0.7493
14.3584 13.3921 9.1371 0.950104 -0.22475 -0.216312
12.3132 18.6207 11.7267 0.106363 -0.799917 0.59061
16.9137 15.4714 11.8215 -0.716588 0.696941 0.0278556
14.9866 14.9834 14.8662 -0.569716 -0.370737 -0.73347
15.3526 20.4453 19.4522 -0.479088 -0.247377 0.842187
13.8605 18.9585 15.0062 -0.0680013 0.399751 0.914098
19.8355 12.9623 10.3328 -0.933104 -0.269581 -0.237996
16.9405 14.9546 9.65882 -0.247568 -0.63838 0.728822
15.7796 15.9439 9.89094 -0.525031 0.214256 0.823672
10.6319 13.7206 19.0095 0.537841 -0.0330423 0.842398
10.4043 14.9697 12.1695 0.466034 -0.346897 0.813926
10.1858 23.5725 12.4377 0.427792 0.78307 0.451437
19.5245 17.8301 10.0087 -0.534979 0.180778 0.825298
19.1396 20.0905 10.5935 0.398145 0.576153 0.713813
13.54 20.1351 11.3865 -0.386927 -0.877347 0.283812
17.0214 18.4229 16.587 -0.795426 -0.358167 0.48889
21.0163 16.4868 13.4332 -0.680175 -0.668563 0.300641
19.8329 15.2274 16.9888 -0.157219 0.249552 0.955514
10.0369 19.1272 8.57496 0.0564431 0.399528 0.914982
17.4869 19.2021 6.51593 0.512095 -0.851396 0.113505
22.1318 13.2485 18.2682 0.261557 0.00971357 -0.965139
18.2719 11.606 12.0081 -0.802726 0.431347 0.41179
10.8643 10.1616 8.09241 -0.207293 -0.180843 0.961418
15.5513 15.2876 12.3482 0.313056 -0.633285 0.707776
19.9734 23.1323 14.0953 0.00543292 -0.787182 0.616696
17.4588 13.0748 12.4955 0.936684 0.273176 0.219084
12.7138 15.1008 7.02871 0.991017 0.0325835 -0.129708
10.3892 16.6647 8.18211 0.212938 -0.97704 0.00715083
20.0068 18.0035 12.2912 -0.148944 0.564117 0.81215
13.933 16.0172 10.2336 -0.389564 0.66339 0.638869
19.3659 13.3724 9.18215 -0.472885 0.875184 -0.102147
19.7694 15.357 9.32541 0.193414 0.922362 -0.334425
10.4383 17.7127 14.3871 -0.840583 -0.393946 -0.371788
23.232 14.8275 18.1827 -0.1185 -0.989744 0.0797838
19.1306 14.014 10.5241 0.607301 -0.521266 0.599556
13.9941 10.4959 10.2318 0.0969228 -0.458385 0.883453
21.3144 9.89553 18.7893 0.210744 0.414574 -0.885277
23.2903 18.6534 9.78698 0.407251 -0.270269 -0.872412
15.6247 16.9976 14.9486 0.808334 -0.0773615 0.58362
11.1864 14.065 7.46841 -0.998304 -0.0421888 0.0401248
13.9482 19.6375 18.4706 -0.850761 0.0985012 -0.516239
22.0819 11.4607 9.39994 -0.840402 0.525994 0.130591
20.8761 12.2377 10.3679 -0.94191 -0.259658 -0.213035
16.4932 19.3666 11.004 -0.594706 -0.468661 0.653209
11.2336 15.9813 11.3213 0.565338 0.116505 -0.81659
13.5162 20.3299 15.4949 -0.666207 -0.378423 -0.642623
13.7073 21.9171 6.06739 -0.00174076 -0.225425 0.974259
14.1893 16.4468 19.6999 0.885401 -0.453648 -0.101339
16.4336 19.0889 17.3148 0.835686 0.359724 -0.415004
12.7369 22.1359 18.3662 0.257441 -0.49064 0.832464
19.9725 22.6478 9.74282 0.165954 0.982675 -0.0825203
17.6899 18.0432 8.33015 0.907022 -0.377397 -0.186769
17.2355 21.7925 7.5882 0.332772 -0.922598 0.195132
13.4575 13.7057 11.3765 0.450974 -0.0559332 -0.890783
10.6794 15.2127 18.4651 -0.343557 -0.790577 -0.506909
20.0705 10.1503 18.8312 -0.542629 0.677545 0.496475
22.4804 20.9186 11.3092 -0.993467 0.0134157 -0.113329
18.528 19.8439 13.3533 0.0789327 0.737115 -0.671142
21.9193 19.5272 7.95005 -0.597822 -0.153613 0.786773
14.8922 13.0444 19.523 -0.190165 -0.515973 0.83523
20.7476 15.2593 19.1711 0.471831 -0.418865 0.77584
14.3575 23.3526 12.6744 0.934065 0.285962 0.21389
20.7363 14.9963 11.7711 -0.692883 -0.720778 0.0198055
23.0583 17.7943 17.6956 0.0625054 0.324447 0.943836
15.4179 17.6545 7.2285 -0.65903 -0.371048 -0.654219
16.5204 13.5617 9.72846 0.358809 0.337142 -0.870397
14.8386 18.0768 7.87187 0.569073 0.629 0.529636
12.6281 19.2742 10.3333 -0.865553 -0.048211 -0.498491
22.1662 12.1113 11.3505 -0.858036 -0.189907 0.47719
13.521 17.5052 12.6671 -0.855909 -0.138352 0.498275
10.2072 14.6624 10.7249 -0.590722 0.325838 -0.738158
21.9636 23.0073 6.08909 0.417315 0.676873 -0.606376
15.2329 21.3457 8.28948 0.453397 0.712719 -0.535221
21.3049 22.3372 19.1115 -0.915286 0.304648 -0.263519
14.9921 20.2748 18.0533 -0.0302605 -0.959905 -0.278686
14.1048 22.3178 7.71961 0.5827 -0.242822 0.775563
19.0632 19.8368 17.0563 0.106895 0.222584 -0.969035
18.2686 23.1326 7.54839 0.970057 -0.162496 -0.180509
12.8983 22.4974 11.0075 0.866104 -0.107919 -0.488076
15.1359 11.021 19.6683 0.849888 -0.1549 -0.503682
20.9386 16.6382 8.62956 -0.185123 0.974923 -0.123508
21.255 19.0807 14.068 0.677123 -0.0896426 -0.730389
9.92453 23.012 7.50218 0.835055 0.3743 -0.403215
18.7609 20.5676 11.663 -0.0846942 -0.996328 -0.0125814
20.1407 20.3281 6.88694 -0.715947 0.432467 0.548081
21.734 14.8566 12.2467 -0.0236425 0.685828 0.72738
14.3546 17.7599 15.6768 0.58475 0.728092 -0.357701
21.154 15.0398 7.0651 0.101687 0.941287 -0.321929
18.1041 21.7819 7.04398 -0.326281 0.935641 -0.134602
10.9451 16.6983 18.0066 0.579346 0.802486 0.142738
15.833 18.0324 18.1414 -0.96616 -0.227802 0.120998
13.9489 11.6526 11.3994 -0.451989 0.382156 0.806017
14.3652 12.9897 10.0294 -0.900598 -0.387153 -0.197576
12.0599 19.6945 12.9518 0.384178 0.28214 0.879093
12.5765 23.3495 16.2412 -0.206723 0.170045 -0.963509
19.4569 20.0788 8.0586 0.205063 -0.61127 -0.764394
20.4557 14.2214 10.9139 0.720901 -0.463771 0.514993
16.1468 15.3803 10.7364 -0.729501 -0.321494 0.603713
10.7878 21.8676 11.2021 -0.828468 0.530067 0.180751
12.4704 11.5189 8.99436 -0.69815 -0.686363 -0.203696
15.1621 19.3568 11.675 0.450397 0.824166 -0.343357
20.3865 15.5573 8.15822 -0.691944 0.720587 0.0443514
11.8967 17.1329 15.1215 -0.109853 0.876387 0.468912
23.5273 23.2773 10.5526 0.00154588 0.994859 -0.101259
15.522 21.055 10.2353 -0.591604 -0.559898 -0.580103
16.6561 16.553 10.1599 0.540581 0.234876 -0.80784
21.4401 16.6975 9.94076 -0.759613 -0.645771 -0.0772568
19.2274 10.2524 8.33573 -0.295848 -0.163411 -0.941154
15.3038 22.8269 8.60304 -0.316832 -0.152806 -0.936092
13.1537 19.346 13.7169 -0.177126 -0.114427 0.977514
21.0281 19.4443 17.5359 -0.911224 -0.0576725 -0.407853
15.9482 19.5648 16.5551 0.828186 -0.36972 -0.421207
22.2804 15.2096 9.7919 0.624987 0.280644 0.728443
15.2672 17.8223 12.5729 -0.167427 -0.275342 0.946655
11.9108 16.307 18.0453 0.21971 -0.273826 -0.936347
11.2113 16.5269 6.1772 -0.638307 0.748767 -0.178639
17.9621 14.6713 5.97923 0.439977 0.288653 0.850353
17.7874 17.9076 12.6749 -0.626657 0.764286 0.152207
14.493 12.415 10.8432 -0.500481 0.553972 0.665308
10.8572 16.8497 14.6325 0.238417 -0.0654279 0.968956
21.6045 14.5758 14.2416 -0.357065 -0.701548 0.616713
15.3037 12.8968 11.312 -0.263391 0.284922 0.921653
21.418 22.677 12.5069 0.520555 0.54411 0.658003
11.5843 13.8931 11.1703 -0.0673761 -0.348785 0.934778
22.5662 21.2648 13.6397 -0.688531 -0.0269269 0.724707
19.6851 16.3488 13.1745 -0.345146 -0.362865 0.865565
23.1439 10.028 8.90679 -0.622322 0.0796898 0.778694
19.1903 15.0164 14.0481 0.760367 -0.412068 -0.502038
16.8325 15.7383 17.3309 -0.683637 0.521119 0.510956
12.7215 14.2634 13.5529 0.702791 0.0168581 -0.711196
15.8247 14.4497 6.25849 -0.210335 -0.977351 -0.0233388
13.3659 13.1389 12.8689 -0.110107 0.329155 0.937834
23.1983 10.5125 11.3039 0.070786 0.97873 -0.192556
14.9636 22.7175 10.7805 -0.6579 -0.728557 0.190716
18.1737 9.89057 13.4761 -0.928039 -0.308098 0.209331
20.3442 10.3466 10.4303 0.538912 -0.842251 0.0136404
17.1084 16.5995 11.1504 0.00869591 0.987888 0.154924
22.9046 13.45 13.002 0.399138 -0.426693 0.811555
15.7885 20.1847 6.90904 0.576362 -0.69698 -0.426644
22.2652 15.4442 8.45218 -0.706223 0.305244 -0.638808
17.4224 11.233 13.7695 0.298165 0.770743 -0.563074
20.4834 21.9693 10.5905 -0.526698 -0.460917 0.714244
17.8293 20.2812 13.9732 -0.25394 0.213882 -0.943276
18.7171 16.0672 18.63 -0.783386 0.538509 -0.310346
13.7702 17.6731 6.27162 0.904525 0.075203 -0.419736
14.2165 14.6383 8.74613 0.651509 0.254213 -0.714781
23.5328 21.7691 9.24322 0.992943 0.0519602 0.106605
20.0933 14.9884 6.879 0.125032 -0.337568 0.93296
22.917 9.87139 14.7719 0.997629 -0.0446522 0.0523743
18.6784 14.3788 13.1941 0.887458 -0.390426 -0.244921
23.367 15.9832 8.45475 0.200035 -0.978599 -0.0482756
13.2343 21.3907 9.29519 -0.587215 -0.472336 -0.657325
18.3582 15.5718 19.4761 -0.804924 -0.011314 -0.59327
13.6174 19.417 8.87226 0.737511 0.4509 0.502758
15.9364 10.5317 17.6192 -0.348346 -0.00758597 0.937335
21.1964 11.9981 12.9661 0.511905 -0.537064 -0.670459
11.7826 14.2413 8.51026 0.680597 0.492047 -0.542842
12.4839 23.0056 13.0328 -0.450814 0.0166396 -0.892463
11.5647 20.3743 8.61158 -0.137798 0.39533 -0.908144
19.9947 21.9486 16.0141 -0.924078 -0.15779 -0.348113
17.0186 18.7642 11.8302 -0.755543 -0.649463 -0.0857468
12.8176 17.9743 10.2359 -0.201262 -0.386344 -0.900129
16.3362 16.2718 12.783 -0.995508 -0.00288435 -0.0946337
19.115 19.1274 12.7473 0.255421 0.951812 -0.169748
16.2343 17.1587 17.4351 0.902723 0.0321276 -0.429021
14.4464 10.5561 12.0303 -0.934838 0.133286 -0.32911
23.2187 19.7204 12.3427 0.0203365 0.394504 -0.918669
10.4761 17.8869 12.1788 0.381813 -0.385668 0.839928
11.0869 10.6867 13.96 0.692607 0.145879 -0.70641
15.5164 13.3692 13.6557 0.396926 -0.360565 0.844063
10.4178 21.537 10.1869 0.0897893 0.982414 0.16371
20.6287 11.7797 14.3093 0.640121 -0.433941 -0.633988
12.9846 20.0627 9.26007 -0.786398 -0.566248 -0.246865
20.6255 13.0262 15.6772 -0.259189 0.192453 0.946458
22.6389 19.6594 16.8125 -0.921097 0.271031 0.279504
23.3924 19.1193 11.3491 -0.347536 -0.340334 0.873723
13.6338 16.5091 14.8293 0.819515 0.512346 0.256704
10.5515 11.1229 9.9513 0.531484 0.811432 0.243113
15.9587 18.7801 19.1109 0.686718 -0.131967 0.714845
13.8663 12.8051 19.2502 0.064681 -0.442451 -0.894457
14.4934 17.1229 9.72428 0.15987 -0.353433 0.921698
11.4017 12.6844 13.0766 -0.245698 0.964669 0.0951135
22.6562 16.5536 14.6346 0.384007 0.918515 0.0941701
13.6356 16.6941 11.7768 -0.862895 0.370093 0.344155
16.9607 17.7492 15.1619 0.524482 -0.535213 0.662167
18.0421 11.7049 15.5327 0.486662 -0.691603 -0.533708
11.2866 18.9395 13.079 -0.301497 0.714584 0.631244
20.9122 14.4263 12.6245 -0.481386 0.767016 0.42421
17.4652 10.94 15.1059 0.241983 -0.851183 0.465759
20.4556 15.9815 11.0846 -0.744802 0.248861 0.619143
11.845 13.3531 10.1375 -0.383888 -0.493789 0.780258
20.7545 13.0968 18.9545 -0.494895 0.0937287 0.863883
13.082 12.576 13.984 -0.566119 0.349476 0.746576
10.0673 12.0894 15.8698 0.160127 0.986486 -0.0347114
19.0867 19.6363 14.6227 -0.32316 0.430678 0.842665
17.4477 16.7236 12.0779 -0.38568 0.912078 0.139159
21.7703 13.8692 9.11523 0.739506 -0.386934 0.550829
16.6563 12.4026 9.34184 0.909609 -0.391933 -0.137842
16.5286 11.6752 15.5409 0.182418 -0.938795 0.292212
19.5261 12.0079 16.6076 0.549482 0.21018 -0.808637
17.6762 23.125 12.7013 0.553126 -0.732943 0.396037
17.6514 13.6445 19.6979 0.166195 -0.315464 -0.934271
19.28 20.9649 18.0016 0.807107 0.45697 0.37384
10.1659 16.9832 16.372 0.0842561 -0.374929 -0.923217
14.8114 15.3247 10.7525 -0.598096 0.259559 0.758228
17.3746 21.904 16.4946 -0.312145 -0.813894 -0.490043
14.1304 15.2565 15.3967 0.470334 0.854102 -0.222026
10.558 15.5878 10.3853 0.836719 -0.438327 -0.328284
12.1216 15.6092 15.2608 -0.326179 0.764786 0.555616
10.4361 20.7331 17.6572 -0.532371 -0.380949 -0.755949
21.9671 12.0286 18.4738 0.44963 -0.548503 -0.704966
13.2456 15.3866 13.1237 0.282937 0.281863 -0.916788
20.7853 18.7365 18.2921 0.434091 -0.839886 -0.325818
20.8317 11.9999 17.2763 0.669704 -0.653802 0.352193
14.294 13.5146 16.5721 -0.0953924 -0.744333 -0.66096
19.2859 15.1952 12.9122 -0.642936 0.657724 0.392469
17.9734 18.2096 14.8567 -0.245454 -0.956731 -0.156262
19.675 15.7582 10.399 -0.741282 0.644628 0.186965
18.2246 15.3541 17.9509 0.799032 0.471094 -0.373654
18.692 18.2907 17.8368 0.743159 0.549774 -0.381398
10.0552 18.8075 13.9948 0.581702 -0.58323 -0.566979
12.5734 21.877 12.6412 -0.241789 -0.721899 0.648382
21.4861 17.193 16.2687 0.801969 0.51592 0.301118
17.2126 20.8839 14.9718 0.806868 -0.250402 0.535035
20.7399 19.7869 8.03648 0.416888 0.42747 -0.802169
17.0679 13.6743 11.5658 -0.935962 -0.168016 -0.309429
22.8109 16.4858 11.4688 0.528909 -0.702811 0.475724
15.5968 18.8734 14.4729 0.151688 -0.756892 0.635693
18.5107 20.9881 13.6513 0.574098 -0.293663 0.764312
13.0232 21.1986 10.345 -0.519414 -0.461862 -0.718953
9.94317 17.0507 12.7636 0.131174 -0.753486 -0.644246
21.3806 12.9086 11.2658 0.918615 0.391421 0.0541771
11.3318 11.9836 18.4502 -0.471488 0.70582 0.528694
17.0427 18.5864 9.69978 0.745689 -0.480363 -0.461736
10.6684 14.3081 16.9408 0.518029 0.200529 0.831525
13.3509 9.97767 9.55475 0.267155 0.282933 -0.921182
12.8542 18.6765 18.6267 0.960722 0.162033 0.225297
13.674 20.1565 14.3141 -0.55604 0.246058 -0.793899
16.1288 13.2718 18.3274 -0.407342 0.911572 0.0557573
14.4555 19.4711 13.9043 -0.25644 0.27899 -0.92542
21.3491 13.8366 13.6099 -0.590882 -0.47932 0.648931
22.9155 12.8553 11.7321 -0.715164 -0.319879 0.621464
13.3869 14.4383 7.88947 -0.72916 -0.653192 0.204121
21.2502 21.9203 9.07356 0.651589 0.445358 -0.614075
16.0613 21.5641 17.741 0.289765 0.930502 0.224057
15.3169 16.7138 16.8079 -0.498066 0.866403 -0.0357274
17.5455 19.8512 15.9143 0.907401 -0.34506 0.23991
13.1978 15.6709 19.3987 0.477005 0.0745163 0.875736
19.6626 19.1908 11.5742 0.026241 0.936374 0.350021
11.927 12.1957 13.9634 -0.632332 0.75771 0.161345
18.9533 18.9229 7.14344 -0.25771 0.961853 0.0917793
19.6072 20.9996 13.4308 0.231322 0.97247 0.0281351
17.1834 22.3783 12.0997 -0.18527 0.478438 -0.858354
22.3393 18.7437 16.419 0.639432 -0.184229 0.746449
12.7195 14.7663 18.1212 0.203831 0.28645 -0.936162
22.732 23.4628 12.5379 0.618978 0.565034 0.54553
14.8638 15.9436 6.85971 0.526211 -0.847913 0.0643849
11.5333 23.3487 15.278 0.1165 0.789431 -0.602683
11.1021 22.1656 7.73192 -0.48567 0.771496 0.410998
20.5043 20.7922 9.07801 -0.764581 -0.253259 0.592685
11.5365 18.4652 11.0629 -0.504627 0.0866429 0.858979
11.4992 20.505 10.5195 0.821469 -0.398888 -0.407526
11.3953 18.1032 7.0749 -0.91173 0.0369189 0.409127
18.1122 10.3664 14.3345 0.567693 0.766957 -0.299168
22.3341 21.5405 15.5301 0.426833 0.188134 -0.884545
15.0451 10.0874 8.71007 0.772836 0.567857 -0.283306
11.6616 17.1471 7.26234 -0.999087 0.0321544 0.0281457
14.968 9.87406 11.3872 -0.0888989 -0.852935 0.514391
18.6618 17.163 8.86001 -0.947551 0.203335 0.246582
16.4253 17.999 12.8781 -0.414227 0.783382 -0.463388
12.2314 23.0623 8.54475 -0.372025 -0.90204 -0.218908
17.9629 12.6277 14.9453 -0.0654054 0.860647 0.504984
17.2714 14.0788 13.2925 0.222551 -0.260477 0.93948
18.7614 22.8641 10.3628 0.190283 -0.439956 -0.877628
13.559 23.1879 15.1419 -0.383213 -0.776186 0.500682
17.5478 18.9661 19.1812 -0.147143 -0.809885 0.567834
13.3814 18.3746 7.58955 -0.910329 -0.409139 -0.0625059
17.0794 17.5331 19.0234 0.935725 -0.340819 -0.0908921
13.8028 14.2625 6.93531 0.956578 0.290882 0.0186315
18.2904 16.4925 15.4141 -0.478551 -0.474827 0.738599
16.5799 20.5383 8.36973 0.348474 -0.936994 -0.024654
20.9469 19.5386 15.6461 0.645577 0.758622 -0.0878837
12.0718 12.1526 15.0306 -0.780276 0.345517 0.521333
10.6177 17.8274 15.787 -0.591241 -0.432796 -0.680531
10.4972 21.7547 14.7263 0.810962 0.401217 0.42587
9.95089 15.5995 14.7778 -0.800829 -0.328535 -0.500737
23.2334 11.9033 9.97471 0.0977192 0.994721 -0.0313377
11.2513 19.0691 16.0771 -0.866085 0.179427 -0.466587
13.0389 17.3514 15.6153 -0.191085 -0.961212 -0.198891
12.1753 21.767 14.1081 -0.804599 -0.434066 0.405225
21.9922 19.7988 9.45492 -0.070588 0.691132 -0.719273
14.6508 21.3596 6.83765 0.469106 0.858649 0.206549
17.9117 20.2628 6.88175 0.346094 0.403102 -0.847188
10.4049 13.9051 8.53303 -0.359604 -0.924593 0.125752
10.4177 21.5339 16.7421 -0.59778 0.790206 -0.135029
15.9253 10.5122 9.5626 -0.194639 0.896474 -0.398058
18.7287 12.5907 15.8357 0.675197 -0.559632 -0.480541
10.6146 18.8487 10.292 -0.0325036 0.0439259 0.998506
17.8191 10.2357 6.53899 -0.476436 0.873923 -0.0962674
11.4354 18.5489 8.14737 -0.784838 -0.36828 0.498397
18.1703 22.3832 12.0114 -0.263365 0.896998 -0.355011
12.4641 20.323 11.2728 -0.565578 0.0961748 0.819067
20.4085 21.7756 14.1673 0.638926 0.683393 -0.353197
21.923 21.2263 7.1549 -0.195497 -0.646283 0.737631
20.2636 19.5341 13.7806 -0.429772 0.724274 0.539188
16.0224 21.4778 19.1538 -0.503079 0.647861 -0.572003
15.9682 22.1765 13.4137 0.562314 -0.377751 0.7356
10.5379 21.6132 8.3504 -0.931402 0.298504 -0.208291
21.6823 20.1185 10.656 0.759327 -0.417352 0.499239
13.3862 16.5496 18.8183 -0.920386 0.284167 0.268585
21.4017 14.084 17.624 -0.484766 -0.156196 0.860584
23.2815 21.4167 17.5694 0.295515 0.940747 0.166331
20.3154 21.2208 12.2225 0.933961 0.105964 -0.341304
23.3885 11.9142 11.8277 0.845827 0.348114 -0.404218
12.3852 10.1332 13.7973 0.349669 0.68507 -0.63907
13.5926 17.4033 13.881 0.650862 0.435376 -0.621953
14.0077 21.7994 17.0965 0.400046 0.904387 0.148482
15.9004 22.5986 11.7521 0.0470884 -0.875179 0.481502
15.6016 14.2108 10.5842 0.394007 0.111665 -0.912299
20.6521 15.9521 12.372 0.87518 0.424569 0.231952
19.4883 22.0689 12.3376 -0.541525 -0.254077 0.801371
18.6146 9.8777 15.2222 -0.585214 -0.810789 0.0120528
15.3139 21.3791 12.9393 0.410001 -0.254834 0.875762
18.514 14.5579 17.2539 -0.994591 0.0993583 0.0302607
13.2123 10.2357 12.5169 0.890118 0.250937 0.380422
16.7202 13.5392 14.683 0.382506 -0.434806 0.81525
13.0899 12.9202 16.8912 -0.950394 0.296248 -0.0948012
14.6895 20.6383 13.9227 -0.367709 0.688195 -0.625442
16.5594 10.2006 11.0957 0.171573 -0.585005 0.792674
17.2873 22.2823 14.4798 -0.721079 0.514035 -0.464557
18.0392 13.1534 13.9651 -0.69689 -0.714826 0.0580363
11.3943 21.3963 16.0339 0.807188 -0.518563 0.282028
14.8873 20.9802 11.2831 0.415313 0.899912 -0.132939
19.4409 21.9448 17.3813 -0.321185 0.598161 0.734195
16.1084 21.1867 15.6195 0.306421 0.542626 0.782089
12.48 23.0132 6.65889 0.774594 0.292524 0.560744
16.9959 13.5174 16.4119 -0.400529 0.489677 -0.774463
22.7543 12.2012 14.6358 -0.255284 0.626988 -0.736013
10.9551 23.1406 14.3856 0.488014 0.434928 -0.756756
11.9387 15.4261 8.24809 0.756918 0.462416 0.461787
23.5348 20.131 7.26065 0.341841 0.739759 -0.57957
18.4564 17.9148 16.1684 0.912835 0.289284 -0.288178
18.2475 22.6504 19.6807 -0.0783887 0.944427 -0.319239
17.2541 16.3627 19.402 -0.977625 -0.192731 0.0842807
12.0268 21.4752 11.8905 0.43495 0.225207 -0.871837
20.6353 14.7724 17.3992 -0.46148 -0.0220517 0.886876
22.3888 13.79 14.0954 -0.509445 -0.655175 0.557863
18.5233 18.3666 18.9085 -0.0631381 0.922782 -0.380115
10.0209 13.6991 14.1516 0.599132 -0.73595 -0.315306
20.4459 12.0194 18.6342 -0.798909 -0.218547 0.560341
16.3995 23.1937 16.4736 -0.181885 0.795737 -0.577686
16.2092 12.9815 7.68224 0.782454 -0.359068 -0.508759
10.6554 10.3946 10.6935 0.145946 -0.718971 -0.679545
14.7734 18.4097 13.8312 -0.0622887 0.558938 -0.826867
14.7408 12.6995 13.0516 0.70078 -0.297196 -0.648524
14.1488 17.6921 11.2729 -0.964867 0.0569991 0.256483
19.2283 13.4535 12.1417 0.437869 -0.468863 0.767097
11.9596 11.8076 12.1307 0.372076 -0.824209 0.426895
17.1871 15.8785 13.8972 0.914331 -0.354706 -0.195405
10.766 10.8842 15.4394 -0.0430114 -0.998958 -0.0152932
18.7985 21.7686 14.4307 0.798608 -0.0604512 0.598809
23.5965 23.4483 19.6596 0.705684 -0.422937 -0.568449
20.8221 10.4406 13.2664 0.266991 -0.953832 0.137548
10.1205 10.3198 16.5203 -0.949901 -0.262129 0.170224
18.8957 23.5083 9.41935 -0.621133 0.623923 0.474251
11.3712 15.4849 9.06268 0.205431 -0.937792 0.279901
10.4719 11.8397 6.02407 0.651503 0.756356 0.0588988
20.7094 11.4367 11.0919 0.993901 -0.105516 -0.0320623
14.7007 23.4344 9.79277 -0.302272 -0.950652 -0.0699409
10.4309 19.7884 18.8281 0.666016 0.315743 -0.675818
18.7645 12.3363 9.23 -0.175415 0.788775 -0.58912
20.6295 11.0129 18.9363 0.339476 -0.201577 -0.918761
22.6105 12.1793 15.947 -0.446526 0.735301 -0.509851
10.6299 20.7333 15.5936 -0.696932 0.154095 0.700386
13.8535 15.4178 14.2023 -0.612111 -0.148129 0.776774
13.5775 15.0108 10.7504 -0.316987 0.681637 0.659462
14.1792 11.7382 13.8041 0.573977 0.723131 0.384228
19.5104 17.4479 18.3723 0.951326 0.276356 0.136406
10.4534 22.8049 9.18947 0.732377 -0.506633 -0.454914
13.5084 10.0823 13.8304 0.256445 -0.858911 -0.443292
15.812 12.1013 16.4633 -0.239951 -0.575041 -0.782145
22.0753 18.4325 14.7079 0.962715 -0.0398071 -0.267572
20.8216 21.0682 7.20207 -0.418545 -0.368433 0.830107
16.5729 20.0391 11.7601 -0.03434 0.695363 -0.717838
16.8044 15.1568 19.4365 0.77697 0.328498 0.537036
9.93734 11.0709 12.4025 -0.893887 -0.433673 -0.11355
10.6169 13.0388 7.77997 -0.949625 -0.23562 -0.206627
15.7942 17.1119 6.04522 -0.935618 -0.0503804 -0.3494
19.9987 16.6946 6.83586 -0.400231 0.848821 -0.345425
17.165 14.7314 6.64588 -0.572937 -0.541371 -0.615354
19.3465 21.7104 7.68027 -0.499056 0.614561 -0.610949
23.0996 16.1391 15.4671 0.068855 0.99688 0.0385888
10.524 19.3483 12.5283 -0.659557 -0.750474 -0.042109
20.0544 22.9928 12.4853 0.458801 -0.133398 0.878468
12.1672 18.2905 17.4746 -0.189745 -0.974627 -0.118741
21.2122 15.4175 14.8799 0.264449 0.6273 -0.732504
12.4082 17.3946 18.4083 0.254206 -0.570506 -0.780962
16.589 23.4209 17.5776 0.982937 0.183508 -0.0125963
20.4254 20.5313 11.1811 -0.318609 0.357505 -0.877883
17.8492 14.3132 10.7203 0.443252 0.571662 0.690456
13.6067 21.722 16.0547 -0.615222 -0.775282 0.142969
17.448 19.4166 13.6214 -0.058856 0.172293 -0.983286
11.2734 15.1607 14.708 0.414902 -0.762134 0.496999
21.9859 11.8556 13.8002 -0.302522 -0.114319 0.946262
11.5765 22.4094 13.0848 -0.120796 -0.248762 -0.961002
21.4264 15.0388 18.3343 0.16319 -0.439677 0.883206
12.7106 14.1606 16.7711 0.705066 -0.425345 -0.567418
13.2823 10.5848 19.0572 0.607236 -0.664175 -0.436045
14.1693 23.4084 16.0741 -0.42465 -0.573147 0.700838
10.0236 15.1594 15.8473 -0.180388 -0.794736 -0.579529
14.0182 11.9851 16.2157 -0.824666 -0.0935721 -0.557826
11.653 14.8699 16.276 0.7169 0.466163 0.518408
11.1734 16.5485 12.9911 0.272969 -0.332651 0.90268
11.3074 17.9979 19.044 -0.149642 -0.988565 -0.0186285
19.1381 15.7729 15.1439 -0.47326 -0.866489 0.158815
19.8665 19.4922 19.301 -0.958557 0.13013 -0.253444
19.1164 17.7329 12.007 0.179826 -0.974553 0.133827
15.5533 15.6248 17.8343 -0.461156 0.876636 -0.137271
20.757 20.8533 13.3468 -0.446517 -0.492212 -0.747228
20.4656 15.8554 15.4971 -0.154351 0.290721 -0.944276
20.2682 16.238 19.6387 0.994407 0.0288073 0.101615
17.0253 12.9199 19.0358 -0.482532 0.872866 0.0725878
10.3508 21.9531 12.8686 -0.491893 0.86631 0.0868856
10.454 18.2722 17.257 0.646547 -0.752181 -0.127283
18.0481 15.9965 10.9294 -0.229876 -0.759396 -0.608666
10.3089 15.989 19.6292 0.109218 0.712038 -0.693595
16.4777 23.4014 8.97014 -0.134062 -0.834658 0.534203
10.4065 17.7625 18.3951 -0.769545 -0.414119 0.486113
22.9417 18.2983 7.52941 0.392125 -0.423896 0.816425
15.8136 18.1043 13.7599 -0.286736 0.813973 -0.505204
23.4964 20.4139 18.3353 0.5326 0.64985 0.542247
14.2101 20.7247 10.2803 0.448478 0.891221 0.0677636
12.5689 22.3076 9.34169 -0.821371 -0.528374 -0.214875
19.7481 13.1088 15.0941 -0.13284 -0.0229234 0.990872
12.7008 11.6938 7.37491 -0.302094 -0.449157 -0.840831
16.2563 13.415 12.8 0.530114 -0.154719 0.833691
12.018 19.746 15.4304 -0.301746 -0.927475 -0.22077
12.2783 16.6749 13.8658 -0.812241 0.567676 0.134193
20.8634 23.5084 14.4016 -0.303533 0.941876 -0.144006
20.5529 10.4597 15.3211 0.738605 0.314516 0.596274
17.7291 17.5215 10.0991 -0.916403 -0.0141718 0.400007
18.2074 21.3132 17.3664 -0.553686 -0.491322 0.672335
18.3781 21.8362 18.4421 0.0784287 -0.461709 0.883558
11.8736 15.2688 13.1608 0.50257 0.241119 0.830232
15.3439 17.974 10.159 -0.993244 0.0477781 0.10575
23.2483 20.1671 9.69302 -0.532103 -0.559451 0.635516
21.0383 11.9605 15.8441 -0.596833 -0.473967 0.647414
13.0038 21.9235 17.1824 -0.0952792 -0.609395 0.787121
11.5576 10.8797 11.5938 -0.287823 -0.0664028 0.955379
22.9206 20.4469 14.6739 -0.881706 0.291394 0.371058
21.0875 18.9145 7.10572 -0.815997 0.220824 -0.534215
10.9739 15.4172 17.4957 -0.864536 0.0671584 -0.498064
22.6491 20.3825 15.9475 0.876926 -0.0852182 -0.47301
19.4413 23.1348 15.586 -0.558251 -0.778833 -0.285963
11.074 19.7063 14.6743 -0.974091 -0.038341 0.222881
17.9781 20.6387 16.5454 -0.84237 -0.456486 0.286415
16.9194 12.2434 17.0643 0.215645 -0.343365 0.91411
20.9667 21.8232 17.6912 0.817808 -0.393652 -0.419796
19.6002 23.5709 16.8323 -0.26808 -0.935641 -0.229583
11.3679 10.2283 17.3167 -0.233398 0.603872 0.762144
20.3048 20.2532 16.722 0.849709 -0.47462 -0.229634
11.6657 11.4971 16.0989 0.831359 -0.0237563 -0.555227
10.6726 22.1639 13.8454 -0.678425 0.667214 0.307514
11.9144 14.8587 11.2024 -0.949887 0.312233 0.0149846
11.2225 23.2812 12.3915 -0.584201 -0.75117 -0.307332
16.9182 11.2543 19.1193 -0.519396 0.820438 -0.238976
