16.5561 8.48406 14.8333 -0.149467 -0.184897 0.971325
16.2507 10.6785 6.5365 0.734385 -0.603199 -0.311176
21.4757 13.7247 13.2892 -0.127392 0.208713 -0.969644
12.4012 13.877 8.14294 0.461552 0.69478 0.551589
19.1803 14.8818 6.15353 -0.0608857 -0.714764 0.696711
18.7939 16.94 15.5748 -0.146678 0.745399 0.650281
20.2147 12.8486 5.24546 0.907007 0.357319 -0.222847
22.3605 10.5197 17.7342 0.0838224 -0.990101 0.112578
11.7968 17.8433 7.94629 -0.913823 0.374693 -0.156627
9.87964 12.8183 6.54108 -0.771169 -0.629808 0.0929566
13.7149 13.8804 5.31895 0.445391 -0.584656 -0.678089
12.1863 18.2196 14.5924 0.429508 -0.245736 -0.868986
23.0683 21.2946 8.22492 -0.652411 -0.571636 -0.497586
17.194 14.9826 17.2763 -0.00545778 -0.973296 -0.229491
9.50432 13.0856 18.6118 -0.718745 -0.64227 0.266261
20.2873 8.86923 15.3486 0.371414 0.19698 0.907332
19.5618 16.1318 6.31453 0.670258 -0.557903 0.489387
11.229 15.6562 13.9566 0.883864 -0.301009 0.358019
14.4614 21.1094 8.88667 -0.590754 -0.225603 0.77467
16.3508 12.8697 16.203 0.0518097 -0.0522979 0.997287
14.1642 10.9778 14.74 0.735724 -0.658102 0.160034
12.1814 14.9872 9.97014 0.0217604 0.888864 -0.457653
13.7749 18.1805 5.4711 0.668064 -0.351021 0.656106
9.74061 9.40643 18.5653 0.0229984 -0.746035 -0.665509
12.6111 13.2524 6.05696 0.197877 0.300013 -0.933186
14.3203 10.4109 15.8455 -0.853723 0.519822 0.0307143
14.2184 8.83202 6.08639 0.141328 -0.405368 -0.903163
12.846 16.5341 8.01318 0.714889 -0.313292 0.625125
12.1322 17.2116 6.22899 0.284425 -0.77726 0.561221
20.9637 15.5558 16.9563 -0.613189 -0.278899 -0.739063
19.0657 10.2719 16.705 -0.991038 -0.128799 0.0354209
19.1283 20.0135 18.3044 -0.819196 -0.504785 -0.272231
12.5436 18.864 5.34159 0.113407 -0.735526 0.667937
10.4373 9.98323 8.56666 0.768554 0.378645 0.515706
16.6943 17.4751 15.478 0.79275 -0.214378 -0.570604
12.4151 14.8735 6.47254 0.19338 0.731273 0.654097
19.4217 12.8918 16.4899 -0.244405 0.769062 -0.590602
10.9071 15.8483 6.12264 0.61975 -0.312038 0.720099
20.4022 20.9131 17.7578 -0.549166 0.485934 0.679915
13.3316 20.8823 5.97807 -0.510353 -0.723528 0.46481
11.1895 11.4966 14.7722 -0.408912 0.824371 -0.391412
17.6597 15.2935 18.5927 0.53572 0.276971 -0.797678
10.8342 21.2649 15.1562 -0.0985009 -0.065207 -0.992998
20.3195 11.1347 6.27472 0.296416 0.236295 0.925366
12.1911 19.3474 15.2569 0.18776 -0.289052 0.93872
15.6822 15.0398 8.2732 0.404175 -0.636552 0.656844
15.2551 17.5291 9.22762 0.787378 -0.594964 -0.16141
15.2192 18.1928 7.80443 0.0708721 0.616668 0.784027
15.8788 13.3397 10.0599 0.27392 0.928272 -0.251554
19.8903 12.3397 6.60717 -0.634448 -0.551416 0.54168
21.423 10.9393 17.0975 0.794788 0.456108 -0.400347
19.2621 13.6021 18.6146 0.197641 -0.379435 -0.903862
14.8886 13.2659 17.1207 0.162134 0.337939 -0.927097
18.2295 12.4952 7.33534 -0.341768 0.522265 -0.781302
22.3279 19.1524 15.9338 -0.876836 0.431003 0.213061
13.6718 20.1152 18.2187 0.996505 -0.0798749 0.0244616
16.9452 12.7251 6.46742 -0.372823 0.576998 -0.726689
18.0761 21.6974 13.7741 0.350773 0.935018 0.0519467
21.4138 13.7607 16.8585 -0.738525 -0.0693898 0.670646
14.1126 11.6041 16.2243 0.597916 -0.364967 -0.713649
18.0732 19.9219 13.8829 -0.822253 -0.551511 0.140483
22.7123 20.1801 10.4098 -0.907206 -0.291412 0.303407
21.9385 13.594 7.40571 0.251433 -0.490586 -0.83433
14.0588 10.8225 17.0801 -0.85492 0.0447299 0.516828
20.7407 14.3882 9.52208 0.241871 -0.764916 -0.596994
12.5483 21.1163 14.7298 -0.0337735 0.794091 -0.60686
10.1517 18.9128 13.3687 -0.0925825 0.434618 0.895844
21.545 18.5309 12.1071 0.794406 0.494196 0.353114
12.5016 16.2464 5.49141 -0.920936 0.142794 0.362612
13.8267 8.74979 17.0707 0.891772 0.249225 0.377663
9.28577 12.8381 16.0481 0.143494 -0.736152 -0.66143
15.3856 13.9469 7.12307 -0.844611 -0.395894 -0.360416
12.9366 18.851 7.32468 -0.290357 0.434459 0.852606
16.101 21.4106 18.1788 0.901767 -0.213737 0.375676
14.7566 17.3806 8.27308 -0.590785 0.800555 0.100421
13.3468 16.2074 7.01339 -0.188303 0.518489 -0.834093
20.6155 14.1979 13.4033 0.411297 0.75764 0.506771
12.6659 16.1154 10.5271 -0.156957 0.715019 -0.681257
18.379 14.3953 8.81608 -0.276577 -0.194375 0.941129
17.2846 13.123 12.8292 -0.527359 -0.462674 -0.712619
13.6268 19.3173 4.90597 -0.648161 -0.126043 -0.751
9.34913 21.1908 14.0171 -0.887322 -0.45977 0.0356569
16.965 19.4338 18.4621 -0.74912 -0.519421 0.411122
13.1183 12.3588 16.1893 0.1914 -0.718708 -0.668449
15.9855 12.2705 6.42095 0.323432 -0.281727 0.903339
21.3773 14.6458 5.65821 -0.565813 -0.824226 -0.0225264
17.9297 17.5521 8.82782 0.0529296 0.579046 -0.813575
10.3319 21.978 5.45286 -0.793123 0.514072 -0.326628
17.8781 17.4574 7.20184 0.50146 -0.658478 0.561199
19.579 19.0974 17.2466 -0.521566 0.78997 -0.32236
14.7518 11.975 17.117 -0.718692 0.332304 0.610783
21.3064 16.9961 12.9322 -0.852359 0.293462 0.432856
19.8871 8.64202 18.7977 -0.887124 -0.343241 0.308539
14.0612 20.0347 7.95922 0.0594704 -0.993044 -0.101618
22.948 13.4273 5.60455 0.0334156 0.363694 -0.930919
18.5549 15.8075 6.71619 0.279684 0.835366 0.473224
13.0446 21.8673 5.05652 0.221573 -0.723035 -0.654313
10.305 21.0279 16.7659 -0.187008 0.914333 0.359198
21.8809 8.70716 9.50595 -0.477289 -0.728483 -0.491434
19.3465 10.0152 17.7779 0.405796 -0.787297 -0.464212
22.9847 8.8484 17.0238 0.300668 0.672885 0.675888
11.5421 19.4231 11.8013 -0.962815 0.142003 -0.229833
13.9415 9.0271 8.78415 0.446419 0.0757303 -0.891614
13.9531 21.6707 17.4484 0.761019 -0.436967 -0.479489
14.6216 9.94015 7.66649 -0.365895 0.0956805 0.925725
18.3878 9.30761 16.4485 0.694682 -0.344564 0.631421
17.7951 19.8915 16.1179 -0.719946 0.516609 -0.463457
18.6926 15.4922 9.20377 0.0676603 -0.561211 0.824902
21.0978 16.5756 5.47083 0.149652 0.988655 -0.0128572
18.1113 17.8049 6.05162 -0.131679 0.979572 -0.151987
18.0056 11.354 14.2855 0.23885 0.685701 -0.687579
20.2711 16.5961 7.14631 -0.856613 -0.183356 0.482281
13.1315 18.507 15.715 -0.0527959 0.157089 -0.986172
20.6866 13.0637 16.3474 0.702136 -0.705067 -0.0994255
10.7733 8.76456 5.96579 -0.860304 0.347458 -0.373029
10.4685 18.4259 5.84754 -0.773168 0.430192 -0.465988
19.457 19.8267 11.6933 0.288101 -0.299753 0.909476
19.2794 16.6624 8.61423 -0.213212 0.552497 -0.805784
18.9163 15.0554 17.5256 -0.78221 -0.546292 -0.299521
21.3163 9.37473 8.33076 -0.380792 -0.714431 0.587015
22.4084 14.0942 6.37587 0.509728 0.362472 0.780251
9.8325 18.2219 9.39226 -0.229055 0.925661 0.301139
16.9501 9.15903 16.7367 -0.888678 -0.233961 -0.394352
18.5923 10.6073 9.01796 0.419803 -0.900265 -0.115274
14.9915 8.36816 18.0436 0.929598 0.216316 -0.298421
21.7828 19.5874 8.52936 0.219967 -0.793272 -0.567745
12.0228 15.3186 5.43164 -0.962264 0.198939 -0.185663
22.5233 21.0995 10.1026 0.738958 0.143976 -0.658189
11.2319 19.4774 5.32347 -0.34217 0.754323 -0.560283
12.0504 10.5585 5.75895 -0.962521 -0.155943 0.221891
22.9094 10.6935 14.6098 0.436288 0.602787 -0.668058
14.2816 12.0291 7.32545 0.0836011 -0.131369 0.987802
13.2827 10.6033 8.44854 -0.326551 0.875304 0.356661
11.6051 21.0436 9.01687 0.486846 -0.501892 0.714902
20.2167 12.1485 9.58399 -0.980944 0.174382 0.0856726
15.7942 21.1748 5.38957 0.185816 -0.813978 0.550374
15.1252 10.9462 10.3003 0.476241 0.288331 0.830698
17.7534 21.7051 18.604 -0.631099 0.769268 0.0997043
16.6989 13.9545 13.4073 -0.791408 -0.478557 0.380337
13.1272 21.9155 7.38375 -0.184557 0.768253 -0.612964
18.3935 17.4774 13.0127 -0.0699054 -0.997539 -0.00540444
15.5967 21.464 13.1353 0.355504 0.319974 0.878199
14.313 10.9293 6.13365 0.714005 0.63912 0.285872
10.3166 11.6656 15.4488 0.250312 0.405274 0.879259
10.8148 11.7233 8.20621 0.419133 -0.900673 -0.114526
20.2766 12.1391 18.5573 -0.861205 0.473115 -0.185709
20.4753 17.7587 10.4658 -0.445144 -0.299171 0.844004
11.9663 10.2945 12.1293 -0.949922 -0.176615 0.257791
23.0204 12.1264 16.9433 0.490609 -0.360639 -0.793248
21.1314 10.7778 5.53271 -0.531161 -0.845181 0.059475
11.5212 21.0097 7.60345 -0.176056 0.699008 -0.693103
13.4299 19.9774 10.4193 0.552697 -0.510096 0.659035
10.0869 21.4073 18.7186 -0.000867846 0.64672 -0.762727
19.4577 21.922 8.16839 -0.477146 0.200282 0.855698
9.94222 12.574 17.5363 0.808468 -0.587284 -0.038431
21.028 9.37113 10.5122 -0.505548 0.862096 0.0348177
21.509 18.5511 16.6181 -0.313184 0.0440813 -0.948669
20.6306 18.2296 6.51773 0.243472 0.171524 -0.954621
12.3994 9.24458 16.9274 -0.218302 0.557864 -0.800707
13.0084 14.6048 18.8031 0.957964 0.211541 -0.193791
15.2049 12.2538 7.48368 -0.148309 0.419889 -0.895376
10.6618 19.8912 6.22006 0.397323 0.809975 -0.431364
13.8854 17.485 10.9938 0.985175 -0.0922469 -0.14464
9.49264 17.0902 16.58 0.517361 -0.267084 0.813022
22.7833 12.1684 5.82933 -0.814496 -0.491003 0.309052
13.4462 13.9401 12.9925 0.263961 -0.749075 0.607627
12.5794 19.9812 16.4005 0.722002 -0.672226 0.163784
10.6168 10.4953 9.87601 0.453474 0.772608 0.44434
17.6797 21.874 6.46727 0.861295 0.496768 -0.106736
19.3479 21.5996 12.8465 0.538316 0.443885 -0.716368
22.6446 8.15409 7.38344 0.36811 0.921628 0.12287
21.6645 21.8586 13.9471 0.149731 -0.0595504 -0.986932
21.9914 12.2658 7.70309 0.495941 0.178038 -0.849909
18.2004 10.7477 17.709 0.206816 -0.974759 -0.0840974
22.767 12.3249 8.72531 -0.797689 -0.477352 0.368547
19.2639 10.7387 10.0206 -0.512291 0.817735 -0.262424
14.2541 15.433 9.39852 0.712836 0.152449 0.684561
11.2631 8.38229 8.1506 -0.298747 0.0936179 -0.949729
20.8362 21.9838 7.2951 0.0133959 -0.09267 -0.995607
21.1947 21.9153 17.6018 -0.742543 0.0749572 0.665591
21.4521 17.8739 14.7376 0.480263 0.194355 -0.855321
22.6801 10.1312 10.9896 0.620941 0.35889 -0.696872
11.6569 9.36949 18.419 0.22282 0.852701 0.472495
22.475 8.6923 5.34723 0.18626 -0.716391 0.672378
9.35588 10.2015 11.655 -0.00610887 -0.999157 0.0405911
14.9569 10.9573 7.93108 0.101084 -0.218941 -0.970488
9.22671 21.0364 17.1317 0.0632497 0.939355 0.337063
18.8472 8.40436 7.20134 0.853134 -0.000384452 -0.521692
18.7211 20.7023 12.536 -0.853006 -0.236551 0.465215
14.4173 12.9597 5.53608 0.625861 -0.438364 -0.645085
18.1595 19.499 14.9271 0.265329 0.847635 0.459473
16.1112 21.8446 10.8731 -0.0584439 0.940186 -0.33561
15.9477 12.4726 18.4596 -0.425399 0.803834 -0.415797
20.5596 12.4802 8.35462 0.219461 0.471784 0.853965
15.0386 17.4537 11.746 -0.923261 -0.278705 0.264412
14.3436 19.9262 6.94299 0.985437 0.158395 0.0618499
19.9707 11.0922 7.77615 0.341781 0.304896 0.888945
17.6297 9.09997 4.96848 0.68715 -0.625223 -0.370029
19.7927 16.6399 12.1059 0.116674 0.726829 0.676836
11.9511 12.1979 12.2898 0.0247341 0.931508 0.362878
18.3492 8.89708 10.8936 0.541098 -0.839459 -0.0502137
10.4331 9.19854 7.4656 -0.660373 -0.741715 -0.117334
15.0801 8.68338 8.48156 -0.152402 0.561937 0.81302
22.7223 13.5527 8.99745 0.0424542 -0.333716 0.941717
23.0768 12.0366 13.4268 -0.818853 -0.235425 0.523502
18.3572 13.4564 5.71273 -0.455719 0.647444 0.610849
21.9991 16.2991 6.32716 -0.833567 -0.542636 0.103498
17.449 10.4655 5.00767 -0.793412 0.26629 0.547345
22.4079 20.6716 17.8223 0.0426667 0.954506 -0.295123
14.4386 13.4802 14.7794 -0.0204034 0.074191 0.997035
19.5571 14.7932 10.12 -0.201656 -0.906637 -0.370599
10.6232 11.9837 6.18378 0.930796 0.327718 0.161923
22.5276 12.1004 9.99767 0.985628 -0.0212155 -0.167595
9.95893 11.0516 8.2438 0.154021 0.52754 -0.835452
18.8598 15.6729 11.7143 -0.0635868 -0.562608 -0.824275
13.4745 19.0547 17.369 0.73674 -0.667407 -0.108547
21.2775 16.257 15.0293 -0.332076 0.622594 0.708591
13.4224 15.768 11.95 -0.969619 0.115109 0.215845
10.2487 13.6571 17.1189 -0.0290903 -0.713356 -0.700198
12.6267 10.3678 16.7902 0.940314 -0.259185 -0.22053
11.8339 8.80897 12.2421 -0.557433 0.656366 0.508381
10.6568 17.213 5.90156 -0.664893 0.302585 -0.682905
12.4159 21.4551 6.36692 0.779801 0.616111 -0.110983
11.7105 9.23077 10.4691 -0.0636057 -0.172395 -0.982972
22.0785 17.5844 12.0294 -0.280224 -0.477832 -0.832557
20.0075 16.5492 15.212 -0.13516 -0.911572 -0.388289
16.5019 14.8934 6.5733 0.864026 -0.10007 -0.493401
17.185 10.5486 17.1565 0.438975 0.85243 -0.284014
21.9339 17.4822 6.42247 0.142834 0.32225 -0.935817
17.1933 16.1183 5.00485 -0.039214 0.356044 -0.933646
21.2775 11.734 12.7361 -0.759599 -0.469965 0.449602
19.2794 17.2678 14.6374 0.326618 -0.84014 -0.432995
17.6533 14.1367 14.5972 -0.535946 -0.754012 -0.379774
11.0165 14.0051 11.2562 -0.696349 0.337368 -0.633468
14.4576 16.4465 11.2911 0.994265 -0.0121477 0.106257
20.351 12.4353 17.473 0.248264 -0.934025 0.256833
21.1173 12.7616 18.2087 -0.781208 0.616951 0.095318
14.9541 18.4601 14.6036 0.91187 -0.409842 0.0228386
14.31 18.5709 16.32 -0.341653 0.920003 -0.192011
19.8149 17.4081 6.79382 0.361507 -0.469988 -0.805248
20.0208 8.99061 8.5474 -0.597865 -0.39626 0.696804
11.1629 20.7875 13.0422 -0.514687 -0.647816 -0.561633
19.9626 9.36083 6.94911 0.118327 -0.757627 0.641873
10.4042 21.5947 9.15151 -0.427909 -0.874271 -0.229226
13.0842 20.6192 11.2958 -0.599543 0.15881 -0.784429
16.9694 18.7063 5.56547 -0.680599 -0.601311 0.418581
19.7237 18.7895 11.0299 -0.0558467 0.769777 -0.635865
14.6437 18.4966 11.9248 0.300105 -0.142822 -0.943154
14.8241 19.821 8.61603 -0.585187 -0.801023 0.126169
9.61529 17.9487 7.76392 -0.695494 0.716151 -0.058455
14.6078 16.4281 13.5111 -0.747891 -0.663789 -0.00657696
15.3887 19.4555 7.75147 -0.727956 -0.552379 -0.40615
22.1646 19.3745 11.5172 0.952383 0.0305243 0.303372
16.5754 14.8066 16.3576 -0.907081 0.166197 0.38676
21.0634 11.2388 10.1596 -0.979043 0.0667949 0.192388
10.1732 17.4644 11.8304 -0.124574 0.258479 0.957951
11.1467 16.9482 17.1088 -0.456858 0.552461 -0.697185
11.54 12.2961 18.0548 0.434842 0.229354 -0.870809
20.6991 19.7811 8.83909 -0.0343473 0.729182 -0.683457
22.4787 14.5951 5.15039 -0.15203 -0.48887 -0.859007
13.424 10.1969 18.5151 0.820783 0.247228 -0.514969
18.738 16.4285 9.83212 0.329698 -0.213149 0.91971
21.3499 16.0859 10.9663 -0.376307 -0.17288 -0.910223
21.629 8.67851 16.6104 0.260413 0.300742 0.917463
12.5457 20.3961 8.63594 -0.0660923 0.660012 -0.748342
11.6418 10.2066 14.4225 0.871832 -0.239755 0.427114
11.1141 16.6829 12.2449 0.961 0.0439823 -0.273029
22.613 9.64155 13.0292 0.201145 -0.547512 -0.812263
22.9204 18.3134 9.84575 -0.440297 0.781748 -0.441599
9.64478 14.8276 18.4465 -0.174723 -0.835554 -0.520884
17.1024 18.3476 18.6032 -0.872262 -0.41971 0.251005
12.3138 17.244 15.3244 0.0289156 0.810833 0.584562
16.9184 16.6081 7.62203 0.774138 -0.127061 -0.620134
15.1203 18.5889 5.59593 -0.217062 0.715954 -0.663546
19.9232 17.6696 9.09728 0.219357 -0.173516 -0.960091
13.009 14.1267 17.691 -0.809071 0.113814 -0.576585
10.4394 8.81265 8.62479 0.65993 0.567972 0.491834
14.5681 17.9541 18.134 -0.175615 0.543773 0.820653
19.3566 19.5355 7.16119 0.84336 -0.328429 -0.425297
15.4232 14.6012 10.2782 -0.325781 -0.457377 0.82745
17.3852 17.544 12.8372 -0.0721074 -0.64343 -0.762101
16.1387 21.1743 7.58481 0.721519 0.672651 -0.164167
16.6212 10.0721 18.2912 0.0536446 -0.988657 0.140282
16.07 13.1763 6.90039 0.690766 -0.250842 0.678174
17.6207 21.0389 5.78718 -0.819936 0.121121 -0.559494
17.6291 16.2687 8.93726 -0.255745 -0.0326624 0.966192
20.3653 17.716 16.6089 -0.91714 0.127912 -0.377482
13.4968 20.8838 7.11176 -0.440231 -0.720828 0.535354
13.4664 21.662 11.4214 0.291458 -0.402447 -0.867807
12.215 10.3977 10.2887 -0.785124 -0.37633 -0.49189
12.801 11.6112 12.7946 0.580822 -0.564315 -0.586681
13.8124 9.57111 5.24242 -0.916783 -0.381364 0.118618
21.0419 10.227 9.21862 -0.0321667 0.966485 -0.254698
13.4513 18.1244 7.76777 -0.626128 0.0186639 0.779497
11.7149 15.9206 8.13719 -0.187775 -0.135648 0.9728
12.1652 21.9288 8.0276 -0.134408 0.38591 -0.912693
20.8518 10.3247 12.9488 0.206922 -0.553814 0.806519
15.777 10.013 17.3925 0.0484676 -0.735483 0.675807
12.9924 21.3749 9.81284 0.166623 -0.318591 -0.933133
14.0768 19.0153 6.37561 -0.885059 0.370294 -0.282053
14.243 17.3856 14.3472 -0.107599 -0.754352 0.647592
17.1768 12.5935 8.69045 0.761017 -0.639398 -0.109647
11.0902 18.7519 9.72413 0.597091 -0.578699 0.555508
18.8724 20.4528 5.28648 0.344174 -0.937221 0.0562202
18.6356 18.1833 6.88907 -0.30709 0.940326 0.146568
11.4068 12.4945 10.3696 -0.771663 -0.57625 -0.269208
22.7266 8.64323 10.983 -0.761699 0.646966 0.0353445
11.157 20.4825 17.9753 -0.73434 0.649668 -0.196663
16.7278 21.4951 14.3756 -0.468028 -0.510818 0.72112
14.4012 22.0582 9.47298 0.832307 -0.141318 -0.535999
22.2068 8.43834 8.33531 -0.0805914 -0.993139 -0.0847364
11.4078 17.8901 8.97453 -0.925931 0.0728309 -0.370604
22.3181 17.3754 8.26165 -0.00552388 -0.587254 0.809384
20.5045 19.8425 10.4276 -0.37741 0.925914 0.015661
17.7158 9.1553 17.9292 -0.227077 0.965073 0.130654
9.50483 20.0219 14.2508 -0.641045 -0.364534 -0.675408
16.4747 8.90811 5.63031 0.34148 0.405284 0.848019
21.3101 21.1829 7.80196 -0.208563 -0.0810681 0.974643
15.3855 9.43422 11.2171 -0.00396738 0.100753 -0.994904
10.2055 18.7951 16.1919 -0.843266 0.514035 0.157069
19.7751 13.3022 8.94653 -0.144541 -0.971385 -0.188464
20.0795 9.89112 18.6661 0.300048 -0.328706 -0.895502
22.0474 18.0117 9.28186 -0.559178 0.735487 -0.382595
20.1335 9.44715 13.0568 0.341126 -0.55182 0.761004
9.81287 21.2816 6.10611 0.814978 -0.240709 0.527133
11.9707 11.8151 14.1699 0.325738 0.848388 0.417292
15.4571 8.72868 6.30132 -0.521689 0.776359 -0.353706
10.762 15.5347 17.3033 -0.562603 -0.273957 -0.780017
9.62694 21.8557 9.98186 -0.197877 -0.75757 0.622039
17.2829 8.77537 9.92322 -0.830786 0.546363 -0.106222
14.3507 16.7452 9.11271 0.606864 -0.402003 0.685646
12.4145 21.1637 12.8218 -0.570042 -0.740113 -0.35677
11.9305 17.0671 10.5961 -0.598855 0.334204 -0.727792
23.0869 8.16673 18.3604 -0.155907 0.987749 0.00665822
18.3787 20.9021 14.7021 -0.936325 -0.0322415 0.349651
11.7327 9.3024 7.61982 -0.210796 0.305146 0.928682
15.1667 9.30781 18.6683 0.266221 -0.635938 0.724368
10.6653 10.4334 5.17224 0.0147226 0.993784 0.110344
18.9253 14.7784 4.97646 0.86974 0.273348 -0.410892
16.734 21.6807 16.7635 0.670053 -0.715339 -0.198291
22.4179 20.0585 6.50488 0.52349 0.565546 0.637272
20.7231 18.9801 17.7122 -0.110749 -0.320851 0.940633
14.4633 20.7205 11.0784 -0.0246284 0.146234 0.988943
17.9444 20.1637 5.49431 -0.300209 0.323779 -0.897241
9.11141 19.9334 5.63644 -0.116182 0.861612 -0.494092
21.6283 8.36046 6.09948 -0.0927449 0.162931 -0.982269
12.3147 11.037 6.62751 0.0370107 0.954404 -0.296216
11.928 20.6903 11.4794 0.544072 0.694633 0.470606
9.15333 9.1726 9.41765 -0.0620798 0.129748 0.989602
10.4416 10.5407 17.9054 -0.360183 0.844651 -0.396021
19.4711 13.3553 6.24953 -0.502235 -0.284757 0.816501
10.0075 10.2948 15.9488 -0.15787 0.289901 -0.943946
22.5529 12.9905 13.7586 -0.745077 -0.249889 0.618398
16.1427 18.691 7.76251 -0.171918 -0.292653 -0.940637
18.4792 10.2835 5.58748 0.703993 0.384952 -0.59683
14.2802 10.9403 11.0947 -0.422981 0.765143 0.485431
15.3544 19.4086 11.8123 -0.999088 0.0382511 0.0189906
14.5496 15.561 12.6356 -0.938337 -0.318635 0.134148
19.9558 20.2111 9.426 0.596739 0.790636 0.137102
14.7867 12.9725 10.3605 0.0981106 0.924858 -0.367439
19.9626 21.0461 5.75447 -0.145801 -0.842176 -0.519115
19.3868 17.2654 17.8051 0.434532 0.811714 0.39026
14.3877 14.5503 15.5146 0.206143 0.125351 0.97046
20.3413 8.69872 9.8205 0.22598 -0.968753 0.102228
17.3588 8.79166 15.7515 -0.0107925 -0.515656 0.856728
20.5978 14.2571 14.705 0.153079 -0.952972 0.261555
18.2987 9.04091 5.75395 -0.739458 -0.185879 0.647033
14.4335 21.4462 18.709 -0.526601 -0.489461 -0.695067
15.5362 10.61 12.8839 0.360511 -0.931628 -0.0458439
19.5389 11.2834 14.0719 0.75451 0.500815 -0.424145
22.7154 11.2463 6.96612 0.968504 0.202704 -0.144608
9.84163 19.9067 13.1875 -0.663219 -0.500857 -0.556132
19.9017 21.919 17.3502 0.0293381 -0.865898 -0.49936
22.8468 14.5367 14.5604 -0.107531 0.454562 -0.8842
11.0074 20.1358 8.81831 0.487485 -0.488835 0.723463
13.3439 12.232 8.58589 -0.0622109 0.451482 0.890109
15.988 16.6768 12.208 -0.824838 0.360214 0.435761
19.5586 11.113 12.5883 -0.474055 0.361295 0.802956
11.0864 14.504 8.43621 -0.196898 0.824074 0.531162
19.1293 21.0676 17.7555 -0.187844 0.511926 0.83824
12.1527 8.39999 10.6474 -0.684718 -0.152557 0.712662
11.9306 21.9649 5.30126 -0.574093 0.811079 -0.112108
9.52707 9.49589 13.5193 0.158527 -0.355512 -0.92113
12.4324 10.5604 9.22034 0.808153 -0.548347 0.214949
10.2409 15.1157 14.1354 0.753062 -0.116932 0.647476
15.3681 13.6362 9.15443 0.311789 -0.948831 0.0500693
11.9211 17.7505 12.8995 -0.298109 0.284554 0.911131
17.4271 19.6681 10.0447 -0.360982 -0.684664 -0.633189
16.1707 15.8545 7.53021 0.522411 -0.798296 0.299682
17.305 9.02592 12.194 -0.109767 -0.774628 0.622819
19.209 10.8831 11.1912 -0.65716 0.753106 0.0311825
18.4613 15.749 5.0177 0.541675 0.389203 -0.745056
17.132 17.5266 11.2999 0.214429 -0.954591 -0.206825
18.6677 11.3868 15.2515 0.248032 -0.815179 0.523416
14.8914 12.0904 9.41044 0.689066 -0.488968 0.534882
17.5772 11.663 11.2573 -0.193384 0.458852 -0.867212
20.6175 18.7479 8.19964 0.174251 -0.703797 0.688699
16.8702 14.1216 8.69191 0.455897 0.315926 0.832075
20.0931 13.1593 11.3173 0.563424 -0.373194 -0.737075
22.49 16.6926 18.5717 0.301405 0.345008 0.888889
23.0134 17.9996 8.80423 0.227587 -0.937429 0.263496
10.8414 15.1347 10.3907 0.513435 0.00736629 -0.858097
9.49677 11.0285 16.7796 -0.936767 -0.320265 0.141059
22.9482 10.2753 8.61945 -0.219722 0.202362 -0.954344
11.5541 16.8666 13.3897 0.694857 -0.39881 -0.598435
13.0297 9.2794 13.9886 0.0101392 -0.99129 -0.131303
21.785 14.8985 16.8481 -0.114262 0.5465 -0.829627
17.8893 14.4427 11.3806 0.503056 -0.112577 -0.85689
11.0407 16.1663 15.087 -0.587075 -0.369934 0.720064
18.1392 21.1324 17.1124 0.225485 -0.971839 0.0684538
15.347 16.9274 14.7775 0.239209 0.815668 0.526749
13.6094 15.039 6.75359 0.348061 -0.0129285 -0.937383
12.2465 12.2417 8.60721 -0.228691 -0.956152 -0.182958
15.2555 11.2371 11.9637 -0.313646 -0.894486 -0.318624
9.46098 13.6068 7.05749 0.446399 0.482773 -0.753431
9.1824 11.0592 5.41814 0.739657 0.157777 -0.654228
22.3014 15.0858 9.34245 -0.281764 -0.876838 -0.389571
20.1879 13.8623 7.08592 -0.273891 0.961729 -0.00777137
9.67564 20.3339 7.11747 0.0670805 -0.0746033 -0.994955
15.9274 11.1165 8.62733 0.0762447 0.195714 -0.977693
14.1457 13.3713 9.34109 -0.471538 -0.252907 0.844802
18.7518 17.1231 12.0756 0.637996 0.713749 0.289003
15.8316 14.8524 17.7313 -0.733654 -0.506212 -0.453323
17.5918 9.30208 7.30069 -0.530788 -0.710177 0.462507
20.3665 8.68012 10.9224 0.674325 -0.738326 -0.0126685
21.8039 20.3454 4.82666 -0.528815 0.735681 -0.423235
15.8567 9.86009 5.62379 -0.0444299 0.163186 -0.985594
9.95771 20.9985 12.9001 0.724188 0.574916 0.380819
16.9947 22.038 5.66368 0.944297 0.253729 -0.20958
12.8201 15.5419 13.8429 -0.39626 0.915083 0.0748374
15.3492 21.2943 6.67628 0.570845 -0.820549 -0.0288989
10.0073 13.7825 8.4556 -0.747383 0.285022 -0.600151
10.4044 16.6766 16.0199 -0.0748617 -0.402669 0.912279
20.7086 15.5998 11.4914 0.083063 -0.670174 -0.737541
20.6692 19.8467 18.483 0.508405 -0.0485083 0.859751
16.7453 17.0932 5.30424 0.636702 0.770626 -0.0273276
10.0728 13.7236 5.46248 -0.674051 0.703332 -0.225787
10.9916 17.8873 10.8933 -0.433633 -0.226344 -0.872199
22.3513 19.4196 17.053 0.918701 -0.393723 -0.0311375
11.7821 15.2199 10.8322 0.249302 -0.866652 0.432161
11.5603 14.1636 15.6081 -0.741916 0.120734 -0.659533
11.3948 14.8874 12.0064 0.996175 0.0850305 0.0201055
10.7235 15.9714 8.11614 0.141014 -0.836887 -0.528899
18.1278 10.0616 8.10787 -0.190893 -0.975866 0.106044
15.9124 10.0632 13.9098 -0.551277 0.698597 0.456131
13.51 18.2524 13.0821 0.0191615 0.425169 0.904911
9.63588 19.2776 7.79088 0.806456 -0.503284 -0.310376
19.5597 13.4756 7.86235 -0.0880971 0.987787 0.128514
18.5279 12.6329 17.3048 -0.0489903 0.354429 -0.933799
22.8963 14.8634 8.3735 0.616424 0.305306 0.725816
22.385 15.7655 8.4589 -0.675323 -0.36903 -0.638557
14.579 14.3541 5.59342 0.399739 0.18082 -0.898617
11.1383 17.7699 14.7837 0.733755 -0.521099 -0.435957
17.1549 15.1157 10.9966 0.354622 0.426543 0.832048
19.8323 19.0347 16.1214 -0.679804 0.730864 0.0608584
14.4669 8.59172 13.7827 -0.224403 0.146558 -0.963413
17.7082 9.0251 13.4071 -0.65243 0.459524 0.602639
20.4966 21.1536 11.2052 0.558188 -0.825909 -0.0793686
21.7217 8.89147 14.9478 0.877554 -0.199725 0.435899
19.3763 13.3431 10.4628 -0.750665 0.313843 0.581382
11.8346 15.6194 12.9865 -0.882492 0.470221 0.00998928
16.2128 19.9198 15.4134 0.491187 -0.420594 0.762781
14.4929 15.6261 5.12033 -0.440608 0.345532 0.828536
13.558 16.2002 9.70405 0.723052 0.257169 0.641139
12.6299 16.459 16.1672 -0.1287 -0.95374 -0.27169
9.24977 15.7795 7.81236 0.762757 -0.631362 0.139938
16.3748 19.6177 5.60086 -0.496843 -0.718969 0.486036
11.3412 14.5721 13.9269 0.550953 0.0757647 0.83109
19.2939 11.579 5.1253 0.96588 0.175685 0.19029
12.1022 17.7429 16.9939 -0.290428 0.856862 -0.425956
15.4705 16.6645 16.0272 -0.123961 0.590038 0.797802
15.9369 16.8324 10.5277 -0.351103 -0.278984 -0.893809
18.6726 18.1627 10.0765 0.523141 0.837201 -0.15943
18.7607 16.1689 13.7746 0.385692 -0.485838 -0.784349
11.7296 11.199 18.6178 -0.93703 0.196182 -0.288943
18.9053 9.47465 6.73502 -0.21413 -0.253457 0.943349
10.662 14.4738 5.24825 0.520889 -0.800511 -0.296406
14.1291 11.6911 5.45811 0.972497 0.222982 -0.0672937
13.1686 17.4614 9.03308 -0.621491 -0.783024 -0.0249473
22.1212 21.8055 18.4869 -0.381469 0.894252 -0.234084
16.5071 8.96454 11.4467 0.419008 0.414302 -0.807952
19.521 19.0168 18.4379 -0.685158 -0.162521 -0.710032
9.51822 15.1667 10.9197 -0.339459 0.127665 0.931917
19.6382 14.4045 12.6701 0.696092 -0.39967 -0.596423
19.2951 8.94064 10.1372 0.406152 -0.861955 0.303436
10.987 14.5886 6.34349 0.538881 -0.550688 -0.637456
19.6044 20.9292 8.73181 -0.682422 -0.315274 0.659472
16.4824 19.6576 7.26513 0.715258 0.347236 0.606493
13.5719 20.3331 5.14676 -0.965595 -0.255082 0.0505946
14.6887 21.1151 13.5549 0.380104 0.773753 0.506781
22.9655 20.3603 11.528 0.967657 -0.197756 0.156628
21.2861 14.0792 10.5096 -0.392028 0.248335 0.885801
14.9861 12.7626 13.2373 0.945785 0.234959 -0.224242
18.8125 17.4284 18.6237 0.313128 -0.819972 0.479163
18.5129 15.4712 7.75175 0.961859 0.00945337 -0.273383
18.728 20.9725 11.3516 -0.794294 -0.2505 0.553485
9.15508 16.4517 17.6566 0.43971 0.384125 0.811852
16.6264 15.3424 12.4064 -0.888292 0.142898 -0.436482
16.4553 9.57053 8.13235 -0.336309 -0.429731 0.83799
16.2743 17.847 8.50483 0.292617 0.371676 0.88104
21.1587 20.5804 5.99346 0.388918 -0.145095 0.909775
15.9626 18.8473 16.0494 -0.82526 0.41547 0.382531
12.7235 9.06283 7.95412 0.492392 0.298128 -0.817722
15.399 19.0994 10.8022 0.768832 -0.633608 0.0862422
16.914 17.3479 17.6155 0.554201 0.0552349 -0.830548
10.9877 9.98623 10.7931 -0.356304 -0.689863 -0.630188
19.2607 20.0827 8.21536 0.81871 0.143635 -0.555953
21.5919 19.1585 18.5049 0.0133299 -0.752078 0.658939
19.277 15.2602 13.9866 0.913911 -0.0375982 -0.40417
22.3409 18.9844 10.5144 0.847236 0.256137 0.465386
17.9163 18.4266 11.9725 0.0864395 -0.784502 -0.614072
15.9019 20.2373 18.6896 -0.891488 -0.180861 0.415377
22.2885 17.7078 18.0498 -0.940798 -0.00458593 -0.338935
16.9538 17.1416 9.08703 0.188603 0.157164 -0.969396
10.4398 17.8702 6.92607 -0.848411 0.433481 -0.303799
15.8733 21.493 16.1344 0.471429 -0.879991 0.0580563
22.6381 22.1467 9.72999 -0.405817 -0.200393 0.891715
13.1583 13.0131 7.90427 -0.217441 -0.672476 -0.707457
9.78672 8.22231 6.47911 0.94841 -0.316388 -0.0204349
11.0361 19.0897 8.31138 -0.829103 -0.524323 0.194099
12.1636 21.2336 18.5358 0.120966 0.957288 -0.262617
15.0757 19.7713 9.5755 0.0961298 0.981235 -0.167143
18.1189 9.30535 9.40743 -0.636046 0.487911 0.59782
9.52508 17.0943 13.407 -0.893117 0.449802 -0.00460893
13.9664 15.2002 10.7197 -0.859809 -0.484754 -0.160442
16.8218 13.1938 9.81094 0.471685 0.82222 0.318538
11.1334 14.4592 18.2818 -0.437349 0.851855 0.288218
14.7237 9.68633 14.1965 0.761764 -0.609879 0.21855
14.2458 12.3498 12.1986 0.590771 -0.375022 -0.714386
12.9419 11.9705 11.7392 0.383492 0.82449 0.416113
14.2633 8.89509 11.5407 -0.00778345 0.988471 0.151208
9.70325 12.9563 12.15 0.694559 0.714212 -0.0865346
12.1089 11.7016 15.3355 0.585664 -0.588905 -0.556946
13.8604 15.5551 16.0163 -0.827496 -0.17866 0.532289
13.8556 19.8346 9.42769 0.434015 -0.518655 0.736633
16.8635 10.1279 16.155 -0.89879 -0.437972 -0.0189051
16.6284 21.3006 11.9048 0.717662 -0.553141 -0.423079
15.2483 19.3274 17.9871 -0.920737 -0.375326 0.106649
17.292 19.3319 8.5889 0.144334 0.968916 0.200922
21.3667 21.4885 11.9118 -0.739365 0.641342 -0.204987
16.0638 10.4585 11.1696 0.0873281 0.242973 0.966094
13.848 17.0454 13.4366 0.42382 0.514238 -0.745611
17.6694 12.686 5.56708 -0.35747 0.933856 0.0113611
14.1713 20.8703 16.3395 0.525227 -0.844431 -0.105228
22.6362 15.5707 18.3629 0.210746 0.138619 0.967663
20.6981 16.9336 11.5127 0.480598 0.536791 0.693456
16.5229 18.5984 14.737 0.708095 -0.657921 -0.256401
17.2934 8.71113 8.83741 0.0141795 -0.970325 0.241388
18.1267 21.432 8.97213 -0.166632 -0.864281 0.474607
12.0977 11.8438 5.28973 0.577875 0.403407 -0.709452
10.9161 20.3185 10.0277 -0.748699 -0.509821 -0.423713
11.2236 12.974 13.2011 0.0207585 0.907655 -0.419203
12.3122 11.5634 17.7155 0.893418 0.390029 0.222894
13.2624 16.7819 17.1137 0.211546 0.976242 -0.0468972
10.0213 9.0243 16.8236 -0.524792 -0.105435 -0.844675
12.1459 14.968 7.8012 -0.624273 -0.551098 -0.553691
18.9264 9.85723 14.8681 0.731759 -0.419676 -0.53703
19.2629 10.2159 8.09381 -0.189991 0.967144 0.168927
12.7559 21.8767 15.733 -0.339277 0.757458 -0.557808
11.9095 14.1321 9.18304 0.218725 0.911047 -0.349503
16.6609 20.8739 13.2787 0.661083 0.0283685 -0.749776
16.0888 14.2739 5.62333 -0.776627 0.00878173 0.629899
9.93891 10.136 10.737 -0.243731 -0.958173 0.149997
20.2693 20.1552 6.4383 -0.25114 -0.745363 -0.617546
17.2652 16.3846 16.6875 0.796953 -0.536274 0.277986
21.3269 12.0738 13.944 -0.463898 -0.516821 0.71951
21.4264 9.60061 15.7757 0.814774 -0.213695 0.53896
18.4894 9.20009 11.9481 0.552138 0.833602 0.015845
16.7823 9.9687 12.8221 0.485376 0.210551 0.848574
10.6961 19.072 18.3646 -0.935387 -0.0228472 0.352888
21.6186 12.1303 15.3139 -0.26038 0.963896 -0.0557341
21.0297 15.9208 13.2468 -0.330031 0.266043 0.905705
11.6131 13.1429 6.00169 -0.175893 0.403204 0.898047
10.7547 14.2113 9.79227 0.71754 -0.218648 0.661309
15.489 14.0398 12.6907 -0.802707 -0.562041 -0.199428
12.9209 10.5283 13.2026 0.999829 0.0140236 -0.0120888
9.55487 10.5673 6.34623 -0.910935 -0.398491 0.106778
20.9436 14.028 18.6127 0.74801 -0.380698 -0.543646
21.6845 16.7867 13.933 -0.815713 0.165318 0.554331
13.0555 14.3474 9.59501 0.10741 0.952267 0.285745
15.2013 13.5348 4.85318 0.599496 -0.27351 0.752194
15.7818 12.6798 14.214 0.727807 -0.0744059 -0.681734
10.9098 14.263 16.6249 0.28865 0.519135 0.804475
16.5049 20.064 9.29354 0.732147 0.516903 0.443589
19.7181 10.7619 9.06326 -0.44458 0.894704 0.0430517
12.6648 12.0171 9.73918 0.23191 -0.965726 0.116581
15.3087 12.1451 15.649 -0.199459 -0.549634 -0.811245
20.3289 18.9513 12.0491 0.135212 0.779778 -0.61128
21.3221 21.3599 16.1742 -0.743402 -0.519021 0.421865
17.6451 13.6002 11.9587 0.960843 -0.234296 -0.147937
21.2314 17.3402 8.35687 -0.281304 0.0552139 -0.958029
13.9067 13.1347 11.5685 0.0305209 0.858963 0.511127
21.208 9.20134 11.5226 0.395687 -0.910119 -0.122946
11.9942 13.2019 16.4292 0.0396177 0.307452 0.950739
17.9225 15.9231 15.8679 -0.136936 0.93189 -0.335901
19.3102 17.2904 10.7888 -0.468469 0.598624 0.649759
21.3792 20.2018 9.96414 0.38044 -0.849539 -0.365443
22.9779 14.7769 9.99077 0.447926 -0.574809 -0.684805
11.6755 19.8652 17.0577 -0.475952 0.867647 -0.143729
22.6054 11.8431 15.787 0.508424 -0.815528 -0.27644
12.9086 15.7428 18.4596 0.979053 0.159363 -0.126722
20.9756 14.6343 15.6149 0.322756 -0.933309 0.157362
9.32462 17.8665 15.0707 -0.650803 -0.00744771 -0.75921
16.1225 15.4579 14.3057 -0.154026 0.23049 -0.960807
10.7223 8.42657 10.6548 0.779833 -0.0778991 -0.621121
10.5605 8.20809 16.0048 -0.33777 0.206402 -0.918319
10.2986 12.6205 9.25053 -0.990561 0.0825461 0.109432
18.0379 15.8223 10.5944 -0.0990096 -0.901091 -0.422175
17.2303 11.8762 13.2985 0.0932183 0.28895 -0.952795
14.1132 12.472 15.51 -0.241641 -0.111179 -0.963976
12.3513 11.6421 16.6319 0.8963 -0.43725 -0.0738829
17.2433 18.6473 7.57283 -0.459616 -0.875428 -0.149593
9.10426 15.0013 16.3233 0.392063 0.917837 -0.0621485
15.0506 14.6953 11.9375 0.988616 -0.143047 -0.0466458
18.634 8.53747 15.854 0.689038 0.564166 -0.45491
20.9894 15.8429 7.50746 -0.787856 -0.574472 0.221957
20.9736 18.846 12.9854 -0.492598 0.842631 -0.217532
18.3183 11.8249 16.1912 0.241384 -0.694758 0.677529
18.6091 13.486 8.29598 0.139496 -0.0575092 0.988551
12.438 13.1209 18.2247 -0.464145 0.509842 0.724313
9.72741 15.7373 12.8 0.899375 -0.435932 -0.0329726
14.3934 10.6 12.4403 -0.442563 0.888226 -0.123263
12.0533 15.5937 17.2898 0.000945321 0.877808 -0.479012
21.6447 9.25201 7.0685 -0.844159 -0.467951 -0.261565
20.6721 14.6566 17.3873 -0.155624 -0.26949 -0.950345
13.4972 13.8203 10.7242 -0.846366 -0.261036 -0.464246
16.2481 15.9775 17.1975 0.149272 0.189531 0.970462
21.0625 10.6732 8.07722 -0.754281 -0.622218 0.209535
20.5081 16.4898 17.2774 -0.858275 -0.503725 -0.0981038
13.3184 17.1042 5.0209 -0.856375 0.504376 0.110571
20.4665 8.95735 12.0962 0.716192 -0.535206 0.44791
9.34617 19.5811 17.9452 -0.409471 -0.142056 0.901196
10.7481 16.3757 10.6734 -0.567739 -0.597629 -0.566138
22.3742 15.3662 15.1794 0.0916714 0.716534 -0.691502
12.4478 12.1216 10.7457 -0.616539 -0.732163 -0.289512
17.8799 12.6173 18.6582 0.176777 0.9709 0.161566
14.8345 10.946 18.8461 0.933781 0.24778 -0.258182
11.3203 18.7667 12.8508 -0.426895 -0.039616 -0.903433
19.4839 19.3861 15.2008 0.154829 -0.987621 0.0251497
17.8904 17.0639 18.8524 0.315928 -0.615827 0.721766
17.4411 21.9777 15.1486 0.402951 0.630034 -0.663844
18.9013 14.2089 14.0645 0.90007 -0.392367 0.189533
18.3927 19.3765 9.53797 0.528722 0.713972 0.459018
22.9916 11.3517 10.7464 0.921141 0.385954 -0.0503867
15.7303 16.8656 6.0813 0.112784 0.83859 -0.53296
16.0211 13.7571 11.3474 0.17992 0.667279 -0.72275
18.7741 21.5702 15.5132 -0.849045 -0.422952 0.316599
19.1815 12.2433 10.5194 0.982385 -0.117964 0.144925
16.6372 16.2596 15.4212 -0.435601 0.538668 -0.721171
21.0177 19.0609 14.0368 0.906976 -0.196776 -0.37239
22.9834 19.9207 9.14998 -0.729364 0.521913 0.442307
13.3324 11.5232 6.41419 -0.019263 -0.969449 0.244536
9.44174 13.9777 10.4639 0.479905 -0.414944 -0.77299
12.3797 17.8841 6.99126 0.689508 -0.624857 0.366242
21.3941 16.1866 9.12825 -0.436475 0.250154 -0.864241
22.692 10.0257 5.34869 -0.532996 0.632899 -0.561564
18.4117 13.4316 14.648 -0.0413248 -0.294233 -0.95484
13.7971 18.5405 10.9706 -0.670556 0.162782 0.72378
9.66748 21.4585 7.38246 -0.647051 -0.0199813 -0.762185
13.9591 17.1777 6.73553 -0.647114 0.434994 -0.626118
22.2541 8.14433 12.0143 -0.420233 0.684497 0.595708
16.2727 15.4849 5.66872 0.145199 0.52415 0.839157
17.1017 11.36 15.7608 -0.581601 -0.388679 0.714611
13.1724 13.9141 7.26558 -0.911859 0.041389 -0.408412
18.2516 12.6183 9.23459 0.684059 -0.145472 -0.714774
21.0991 19.4958 6.53791 0.0276293 0.370443 0.928444
14.946 15.2049 6.38351 -0.31886 -0.686245 0.653756
11.2333 21.4783 9.92183 -0.896002 -0.385367 0.22062
12.6542 9.21179 12.973 -0.780047 0.625718 -0.00176412
10.3643 10.4997 7.25402 -0.830924 -0.494049 0.255893
12.4386 18.3748 11.0714 -0.208412 0.0377664 0.977312
18.9145 11.6336 6.18988 0.201963 -0.97919 -0.019969
20.2399 15.0205 5.89928 -0.144318 0.933538 -0.328146
21.1557 12.0546 6.38584 0.00425729 0.196663 -0.980462
13.811 19.3955 13.4018 0.540581 0.0771432 0.837748
21.9053 10.2017 9.85952 -0.197566 -0.103771 0.974782
17.1302 21.5026 10.7364 0.170701 0.983787 0.0549999
18.9559 19.275 14.0525 -0.601889 -0.759433 -0.246963
18.729 18.4284 8.67092 -0.30067 0.751608 -0.587097
13.7033 13.1837 17.4728 -0.283053 -0.125429 0.950867
22.3945 17.5345 10.725 0.771912 -0.123186 0.62368
19.9443 14.4825 11.0704 -0.401887 0.484035 0.777301
13.5495 17.4041 10.018 -0.974319 0.183296 0.130789
11.6898 9.20897 13.9427 -0.540129 0.665624 -0.514981
9.84103 12.7839 10.3316 -0.879896 -0.299815 0.368638
16.2645 19.73 13.8505 0.849402 0.372074 -0.374268
12.3249 19.4588 13.0484 0.361806 -0.858572 -0.36325
9.37871 16.1896 10.5728 0.202657 0.51553 0.832562
12.313 10.1987 8.12887 0.505946 -0.609602 0.610249
12.7699 11.1044 7.48078 -0.418838 0.903267 0.0931888
20.0864 16.5523 18.4376 -0.34637 -0.790459 0.505176
16.677 15.5 9.74513 -0.870568 0.354594 0.341138
16.1596 13.9989 15.8822 -0.720238 0.405581 -0.562816
16.3686 19.1731 17.2103 0.40015 -0.751657 0.524301
20.7087 16.8278 9.71884 -0.44356 -0.116315 -0.888665
10.8794 12.1231 12.2302 -0.0205186 -0.99931 -0.0309588
21.1368 10.2367 6.81377 -0.827224 -0.07165 0.557285
13.7102 9.68833 12.7755 -0.137695 0.37056 -0.918545
19.1337 19.9273 6.26904 -0.171288 -0.982501 -0.0731623
19.4286 8.32111 5.85743 0.360677 0.928613 -0.0871194
15.4002 18.1058 12.5198 -0.510328 -0.458622 0.727482
19.1689 12.5338 13.8189 0.0595548 -0.324269 -0.944089
21.8068 9.35491 5.86401 0.719364 -0.141271 0.680116
10.0397 10.8662 12.8141 -0.334104 0.751045 -0.569479
15.1094 8.33977 10.1748 0.584821 0.646502 -0.489917
17.216 19.6261 6.38008 -0.425623 0.856148 -0.29301
22.1399 17.0927 15.2192 -0.534779 0.150063 0.831561
21.107 20.21 12.0595 0.947195 -0.249396 0.201551
9.15495 17.5017 12.3806 -0.0139684 -0.974716 -0.223012
22.0203 18.337 11.2775 0.930222 -0.0424243 0.364537
14.5525 16.0087 8.35598 -0.632968 0.574391 -0.519063
9.88383 18.5499 11.4318 -0.113324 -0.748631 -0.65323
10.2626 16.6563 9.68788 -0.948137 0.208542 0.239889
12.617 19.6714 11.0377 -0.676198 0.15537 -0.72015
23.0748 11.8427 7.80269 -0.609789 -0.699565 0.372513
15.9771 20.3974 12.5662 -0.534656 0.168752 0.82805
18.9965 16.1243 16.2045 -0.71263 0.562737 0.418911
13.2405 21.0398 13.8072 -0.75125 -0.633226 0.186138
15.7549 8.70471 13.3246 -0.787896 0.611723 0.0708173
10.8363 9.30756 14.8268 -0.66029 0.683145 -0.311976
14.0064 21.4827 12.6337 -0.842763 -0.46174 -0.276672
11.0841 21.3551 12.171 0.877655 0.441147 0.187379
13.7695 8.81519 10.665 0.824626 0.34314 -0.449719
18.3553 10.2462 10.3156 -0.555879 0.443035 -0.703362
19.4146 11.8907 15.8133 -0.472848 0.868135 -0.150853
21.688 19.7104 14.638 0.576472 0.316584 -0.753296
13.8954 10.5872 10.0278 0.383527 -0.834241 -0.396167
10.937 19.7805 7.24737 0.217762 -0.96312 -0.158048
22.1916 20.4614 16.5813 -0.601309 0.471142 0.645331
14.7148 19.3605 15.4435 0.321299 -0.928203 0.187631
22.9926 11.1993 9.37235 0.861636 0.135237 0.489177
21.62 18.4344 6.83966 -0.224063 -0.157329 0.961792
19.7702 10.2229 15.449 -0.363412 -0.705842 0.608045
18.1581 17.1003 17.5699 -0.0904386 -0.777022 0.622942
14.38 17.6109 15.508 0.292822 -0.94766 0.127265
21.8893 10.4696 12.7037 0.287916 0.939237 0.186917
11.9187 9.94667 17.6599 -0.671241 -0.581996 -0.459038
9.0735 19.2721 14.8982 0.734067 -0.593991 -0.329119
14.2566 12.9525 7.61591 0.669494 -0.0785307 0.738655
21.5043 10.9633 13.8901 0.962031 0.0812548 -0.260565
9.84884 15.9726 6.72504 0.886072 0.0760753 0.457263
13.7063 16.5872 15.893 -0.590296 -0.182629 -0.786255
10.9543 11.2338 13.2112 -0.78549 0.233589 0.573098
12.375 14.276 13.1949 0.0968887 0.0636291 0.993259
19.4089 8.71907 12.5452 -0.106245 -0.0489226 -0.993136
10.157 20.0638 10.8749 0.691188 0.562178 0.454108
21.7684 15.6372 18.7909 0.215287 0.779284 0.58853
17.514 13.7142 15.8635 -0.567248 -0.277035 -0.775552
10.7576 13.4434 14.3601 0.440869 -0.70076 0.560865
18.9379 18.7756 11.8228 0.261961 -0.193529 0.945475
9.62143 8.5354 13.914 0.299156 -0.372445 -0.878516
21.2357 10.6067 15.0792 -0.592739 0.576516 0.562396
16.1627 21.4186 9.89535 0.991701 -0.0641335 -0.111427
19.3443 8.22677 16.4697 0.529838 0.844715 -0.0756787
14.6695 15.227 14.4622 -0.758168 -0.092443 -0.645473
22.4473 14.1777 13.1801 -0.0845138 -0.365244 0.927068
21.9319 21.2546 5.47818 -0.714679 0.505346 -0.48359
14.7678 14.7186 13.3331 -0.376139 -0.902459 -0.209967
21.7021 14.9715 10.7534 -0.219044 0.20831 -0.953219
19.7303 10.154 13.6575 0.77128 -0.0854219 0.630738
14.6022 16.75 5.94738 -0.24631 0.640385 -0.727487
21.6836 10.5043 16.1227 0.994255 0.0926102 -0.0536747
22.376 16.485 10.8508 0.298908 -0.290859 0.908875
17.1703 19.3456 11.0362 0.433762 0.616281 0.657304
19.823 18.7267 9.01026 -0.335661 0.109406 -0.935608
14.4014 9.36228 16.2642 0.933238 -0.130719 0.334633
10.4515 10.0858 11.6423 0.21001 -0.973645 -0.0889458
11.9766 19.9815 5.93166 -0.290099 0.849424 -0.44082
14.7013 11.3143 13.8436 0.0903265 -0.930032 -0.356205
17.8501 13.4233 10.6004 0.741292 -0.339802 -0.578809
9.44879 14.176 13.4833 0.0274833 0.537113 -0.843063
10.3332 9.63001 6.5465 0.994713 0.0754811 -0.0696311
20.2181 18.5305 13.5839 0.700842 -0.683092 0.205441
22.6647 12.3519 14.8599 0.364937 0.917188 0.15996
13.9293 15.1091 17.5763 -0.936689 -0.105696 0.333828
16.7736 10.5389 14.4576 -0.178118 0.597507 -0.781831
12.933 13.8733 11.5856 -0.349259 -0.930301 0.112065
13.0384 9.28179 11.7602 -0.595926 0.670776 -0.44151
21.7682 12.9296 9.04097 0.489484 0.127491 -0.862642
15.0728 20.9928 15.6579 -0.30916 0.950067 -0.0423511
11.1058 8.35001 12.8751 -0.824329 0.266491 -0.499464
22.7671 20.9781 15.6745 -0.0713849 0.560193 0.825281
10.8373 17.8765 13.1306 0.279236 -0.344675 -0.896229
17.5593 10.9198 13.1468 -0.946583 0.0658529 -0.315665
20.1025 16.5425 16.2896 0.797133 -0.538791 -0.272548
11.4664 12.335 7.66612 -0.113821 0.618531 0.777473
16.4596 13.2905 18.8037 -0.54135 0.807344 -0.23481
21.8212 8.93894 13.8148 -0.766265 -0.359537 -0.532515
15.1743 15.8592 16.6189 -0.056616 0.727169 0.68412
21.879 21.3163 9.41432 -0.506797 0.513142 0.692706
17.2567 11.663 9.50697 -0.784897 0.157209 -0.599351
17.5721 10.7312 6.73051 0.208091 0.236706 -0.949035
19.6936 11.9096 11.5782 0.435962 -0.744293 -0.50593
22.1785 18.3747 15.2648 0.104405 0.506944 -0.855633
9.07533 10.4853 12.9434 -0.510089 0.0025914 -0.860118
18.8499 13.6932 13.084 0.877591 -0.30555 0.369422
11.5079 16.8591 8.33616 -0.285708 -0.161006 -0.944694
10.7844 19.1906 17.1399 -0.332487 0.918548 0.213826
9.59116 14.8324 6.58404 -0.242616 0.209968 -0.947128
13.3277 13.1738 15.5363 0.433147 0.741888 0.511845
14.6884 20.8325 14.5467 0.244744 -0.914773 -0.321389
9.04881 14.7722 17.4215 0.449985 0.880052 -0.151729
13.2754 13.4708 14.3502 0.229311 0.968934 0.0926428
22.2286 15.621 12.641 0.257976 -0.23056 -0.938238
17.6504 15.0837 7.11529 0.704924 -0.707538 0.0497208
16.3224 20.8359 17.2315 -0.822797 0.511346 -0.248053
15.4535 13.9119 14.5036 0.0944313 0.566126 -0.818892
11.4527 16.7095 16.0088 0.0650746 -0.927642 0.367758
17.0221 14.0796 7.14718 -0.508153 -0.273639 -0.816641
21.0292 12.8488 12.8138 0.713674 0.313569 -0.626374
16.1316 15.6781 10.9518 0.845765 0.468062 -0.256125
11.6082 15.3829 15.5142 -0.715334 -0.38951 0.580155
17.2491 15.427 14.9855 0.308455 0.906259 -0.289052
21.5529 14.8077 12.9355 -0.336326 0.009197 -0.941701
13.8075 11.7827 9.6317 0.199277 -0.644789 -0.737927
17.0723 12.0593 16.8334 -0.535293 -0.730161 0.424649
10.4589 12.6981 11.2003 0.746723 0.573355 -0.337148
18.055 17.9477 15.2503 0.213571 -0.0551936 -0.975367
17.9831 12.7165 11.346 0.990224 -0.0513794 -0.129675
21.2982 16.6525 18.4114 0.480566 0.794317 0.37164
12.349 9.5916 5.9584 -0.879511 -0.18938 -0.436572
22.9583 21.8792 12.8086 0.533194 0.607264 -0.589011
10.7001 16.671 18.6564 -0.454998 -0.739383 -0.496275
12.7884 14.0093 15.2749 0.725864 0.56126 0.39763
20.6245 17.682 18.8455 0.757702 0.450395 -0.472262
16.6371 21.0434 8.51598 -0.787227 0.310203 0.53296
22.2737 16.8912 16.8165 0.58207 0.682874 0.441449
17.5813 13.4395 8.31513 -0.0768667 -0.144564 -0.986505
10.2213 13.1531 13.3231 0.0273408 -0.82964 0.557628
16.5219 18.4455 13.6036 0.724232 0.613497 -0.314816
16.6283 14.5287 14.2084 0.226775 0.6694 -0.707444
13.9922 10.671 7.40753 -0.137832 0.626555 0.767093
16.2155 8.2625 8.67057 0.164518 0.134272 0.977192
13.297 19.0354 9.49361 -0.0984885 -0.0425794 0.994227
17.8455 14.3115 18.1533 -0.997072 -0.0356922 -0.0676285
14.5118 15.1687 7.67563 0.210156 -0.796295 0.56723
19.3805 14.1699 17.3452 -0.597449 -0.300113 -0.743631
15.3505 16.1465 18.3771 0.112934 -0.501755 -0.857606
9.71206 16.746 5.97385 0.435298 0.268193 0.859411
9.78993 21.6689 11.9406 0.833178 0.526017 -0.170647
20.3202 18.0332 14.6947 0.175196 0.851219 0.494705
16.8505 17.0478 6.46462 0.745107 -0.559258 -0.363382
17.4656 12.5989 14.6068 0.264786 0.0474018 -0.963142
15.4276 17.3009 18.3576 -0.451676 0.432747 0.780205
11.8164 8.35514 16.1463 0.314353 0.844078 -0.434412
9.37881 18.3384 13.6856 0.567944 -0.648441 0.506916
19.694 14.5539 15.4268 0.569881 -0.793868 0.212153
19.7564 11.3165 18.0907 0.760547 -0.367465 0.535293
17.0493 10.7363 10.8051 -0.00676392 0.106364 -0.994304
12.0283 21.0674 17.515 -0.922647 0.37512 -0.0894823
15.7893 13.1202 8.14922 -0.383742 0.9234 -0.00857779
21.8548 12.6476 17.0821 0.631996 0.771364 -0.0746855
20.791 15.1894 8.7906 -0.63523 0.399452 0.661
22.3881 19.34 7.14221 0.348627 -0.697088 -0.62652
22.8449 11.1404 18.5017 0.621895 -0.691814 -0.366933
13.3426 15.5419 14.8738 -0.750525 -0.555486 0.357977
21.9153 15.1466 6.95773 0.974849 0.156682 0.158493
13.1868 19.7556 14.2318 -0.590336 -0.701594 -0.399085
9.95544 20.0923 18.6935 -0.0639344 0.492788 -0.867797
21.4683 13.2193 11.068 -0.529021 0.207985 0.822727
15.358 12.7019 11.3644 -0.550651 0.769668 0.323102
10.9149 15.8852 11.6779 -0.991342 0.0565677 0.118492
12.5056 21.8817 17.1092 0.762835 -0.636628 -0.113085
11.0056 21.9264 18.6637 0.285145 -0.942344 0.175155
18.4519 11.9877 12.3795 -0.287483 0.948997 0.129455
13.3261 17.5317 15.0298 0.065169 -0.0231511 0.997606
15.7337 11.8974 17.6123 -0.0771283 0.957459 -0.27807
20.6756 20.9007 14.5032 0.912503 -0.241163 -0.330423
21.1367 13.8799 6.78438 -0.208797 0.64906 0.731523
13.7618 16.372 12.6559 -0.907581 -0.136684 0.397007
15.4567 18.2459 17.6426 0.144211 0.0874956 0.985671
12.4308 18.2913 17.9526 -0.982815 -0.021383 -0.183349
9.47316 18.126 16.7648 0.915613 -0.250576 0.314427
19.7528 20.9338 15.8699 -0.919908 -0.179983 0.34839
10.9501 21.4856 11.0163 -0.993064 -0.0472952 0.107644
19.6225 15.3517 8.61733 0.415486 0.804133 -0.425136
17.2073 17.1457 13.8776 0.997937 -0.0637565 0.00758536
9.84381 16.1718 8.85062 0.401642 -0.723419 0.56156
9.6571 16.1793 14.1472 -0.868541 -0.451247 -0.204969
11.1056 18.1978 18.7832 -0.993816 -0.037167 -0.104632
16.0648 19.2119 9.95756 -0.365027 -0.659875 -0.65675
10.5685 17.4806 17.9327 0.985866 0.0119743 0.16711
15.5441 22.1064 15.0092 0.0408613 -0.947341 -0.317609
14.9815 19.2066 13.2083 -0.128878 0.839971 -0.527104
21.389 10.4572 18.3118 0.102562 -0.948091 0.301007
12.257 16.829 18.4396 -0.748865 -0.484126 0.452573
17.6895 18.4754 10.3188 0.27489 0.382247 0.882226
11.4985 20.4566 15.1665 -0.324448 -0.237915 0.915494
21.3999 11.494 11.1252 0.595975 0.802173 -0.0364965
13.6453 11.5151 13.4477 -0.785165 -0.375339 0.492581
9.12828 13.1797 11.368 -0.883825 -0.281443 0.373689
17.928 21.5717 7.5767 0.695256 -0.139504 -0.705094
16.5475 12.2486 10.441 -0.0717138 -0.877001 -0.475107
19.3324 17.669 13.7122 0.111005 0.838166 0.533999
22.2514 11.303 11.6981 -0.658798 -0.738562 0.143216
20.8977 20.1005 13.5773 -0.883788 0.386822 0.263226
18.057 10.4244 11.7302 -0.133452 -0.50502 0.852728
16.4651 17.986 12.6513 0.428911 0.790488 -0.437222
12.1811 18.8381 9.11069 0.0217475 0.184327 0.982624
17.3903 15.8383 13.8053 0.840151 -0.449913 -0.30286
21.9628 14.0114 15.0943 -0.473362 0.776042 -0.416758
12.1919 19.8517 7.25136 -0.289459 -0.951606 0.103248
21.6333 20.8176 13.1999 -0.818984 0.403981 0.407511
19.741 21.54 9.5055 0.468514 0.555673 -0.68682
20.1066 20.9735 12.9362 0.660618 0.737943 -0.137929
20.1888 12.441 14.5142 -0.469 -0.772077 0.428879
16.7409 18.212 16.68 0.703073 0.605602 -0.372739
11.6955 21.7384 15.0584 0.339113 -0.457365 0.822082
10.6078 9.22608 15.9144 -0.763674 0.185018 -0.618522
22.715 22.1639 14.4392 -0.105293 0.206831 -0.972694
18.3179 9.74152 13.9038 0.55041 -0.284755 -0.784834
9.82092 14.0389 16.1432 -0.0431008 -0.608032 -0.792741
14.2168 16.5959 17.7398 -0.0572592 0.688344 0.723121
20.3823 19.9761 15.6432 -0.189382 0.071348 0.979308
11.1653 19.0657 15.1919 -0.0343078 -0.338904 -0.940195
16.2323 13.7594 17.3608 0.6392 -0.346465 0.686575
18.3153 21.7291 12.3241 -0.769871 -0.20323 0.604977
13.5505 20.7281 15.5168 -0.29451 -0.947811 0.122138
12.8971 17.1084 12.7644 0.224933 -0.0721319 -0.971701
