26.0376 26.5824 6.80661 0.337641 -0.746323 -0.573586
27.6588 23.3852 4.53634 0.581406 0.281899 -0.763217
28.3077 21.6779 4.59723 0.972572 0.21906 0.0782114
24.8149 29.8756 5.60634 0.551151 0.0745603 -0.831068
33.2664 26.7808 5.49142 -0.45632 0.616252 -0.641877
33.4754 28.7283 5.63543 0.222259 -0.974332 -0.0357494
33.4584 27.8037 4.23336 0.327456 0.78881 0.520145
28.1728 32.4006 1.21277 0.0372705 0.896807 0.440849
32.3262 25.4174 2.94293 0.853687 -0.506797 -0.119898
34.8446 27.1672 5.46149 0.524179 -0.623848 -0.579698
35.5863 23.8248 2.52774 -0.593277 0.507878 -0.624566
33.4958 24.4996 1.04597 0.669389 -0.110794 0.734604
34.4569 25.2903 1.18094 0.8471 -0.450639 -0.281684
36.6473 24.9572 40.4646 -0.123072 0.990713 -0.0578014
34.5511 23.6999 4.60461 -0.490584 0.785629 0.376982
35.5086 25.4986 40.9273 0.135155 0.186822 -0.973052
35.9695 23.9634 41.585 -0.238469 -0.949127 0.205649
36.1926 29.1013 9.27977 0.47847 -0.878092 -0.00462629
37.4348 22.6436 7.10782 0.197598 -0.691355 0.69497
41.1625 31.5502 3.89943 -0.700183 -0.562501 0.439701
38.881 22.1569 6.04487 -0.718276 -0.584233 -0.377825
0.56497 24.8114 4.8247 0.418766 -0.905859 0.0636713
0.624169 22.1912 5.12752 0.362273 0.908656 0.20761
0.00612756 25.2877 3.56361 -0.242244 -0.626164 0.741105
41.9458 24.8804 2.36515 -0.78554 0.266461 0.558503
1.39912 33.5539 8.73104 -0.99603 0.0463558 -0.0759904
3.93747 23.8548 5.18845 -0.957155 0.170594 0.233992
8.64987 34.5364 0.198668 0.441247 -0.0962259 0.892212
8.01771 28.9067 2.48726 -0.804841 -0.570151 0.164799
7.67671 32.3282 1.35356 0.0197115 -0.982011 -0.187792
8.34573 26.003 6.31383 0.463877 -0.718185 0.518679
9.81466 32.1887 3.10216 0.921052 -0.385725 -0.0536544
8.36599 30.6037 0.443334 0.139277 0.541954 0.828787
13.2968 32.7137 3.29717 -0.40511 0.235214 -0.883493
13.9911 31.3907 5.23111 0.282401 -0.308271 0.908416
12.8406 32.3934 1.65865 0.164102 -0.678173 0.716347
11.041 31.7451 4.01521 -0.0214512 -0.961016 0.27566
11.7712 32.5812 4.53903 -0.150573 0.988357 0.0218708
14.4304 33.139 4.19981 -0.0872113 0.858726 -0.504959
13.197 31.0493 3.56499 0.761166 0.558628 -0.329486
15.5443 28.9511 2.3123 0.342579 0.837446 -0.425822
16.6882 31.2567 5.05978 -0.69398 0.288308 0.65975
17.1837 29.9085 4.47711 0.704669 -0.586738 0.398974
18.047 31.1606 3.31734 0.0242551 0.967158 0.253014
17.4692 29.5934 1.38366 0.962711 -0.265718 0.0508178
16.946 32.1727 4.17333 0.892122 0.44073 0.0993776
19.5292 26.906 8.87221 0.204468 0.669686 0.713942
17.1667 33.2033 3.69388 0.895856 0.18039 -0.40608
20.1185 25.9306 39.2055 -0.380424 -0.738049 0.55728
17.8274 34.5167 7.34074 0.361348 -0.734512 -0.574387
24.5586 26.4043 7.89892 -0.567739 0.494085 -0.658447
18.2227 33.8543 4.243 0.157691 -0.732901 0.661808
21.9668 29.7425 3.61772 0.393406 -0.182669 -0.901035
20.3919 31.9793 5.66237 -0.823313 -0.455626 0.338467
26.0188 27.6411 6.14958 0.251945 0.918555 0.304598
18.8357 32.1737 6.29677 -0.0604948 0.772743 -0.631829
23.0922 32.2249 4.5082 -0.0504539 0.872256 0.486439
25.2812 27.7989 5.3655 0.866166 0.480073 -0.138875
32.9711 28.7671 6.49845 0.783935 -0.550591 0.286873
26.0871 31.6195 1.1811 0.565038 -0.403129 0.719874
25.8943 29.4789 5.59536 0.358103 0.867984 -0.344044
26.7437 31.9434 2.40622 0.918006 -0.285172 0.275576
34.9765 27.9534 6.90452 -0.526559 0.815977 -0.238572
28.6795 31.6036 1.91234 0.812468 -0.550963 -0.190617
33.0812 25.4898 41.0893 0.298916 -0.681094 0.668401
28.106 31.7518 3.73839 0.228634 -0.973124 0.0274872
34.0416 33.0285 7.03561 0.168636 0.679523 0.714011
35.6374 32.0389 4.83827 0.722756 0.685835 -0.0851709
35.6357 23.6367 0.635793 0.395047 -0.806168 0.440489
36.733 33.2233 7.30675 -0.943464 0.196082 0.26726
36.8502 29.9017 8.7836 -0.181389 -0.65431 -0.73415
36.9781 35.5068 4.37815 -0.189895 -0.175329 -0.966023
36.9939 33.0401 3.99363 -0.775326 -0.582104 -0.244999
38.3317 32.6168 5.95291 -0.939907 0.235814 0.246913
0.281762 23.7302 5.77273 0.491661 -0.642666 0.58758
0.309388 33.9594 4.39393 -0.914204 0.403786 0.0344658
40.3613 31.4354 3.10365 -0.412401 0.495132 0.764703
40.5135 34.7909 5.79021 0.532775 0.12391 -0.837136
1.07922 25.6436 4.0352 -0.280796 -0.949104 -0.142668
41.7526 30.4426 34.4803 0.727021 -0.367303 -0.580112
38.8722 32.0555 36.3013 -0.240745 0.562951 -0.79065
5.16568 33.711 3.06836 -0.0687612 -0.632285 -0.771678
9.01076 34.2662 2.19626 -0.582754 -0.526673 -0.618881
6.59386 33.8499 1.5649 -0.346726 0.865176 -0.362288
9.6521 33.268 3.62019 -0.0018789 -0.373771 0.927519
8.9362 35.1099 4.68228 -0.846514 0.487503 -0.213902
8.6683 35.2478 6.68474 -0.699147 -0.525575 0.484732
7.46656 35.2951 2.77079 0.606337 0.515004 -0.60591
10.0781 32.2335 2.09625 -0.0739771 -0.981775 -0.175056
10.1897 35.4743 4.11594 -0.672178 0.385421 0.632161
12.6641 33.0837 3.97414 -0.747897 -0.485021 -0.453215
10.9872 34.553 1.77934 0.991883 0.0670529 0.108036
11.6309 33.7819 1.25109 -0.833862 0.326163 -0.4453
10.9749 35.4158 5.93568 -0.887435 -0.10957 0.447721
14.8348 32.9685 3.23836 -0.571485 -0.736404 0.362096
13.4707 34.6908 2.21146 0.643638 -0.313701 -0.698084
15.5844 32.0926 2.37236 0.778219 -0.619638 0.102095
14.8403 33.6849 4.98296 0.672139 -0.718256 -0.179828
16.0073 30.3971 5.41801 -0.988269 0.0801066 0.130028
21.9942 36.4532 2.68728 0.345622 -0.561563 -0.751793
17.8629 31.2229 2.31 0.434114 0.898536 0.0646314
15.0399 36.5795 3.12366 0.019293 -0.790486 0.612177
18.7905 30.8669 2.51424 -0.293625 -0.505195 -0.811518
20.2589 36.5847 4.41655 0.463721 -0.0651092 0.883586
16.885 33.4714 5.60846 0.404199 0.615722 0.676395
19.7038 37.9918 4.37545 0.466526 0.884327 -0.0178528
19.4837 32.6161 7.33726 -0.659966 0.431699 -0.614882
23.7867 35.9493 4.12542 0.748303 0.604349 -0.273503
22.1534 30.8537 2.67915 0.87464 -0.34786 -0.337637
21.429 37.3616 5.28924 0.171787 -0.352533 -0.919897
20.5641 32.5923 6.48804 -0.0455762 -0.638921 0.767921
23.5525 33.8845 5.62987 0.420727 -0.905995 -0.0464936
23.9106 32.3775 3.95991 0.290598 0.105874 0.95097
23.5739 34.6351 6.6156 0.745232 -0.58752 -0.315356
27.756 30.3661 3.05271 0.712998 0.637452 -0.292042
26.2917 36.3793 4.39836 -0.104937 -0.981329 0.161186
27.4807 31.4406 1.60525 -0.351796 0.901071 -0.253597
26.6438 34.261 4.73124 -0.289798 -0.342706 -0.893627
26.8054 31.0987 3.31436 0.600593 -0.0324862 0.798895
27.6258 34.2412 1.61488 0.190514 0.621523 -0.759877
28.1935 32.872 2.64489 -0.890945 -0.319517 0.322685
32.859 35.406 6.81819 0.279322 0.634797 -0.720424
36.3341 34.1834 6.83351 0.644423 -0.565077 -0.515176
34.9863 33.7331 3.44792 0.135726 0.114464 -0.984112
37.1815 34.8278 2.13797 0.203737 0.18169 -0.962019
35.059 35.5701 3.60056 -0.17574 -0.783955 -0.595424
37.9178 33.803 6.39533 -0.530626 0.242368 0.812215
38.1312 33.3896 3.33223 -0.647412 -0.683426 -0.337322
38.0424 34.6065 3.4712 -0.819298 -0.485794 0.304556
37.1391 33.3138 8.30888 0.396155 0.914412 0.0831361
39.5617 33.8059 6.8319 0.526054 -0.209232 -0.824311
40.1264 35.4728 3.43789 0.778863 0.5414 -0.316635
41.7324 32.9263 4.09203 -0.0602523 0.83912 -0.540599
39.0228 35.1331 7.32197 0.101346 -0.616324 -0.780944
40.9209 31.8645 36.3202 0.175277 -0.870936 -0.459074
4.35847 33.6184 2.10625 0.463682 0.87265 0.153232
6.57243 32.4401 1.27205 -0.474448 -0.683103 0.555221
2.40604 41.5313 7.84539 -0.529078 -0.600391 0.599673
5.83472 34.0406 2.21464 0.610104 0.028115 0.791822
6.87424 34.932 40.8184 -0.687698 0.720866 0.086158
8.4021 35.7684 0.975696 0.44432 0.76791 0.461404
6.70387 37.1743 1.56601 0.607407 -0.0581087 0.792263
9.63971 34.7152 3.79474 -0.599772 0.797365 -0.0669543
7.0598 36.1867 2.22666 -0.354352 0.17221 0.919118
9.9592 37.6185 2.11308 0.585298 0.35852 0.727248
9.07376 38.1537 3.70836 0.374773 -0.606515 -0.701203
13.0741 34.1874 3.47257 -0.849586 -0.150059 0.505654
11.2514 37.1756 41.5746 0.601927 0.795689 0.0675536
12.0445 34.9495 1.02466 0.440684 -0.880545 -0.174464
8.98448 37.566 6.3056 0.266986 -0.0249709 0.963377
16.3256 33.9767 4.32357 0.41645 0.207344 -0.885199
12.3259 35.8662 4.5206 0.35535 -0.605439 -0.712159
13.2862 35.6371 1.92123 -0.285311 -0.554741 -0.781576
12.8997 35.8866 8.24906 0.467337 -0.834505 0.291885
15.2193 34.1234 4.17173 -0.253813 0.90944 0.329389
14.1439 35.7212 4.24001 -0.0328022 -0.339908 0.939886
20.8932 37.9373 2.33723 -0.400555 0.907636 0.125506
18.7223 35.1887 3.52208 -0.618183 0.782696 -0.072359
18.158 33.8291 9.70331 -0.807921 0.57495 -0.129218
18.1719 37.9075 2.81844 -0.725403 -0.0469117 0.686724
18.5046 37.6396 4.05401 0.364358 0.674201 -0.642415
20.8627 38.0864 3.34949 0.972721 -0.22482 -0.0571758
23.4439 36.6191 4.8587 0.040997 0.899557 -0.434875
23.6708 37.2768 3.15399 0.37448 0.610989 -0.697465
22.5002 36.0366 3.60256 -0.910267 0.229918 0.344314
25.4551 0.415082 4.45507 0.540026 0.485656 -0.687394
24.6755 35.6377 6.52247 0.111557 -0.0531251 -0.992337
24.9586 38.3238 4.44319 -0.0960363 0.890767 0.444198
25.4797 36.9102 2.47205 0.447304 -0.550872 -0.704599
24.2157 38.4026 3.69075 -0.102407 -0.96003 0.260489
30.5057 34.6514 0.145137 0.218416 0.530961 0.818764
26.1792 36.8457 3.24367 -0.767593 -0.373362 0.520963
25.6181 38.9954 2.38406 -0.671285 0.276176 -0.687825
26.0429 39.654 3.40116 0.950031 0.136225 0.280862
34.6205 34.6027 7.44195 0.679725 -0.686195 -0.259057
28.8546 38.8963 4.55451 0.325226 -0.941979 0.0830879
33.5395 34.4064 6.79573 0.335235 0.934951 -0.116119
33.5723 37.9229 7.43449 0.667639 -0.455291 -0.589041
34.8608 35.1396 4.50414 0.564796 -0.672727 -0.477959
33.3763 34.9928 5.809 -0.957313 -0.190178 0.217677
34.2038 34.2528 6.03182 0.817946 0.36635 0.443568
35.9269 36.4721 6.42652 -0.535636 0.107106 -0.837629
37.4274 35.0681 6.32343 0.531223 0.233864 -0.814315
41.5 36.4688 1.02471 0.211971 -0.315203 -0.925049
40.4397 38.6859 5.25646 0.068994 -0.283485 -0.956492
41.0098 36.0499 5.08047 0.799224 -0.596882 0.0705216
40.4538 36.3828 7.05623 0.714355 0.0964237 0.693108
39.1283 35.9564 3.51681 -0.320782 -0.27739 0.905623
41.1406 34.153 2.1551 0.347248 0.553574 0.756951
40.593 37.1692 3.54982 -0.262754 0.484858 0.83419
5.9242 35.3258 3.4308 0.479187 0.681778 0.552774
0.263245 36.0745 3.24705 -0.787463 -0.593914 -0.164828
41.3926 37.8222 4.18156 0.079821 -0.209569 -0.97453
5.75075 38.0455 1.00834 0.891666 0.44516 -0.0822436
6.8703 37.2556 41.9061 0.763587 -0.607143 -0.219801
4.6762 0.869399 3.24082 0.637213 0.479918 -0.603025
4.98175 36.6354 0.263206 0.463932 0.305751 0.831435
2.88498 0.772297 3.8658 0.608784 -0.49828 -0.617333
7.23495 37.4275 3.32771 0.79506 0.242513 0.555938
8.22702 38.9027 0.187507 -0.92607 -0.343189 0.156893
8.1744 36.7458 0.536634 0.982503 0.0839581 -0.166248
9.61131 37.5558 9.12569 -0.120366 -0.0952482 0.98815
11.6042 36.9023 1.79388 -0.550171 0.349104 0.758576
14.0706 36.4006 1.59371 -0.90528 -0.066747 -0.419539
10.183 37.1627 0.89189 0.665559 -0.624217 0.409126
12.0749 3.21219 4.15271 0.520173 -0.351886 -0.778201
11.8731 36.6902 8.97619 0.0589664 -0.972085 -0.227098
18.3415 40.441 0.580878 -0.808187 -0.578799 0.108744
14.0316 35.2751 2.80633 -0.546228 -0.0825415 0.83356
11.0125 0.323239 4.85017 -0.586103 0.121844 0.801023
17.5779 35.4381 3.98946 -0.697551 0.516185 -0.496966
19.2821 40.2895 41.6691 0.547043 -0.205994 0.811363
13.1135 35.9787 5.49435 0.161884 -0.397946 -0.903013
21.6518 41.4872 7.43322 -0.944859 -0.320398 0.0677236
18.9541 35.8407 4.41875 -0.757836 0.248838 0.603128
21.5429 38.9975 2.11871 -0.122836 0.868804 0.479678
18.8373 37.1004 3.04681 -0.790914 -0.41201 -0.452442
21.4653 0.28362 4.2912 -0.181102 0.299019 0.936904
22.6244 38.1426 4.51629 0.817587 0.393405 0.420457
21.7759 40.2885 1.81173 0.837437 0.267875 0.476384
23.2717 38.619 3.10978 0.115123 0.76174 -0.637573
25.2193 40.9914 7.73149 0.965023 -0.262082 -0.00665041
25.4755 40.9668 4.88811 -0.571352 -0.820204 0.028695
25.7591 41.4501 2.89879 0.321068 -0.134809 -0.937412
24.341 35.3034 3.64888 0.887268 0.403952 0.22266
24.846 40.0821 5.98729 0.123696 -0.905698 0.405475
26.6184 39.3903 4.69932 -0.211404 -0.633144 -0.744605
30.5554 41.2685 1.84541 0.0710664 -0.0698628 0.995022
30.1391 40.6582 4.23852 -0.0397986 0.151688 -0.987627
29.3148 39.9213 5.04526 -0.759667 0.529793 0.377128
35.9843 37.2214 7.57678 0.827049 -0.334777 0.451569
31.6228 41.9043 2.05506 -0.215482 -0.778681 0.589257
29.1499 38.6682 2.77885 -0.889207 -0.33809 -0.30823
29.5577 41.5699 4.01081 0.354259 0.493802 0.794141
37.4681 40.3075 6.67962 0.518867 0.199721 -0.831197
33.2388 41.4265 1.1118 0.776605 0.0969665 0.62248
37.9019 37.1455 4.53041 0.797284 0.558349 -0.229311
37.6961 40.3865 4.57951 -0.815022 0.468434 -0.34104
40.3774 37.63 5.4534 -0.679169 0.524543 0.513404
41.3866 41.3371 5.16577 -0.781548 -0.617332 0.0899114
38.3413 36.2254 5.24565 -0.550728 -0.213867 -0.806821
40.8796 35.2888 6.80241 -0.235509 0.679594 -0.694757
39.4015 36.1911 5.06431 0.532302 -0.465895 0.706821
40.6229 39.4002 4.20283 -0.442452 -0.09627 -0.89161
0.20762 35.02 3.83839 0.106614 -0.766657 -0.633143
1.39308 40.9617 5.69866 0.0409223 0.870987 0.489599
0.0716535 36.9684 2.40202 -0.506135 -0.19279 0.840631
5.14527 39.054 41.6664 -0.430373 0.90226 0.02656
2.10063 1.08853 2.89705 -0.641915 -0.547925 -0.536398
0.55465 0.959452 4.84516 -0.995602 0.082195 0.0449532
2.84238 41.876 4.56015 0.888409 -0.43089 0.158313
4.70357 2.81833 5.19885 0.258336 -0.918275 -0.300056
3.75416 1.45505 3.53497 -0.284392 -0.0116113 0.958638
4.11264 7.03837 4.27039 0.31297 0.328967 -0.890972
5.42016 1.01895 5.30569 0.989224 0.145649 0.0148886
6.84114 9.08514 3.15728 -0.151984 -0.76243 0.628968
5.68826 3.92024 1.05843 -0.00491381 0.592931 -0.805239
5.07853 41.8913 5.39045 -0.695124 0.0449253 -0.717485
11.2869 1.34211 4.92089 0.344335 -0.325799 0.880505
8.79073 5.07016 5.05885 -0.973378 -0.180376 0.141418
18.8038 36.7236 1.73481 0.655362 -0.0541277 0.753373
6.72116 6.28024 3.95557 0.175752 0.7281 0.662556
12.2873 1.88591 6.94294 0.422875 0.047791 0.904927
16.0017 36.9479 2.886 -0.0303955 -0.968453 -0.247335
16.7291 38.4449 4.24391 -0.0191523 -0.0491456 -0.998608
19.4608 39.4106 3.18737 -0.191787 -0.554644 0.809684
22.9318 40.9203 6.984 -0.863313 0.212673 -0.457669
17.7474 38.4002 4.29014 -0.253568 0.568964 -0.782294
19.6934 38.9597 2.04178 -0.368899 -0.660709 0.65374
20.4843 1.46522 6.39618 -0.178425 0.756113 0.629648
22.222 41.4331 5.68759 0.828333 -0.554083 -0.0828017
18.7401 0.36531 2.95565 0.0115538 -0.952843 0.303243
20.5923 39.8973 3.20251 -0.460688 0.872384 0.163439
22.7499 2.07537 5.57649 -0.712683 0.26449 -0.649714
23.9006 0.875646 7.65254 -0.388627 -0.919157 -0.0641784
19.5516 2.50489 3.79409 0.430233 -0.0286294 -0.902264
27.5028 40.8077 6.16085 0.192005 -0.0776444 0.978318
21.7683 3.21136 3.94339 -0.609966 -0.255738 0.750027
24.0928 41.4337 4.84899 0.74973 -0.228406 -0.621076
20.6958 1.97349 4.13785 -0.950164 -0.292159 0.108774
26.8525 40.5957 3.12801 -0.777182 0.248568 0.578102
25.175 0.0179405 9.63582 0.249787 0.194206 -0.948625
29.0989 0.363781 5.72433 -0.393398 0.786418 0.476219
26.7336 0.613643 1.27106 -0.210076 0.409459 -0.887812
30.9146 41.2769 4.35317 0.553819 -0.413506 0.722702
24.4105 40.4972 6.79094 -0.607127 0.396281 -0.688737
30.9505 0.330252 4.78382 -0.764717 0.587505 -0.264662
29.7713 0.953752 2.19323 -0.920532 -0.388675 0.039413
31.4682 38.5314 3.60528 0.370458 0.858006 0.355789
33.2013 0.701999 4.94061 -0.817548 -0.470241 0.332399
39.5688 40.5528 4.7497 0.938775 -0.230873 -0.255732
34.4216 0.948275 1.91568 0.717617 0.696398 0.00738332
30.8524 0.31379 0.994872 0.919793 -0.316887 -0.231438
34.2808 2.19312 1.71521 0.376552 0.557868 -0.739589
40.4435 41.3617 6.67642 0.837142 -0.442907 -0.320979
37.8705 41.2301 1.65498 -0.880614 0.103571 0.462377
38.676 38.5472 3.36852 -0.588373 -0.779885 0.213533
33.5288 1.36357 1.49797 -0.579952 -0.0812353 0.81059
0.0417383 38.541 8.7913 -0.293102 -0.752354 0.589962
41.4267 39.9012 3.66569 0.216549 -0.90712 0.360889
41.1272 38.9591 1.80578 0.657742 0.0469324 -0.75178
1.81202 2.25168 6.07957 0.0614658 0.587584 0.806826
0.947109 1.77373 6.52717 0.170333 -0.985333 -0.0102478
1.46696 1.48277 4.04497 0.374039 -0.83403 -0.405572
0.262593 0.995509 3.74714 -0.802936 0.545414 -0.240453
4.20537 9.72552 3.55184 0.452128 0.638212 -0.623109
4.54423 40.0855 9.3188 -0.817597 -0.0356227 0.574689
3.21145 9.88051 3.36057 0.371479 -0.0688255 -0.925887
7.63975 41.246 6.67697 0.0560693 -0.576466 0.815195
4.30195 4.83219 6.19484 -0.196936 -0.394242 0.897658
7.49682 41.572 8.07881 0.929451 0.0288626 -0.367814
5.786 7.73576 3.96469 0.687199 -0.496985 -0.529872
8.32546 0.189948 6.62805 0.666307 -0.636041 0.389213
6.97075 1.92242 6.64691 0.0995313 -0.168858 -0.980602
9.01001 2.16891 6.27123 -0.456481 0.419826 -0.784456
10.5091 6.71084 3.90456 -0.95034 0.308807 0.0386221
7.6687 6.79384 5.201 -0.110841 0.323934 0.939564
9.97371 0.816039 8.14966 0.498113 0.435485 -0.749824
13.7498 41.3574 8.79842 0.526239 -0.776951 -0.345573
13.3913 1.90737 6.16407 0.00149961 -0.99984 0.0178187
18.2778 39.4889 3.44524 -0.322035 0.574268 0.752669
15.8994 2.45369 7.60773 -0.782721 -0.162725 0.600723
14.3994 0.913334 8.69964 -0.0845223 -0.0803398 0.993177
15.3507 3.69544 6.91144 0.931171 -0.298081 -0.209925
21.4522 1.0589 6.65227 -0.407025 0.430112 0.805813
14.8633 3.43127 8.57169 0.804253 0.435251 0.40464
19.9551 0.566945 8.49612 0.313439 0.721277 -0.617669
18.0674 6.20544 8.95138 -0.104615 -0.822273 0.559395
21.4364 2.37564 7.78377 -0.276413 -0.145119 -0.950019
18.9379 3.7493 8.67873 0.366022 0.651907 0.664112
22.527 3.47344 9.30667 -0.54937 -0.208953 -0.809031
24.0207 6.94688 8.69771 0.394145 0.846601 0.357653
20.9438 4.03321 4.39668 0.102005 -0.346247 -0.932581
21.1725 4.63429 8.59809 -0.317649 -0.635338 0.703878
26.3523 4.97242 9.52038 -0.818618 -0.181111 -0.545035
22.0268 3.6758 6.22422 0.859939 -0.146367 -0.48896
22.9837 2.91646 4.98485 -0.86679 0.495001 -0.0604028
25.0483 5.74752 7.57467 0.862569 0.256593 0.436045
31.7546 0.84436 9.85984 0.845551 0.532164 -0.0429579
28.8429 5.0349 6.04103 -0.374264 -0.599646 0.707355
24.2995 0.335562 6.0211 -0.387241 0.896234 -0.216354
28.2921 6.87503 9.33616 0.425994 0.0987193 -0.899324
32.8521 0.825844 7.49407 0.230623 0.736325 -0.636112
29.9107 5.87016 7.25001 0.561578 -0.633372 -0.532419
32.9228 1.5188 4.20722 -0.546824 -0.0756622 0.833822
31.2836 1.33834 7.50619 -0.0940037 -0.672691 -0.733928
32.459 0.903987 6.29675 -0.483002 -0.43137 0.76199
33.1751 3.76337 4.80206 0.236367 -0.898019 0.371068
33.1457 2.33193 2.4336 0.157198 -0.0225113 -0.98731
33.2628 2.83395 6.10152 -0.709504 0.582831 -0.396121
33.0332 2.26779 7.6781 0.122929 -0.867351 0.482276
34.0606 2.49144 2.9727 0.122847 -0.61924 0.775532
31.9941 0.924922 2.59685 0.526911 -0.849895 -0.00660289
38.696 8.81525 9.70497 0.809013 -0.0497996 -0.585677
39.7198 8.07771 8.44266 -0.821632 0.519774 -0.234001
0.719321 10.499 9.01425 -0.939396 -0.313577 0.138582
39.1746 40.9079 3.84123 -0.254648 0.955414 0.149463
38.4138 10.1398 9.01441 0.545248 -0.434646 0.716789
41.053 10.0654 10.8687 0.750618 -0.603523 -0.268945
2.54765 7.7509 3.66958 -0.578293 -0.605641 -0.546605
2.47305 9.58436 2.61013 0.424348 -0.66484 -0.614749
1.75085 10.4319 7.69978 0.521301 -0.763594 -0.381011
3.02157 3.23096 7.57016 -0.940037 0.178696 0.290513
2.20764 8.37991 5.61331 -0.942696 -0.305206 -0.134809
3.11406 9.60132 5.62256 0.355486 0.197053 -0.913674
4.12403 3.54164 6.49025 -0.86298 0.412147 0.292232
5.92379 8.81823 4.11032 0.166494 0.161342 0.972753
4.42002 8.8582 5.50505 0.858887 0.0851212 0.505042
5.00336 9.25805 4.07045 -0.232026 -0.818696 -0.525263
11.5078 9.99246 6.11866 -0.0823659 0.379583 -0.921484
9.28837 2.90775 8.30805 0.975154 -0.219655 -0.0287495
11.6566 8.96565 5.93023 -0.348001 -0.513401 0.78442
11.9383 8.30521 5.09945 0.825385 0.250971 -0.505721
10.4492 11.0055 8.4348 -0.517544 0.261988 0.814562
13.4253 4.17976 6.68727 0.643397 -0.699485 -0.311065
16.419 6.78411 5.93357 -0.525016 0.308069 0.79338
14.3704 4.3047 5.90103 0.106231 0.499732 0.859641
13.0655 10.8666 8.40642 0.840604 0.431131 -0.32789
13.1518 3.27754 8.37173 0.654558 0.740276 0.153445
15.4743 6.20694 6.14813 0.815631 -0.527669 0.237299
15.8177 2.72836 6.13322 -0.864133 0.495016 -0.0907366
17.2737 4.92126 7.52234 -0.777103 0.508831 -0.370408
18.6075 5.02463 8.84848 -0.81571 -0.553162 -0.169203
20.857 3.47064 5.68757 -0.890367 0.44323 0.103893
19.0217 1.45578 5.33175 -0.721628 -0.591916 0.359011
19.4805 5.2616 6.99087 0.0972886 0.417474 0.903466
21.6305 3.6749 9.83562 0.32962 0.631681 0.701662
22.5046 6.75685 7.13608 -0.16617 0.330658 0.929006
23.2802 4.83099 8.60055 -0.0441253 -0.929383 -0.366471
20.8434 7.16928 5.37149 0.865849 -0.0947862 0.491244
24.264 5.87352 9.39248 -0.79805 0.358535 0.484323
21.79 3.49356 7.46568 0.91971 0.368926 0.134265
23.3892 4.97259 7.52653 0.66435 0.426959 0.61347
23.0228 10.2433 6.67667 -0.135704 -0.932103 0.335809
31.0789 2.93428 8.38302 0.673715 0.564113 0.477373
26.1573 7.40913 7.1292 -0.701907 -0.583454 0.408544
27.7995 5.57146 6.4714 0.194084 -0.404207 -0.893839
28.6416 5.93066 9.03858 -0.797792 -0.248424 0.549375
32.2183 1.88439 10.6703 0.0419756 -0.981943 0.184461
29.6323 6.35929 6.22242 -0.0389159 0.996017 -0.0802239
29.7627 4.66631 7.04847 0.775255 -0.630548 -0.0372749
27.0926 6.57048 9.19686 -0.786849 0.279255 0.55035
33.706 1.10827 6.24426 -0.139516 0.828844 -0.541806
38.5564 8.93337 7.27477 -0.0185825 -0.956244 0.291979
32.0626 1.91326 3.84356 0.387262 -0.184333 -0.903355
32.4483 5.21902 8.22761 0.245411 0.652801 0.716676
38.8321 10.3293 7.92504 -0.29818 0.954061 0.0292576
39.4218 8.34646 6.57752 0.142857 0.689727 0.709837
40.3221 10.1923 9.03556 0.568964 0.0279765 -0.821887
40.5983 11.066 5.85447 0.457144 0.427538 0.779891
41.1019 9.37205 8.71104 0.791662 0.356438 -0.49621
0.0405484 12.9129 6.10863 0.63351 -0.357565 0.686158
41.6235 11.2574 10.2625 -0.741071 0.0207322 0.671106
39.4928 11.0311 9.18591 -0.127741 0.540183 0.831796
2.68959 4.64321 12.18 0.0471502 0.929486 -0.365833
2.18623 7.52445 4.87217 -0.16686 0.852987 -0.49454
1.31946 9.68931 3.94112 -0.189819 0.753299 -0.62969
2.76779 11.2657 3.90579 0.427466 -0.605901 0.670937
4.91379 10.2851 10.4688 0.11689 0.044849 -0.992132
5.81229 11.5985 7.85603 -0.478951 0.869726 0.119092
4.36654 9.52559 6.38871 -0.800041 -0.599107 0.0317194
5.69279 9.71941 8.77677 -0.690935 -0.2326 0.684475
4.75322 8.79016 8.92982 -0.889153 0.220347 0.401067
9.79935 11.8933 8.23711 0.299794 -0.523674 -0.797426
9.90518 8.59042 7.22363 0.934325 0.346136 -0.0850064
5.84249 7.95332 9.19434 0.895286 0.445147 0.0175189
8.46052 8.73586 8.10192 0.817381 0.379444 0.433487
10.5434 10.4953 5.84968 0.0791493 0.308371 0.947968
10.13 7.89981 6.55315 -0.920619 0.27361 -0.278564
11.6936 12.1183 6.89561 -0.716954 0.296883 -0.630743
12.338 9.95683 7.91701 0.981253 -0.123445 0.148001
14.1832 14.8994 7.49864 -0.0136677 0.899524 0.436657
14.8469 5.7243 8.0468 0.518584 0.841024 -0.15411
13.9828 5.66912 7.23941 -0.911207 -0.320804 0.25843
17.9625 5.71163 5.89398 -0.915129 0.299908 0.269434
16.7775 6.37101 7.02464 -0.980736 -0.098032 0.168959
15.4205 5.25546 6.83966 0.380331 0.175457 0.908054
17.6671 9.54355 8.13087 -0.910447 -0.40858 -0.0644165
20.4576 5.93765 8.22556 0.358322 -0.574165 0.736165
19.3569 10.7859 41.0198 -0.32445 0.307632 -0.89448
20.0127 6.8011 3.79576 0.637987 -0.228511 0.735361
21.1891 6.99529 7.56996 0.0548788 0.996987 0.0548252
21.9651 5.93308 5.5426 -0.494998 0.634269 -0.593869
22.151 10.2216 5.43853 0.280675 0.889112 0.361525
22.9791 8.66424 8.5563 0.522185 0.850929 -0.0569465
19.1273 7.28221 5.26163 0.610288 0.570736 0.549372
24.5586 7.81388 7.9437 0.840946 -0.445875 0.306603
23.984 9.92432 6.40753 0.299678 0.591873 0.748251
22.5691 8.28044 6.31027 0.798949 0.254511 0.54489
24.2137 9.26255 7.56204 0.977629 0.177463 -0.112908
26.634 7.14347 8.20294 -0.496233 0.866107 0.0601021
30.2682 11.5011 5.1112 -0.780607 0.422095 -0.460965
27.0922 6.86558 7.16155 -0.217252 -0.845349 -0.488043
28.1166 12.3377 5.12722 0.90189 -0.371388 0.220602
29.784 6.89941 8.92859 0.351395 -0.491897 0.796592
28.8352 13.1214 3.09356 0.0497123 0.445271 0.894015
33.3272 4.38383 8.27123 0.812177 0.178585 -0.555406
31.9134 12.752 6.82865 0.278755 0.721781 -0.633504
30.8531 5.66066 7.73277 0.634846 -0.196905 -0.747127
36.9871 11.376 5.75216 -0.465958 -0.114524 -0.877364
36.5778 9.52158 5.84001 -0.824364 0.501305 0.262902
34.2525 4.75288 8.75972 0.110019 0.89088 -0.440713
41.7538 10.8266 7.11593 0.055212 0.37667 -0.924701
39.1985 12.4763 7.17905 -0.62957 -0.206023 0.74913
37.6979 9.41782 6.55742 -0.335651 -0.358119 0.871257
38.6023 10.4036 3.94532 -0.861212 0.167223 -0.479948
39.7345 12.1539 9.2414 -0.428224 -0.379344 -0.820196
40.3153 13.227 5.20719 -0.265963 0.247491 0.931671
0.396375 12.511 5.17894 -0.0822368 -0.660428 0.746372
41.4622 12.0834 8.23005 0.283904 0.603766 0.744893
2.50524 10.5425 5.19217 -0.664083 -0.0175816 -0.747452
0.520953 10.6097 4.16292 -0.72414 -0.323392 -0.60913
4.75994 11.0317 5.74623 -0.948578 0.0575541 0.311268
0.68357 13.5753 5.83688 -0.639072 0.690819 0.338167
6.48622 9.06484 7.54911 0.900977 -0.112777 -0.418953
0.900087 14.29 5.13822 0.262716 -0.778763 -0.569657
5.49256 9.92669 7.41482 0.339605 -0.384749 -0.858276
3.93868 13.3719 6.3623 0.0787935 0.729952 -0.678941
7.13008 9.23541 8.3144 -0.83826 -0.269363 0.474093
10.8074 15.1885 7.49192 -0.0366179 0.954798 0.29499
11.1 11.777 7.85214 0.2928 0.23103 0.927843
9.00308 9.13497 9.36671 -0.095001 0.993646 -0.0603589
11.3165 11.3121 6.14888 0.368064 -0.594022 0.715309
12.105 14.2493 6.31378 -0.477614 -0.225638 0.849101
9.7678 11.0945 5.68784 0.536113 0.635526 0.555599
13.4165 14.2906 6.48202 -0.151225 -0.933585 -0.324884
15.1233 11.1111 10.6586 -0.21638 -0.104629 -0.970687
12.397 11.7794 6.03758 -0.318495 0.4565 -0.830764
13.9464 12.6725 6.31794 0.350772 -0.557535 -0.752405
15.6369 13.5518 5.63855 -0.585335 0.810184 0.031399
18.0599 10.5401 7.58984 -0.806984 0.245907 0.536942
19.1285 10.7506 1.54421 0.803162 -0.582724 0.123948
17.4594 3.72423 6.87773 -0.1104 0.955851 -0.272323
20.5257 15.6762 5.71508 0.546854 0.0141236 0.837109
19.9659 7.96242 8.03605 0.60913 0.546927 -0.574309
21.4918 11.5487 2.7973 -0.111589 0.988399 0.10303
18.4114 7.20364 9.5021 0.516751 -0.851999 -0.0840591
23.2984 11.7775 41.4597 -0.769971 -0.448511 -0.453854
18.2988 7.198 7.09619 -0.697992 0.0870863 0.710791
23.132 12.0561 1.32701 0.170191 -0.265025 0.949103
22.1547 9.18349 6.41403 -0.692906 -0.378386 0.613763
21.3668 15.9141 7.85366 0.458405 -0.872118 -0.171099
22.053 10.4064 9.9484 0.399295 -0.74404 -0.535694
28.8197 14.5468 2.01986 -0.43985 -0.801786 0.404563
24.0901 10.002 4.92425 0.627116 -0.223523 0.746166
31.4207 13.7671 6.85983 0.308541 -0.351893 0.883727
29.4782 12.7653 5.39231 -0.716244 0.141753 0.683301
28.2162 14.8739 4.15347 0.947656 0.194691 0.253069
30.0895 12.3096 7.4427 -0.310269 0.505892 0.804865
28.7618 14.6224 5.5763 -0.152224 -0.463829 -0.872749
34.0137 13.8489 6.68349 -0.871057 -0.346876 -0.34776
30.1302 13.0987 6.13184 -0.711708 -0.433585 0.552699
29.3881 13.7685 5.72516 -0.0591726 0.060715 0.9964
33.8769 14.7799 8.62666 0.139717 0.275683 0.95104
32.6034 13.7396 4.33852 0.6883 0.638583 0.344172
36.5574 11.9743 6.945 -0.395952 -0.640138 -0.658365
35.6197 10.0928 7.00848 0.804416 0.543416 -0.240027
35.1245 15.993 5.90075 -0.839159 -0.347645 0.418276
37.336 11.9085 8.12423 -0.708007 -0.00225686 0.706202
40.8764 12.2867 0.868873 -0.491453 0.0769259 -0.8675
40.6947 12.6201 6.68819 -0.282072 -0.84579 0.452852
35.823 16.6882 6.46403 -0.189584 -0.893156 0.407835
41.101 13.7738 7.3374 0.179568 -0.983743 0.00233789
1.97292 14.6455 5.31356 0.376553 0.124929 0.917933
2.63902 11.6899 6.28058 0.558118 0.495355 0.665678
41.1102 12.5047 10.2379 -0.172057 0.477207 -0.861783
39.8156 13.276 8.90871 -0.749354 -0.594944 -0.290706
2.0007 13.5386 4.947 0.276793 -0.225213 -0.934165
2.13351 12.7005 5.96058 -0.666406 -0.401965 0.627954
3.08285 14.7691 5.46935 -0.336496 0.414603 -0.845503
4.52752 11.0478 9.12136 -0.238944 -0.195169 -0.951217
4.23258 14.9672 5.9323 -0.46894 0.495782 -0.730955
10.3461 16.0237 6.69175 0.961551 0.185521 0.20249
7.66446 11.5795 8.84302 -0.493934 0.83173 -0.253486
6.88232 13.3585 12.3777 -0.235206 0.881919 0.40853
9.67439 17.4822 4.75841 -0.889745 -0.220421 0.399711
9.9081 14.67 6.1866 -0.398354 0.800521 -0.44775
11.9827 17.8442 7.27068 -0.338363 0.330598 0.881031
11.8324 15.7055 7.58419 0.210174 0.604098 0.768695
11.3983 14.8437 5.19006 -0.41493 -0.308168 -0.856076
12.7035 15.5003 5.69733 -0.037243 -0.542779 0.839049
12.6208 16.8231 7.16977 0.967967 0.0426496 -0.24743
16.5463 14.7227 6.41916 0.271787 0.289764 -0.917697
17.674 14.8478 3.931 0.783109 -0.193149 -0.591129
14.9215 15.0674 4.78494 -0.135892 -0.984135 0.114068
16.4819 16.2235 8.20136 -0.639587 -0.053269 -0.766871
17.7637 17.5034 6.07275 0.10993 -0.0250005 -0.993625
17.4603 17.4189 1.79722 -0.0257511 -0.923279 0.383265
18.9992 11.2263 0.505722 0.0050084 -0.991711 0.128395
17.1274 16.3545 4.24053 0.0675354 0.779532 0.62271
20.69 10.2644 0.77536 0.780213 -0.606388 -0.153496
20.6578 13.2978 1.79141 -0.039936 0.476431 -0.878304
20.433 11.1983 2.89956 0.191072 0.783902 -0.590753
22.5575 17.9094 5.58038 -0.61793 -0.314617 0.720541
26.2849 15.1604 7.62427 -0.819741 0.384828 -0.424183
23.1285 17.4428 3.26338 0.598524 -0.688479 -0.409591
22.4321 11.3786 1.0569 -0.246673 0.291143 0.924331
25.9718 14.6762 5.59016 0.57637 0.637193 -0.511647
26.0417 13.6039 5.0334 -0.990202 0.139601 0.00342147
26.1659 14.171 4.14841 0.611475 -0.47484 -0.632949
28.637 13.1938 4.96299 0.323183 -0.520928 -0.790055
27.5971 13.9414 2.96422 -0.624754 -0.0932776 -0.77523
30.6621 13.9045 7.71888 0.696064 0.585684 0.415294
32.4234 14.7236 3.75243 0.718319 0.499611 -0.484156
30.4569 14.7088 4.87109 0.909222 0.294942 0.293811
27.8672 13.1866 4.18561 0.0107607 0.871071 0.491039
32.9265 13.3395 5.19608 0.0641412 -0.839319 -0.539842
34.6525 18.5644 3.93116 -0.104267 0.558837 -0.822696
34.2636 15.2888 4.90474 0.823894 -0.0933456 0.559004
32.7375 16.1316 7.12229 -0.919683 0.353528 0.170884
32.9773 17.8173 5.51447 -0.463229 0.64041 0.612612
34.9643 16.9899 5.84194 -0.230599 -0.258829 0.937994
35.3371 14.9111 6.45512 0.99579 0.0747785 0.0530196
32.3903 18.4158 7.31451 -0.595858 0.457524 0.660019
32.7646 15.0703 7.66763 0.876397 0.447923 0.176899
40.634 14.8452 4.06946 0.894901 0.445714 -0.0221445
41.2645 12.2007 41.6431 -0.354927 0.838793 -0.412861
39.5405 16.3273 8.82973 -0.221307 -0.153485 -0.96305
37.7586 12.5943 8.77133 0.01117 0.464279 -0.885619
40.2899 16.1956 7.73162 -0.0904686 0.995861 -0.00870193
2.86271 13.3887 6.69321 0.208357 -0.471001 0.857173
41.0599 14.8548 8.43692 0.839951 0.334506 -0.427303
39.7345 15.4342 9.65985 -0.567368 -0.0499269 0.821949
4.24611 16.6398 3.79267 0.356674 0.41708 -0.835959
3.69103 14.3494 4.64394 0.388301 0.61112 -0.68975
41.6233 19.6611 9.52523 0.491475 0.242986 0.836307
6.1495 18.9965 8.65266 -0.157424 -0.981473 -0.10922
7.39822 18.9863 8.90979 -0.651298 0.423636 0.629558
3.96068 16.0187 6.32904 -0.844563 -0.488252 -0.219824
5.63916 20.8119 10.0395 -0.536295 0.691009 0.48466
6.54698 17.3382 9.95117 0.602521 0.679218 -0.419083
7.24511 17.1273 4.46658 -0.59526 0.215146 -0.774195
11.6425 17.5304 4.39997 0.546709 0.737225 -0.397
15.2607 19.6911 7.73064 0.35568 -0.546713 -0.758022
12.9711 17.5902 7.69077 -0.522427 -0.417246 0.743623
14.6302 17.7753 3.77506 -0.325367 0.209439 0.922102
13.6599 17.3474 5.64699 -0.574454 0.13474 0.807371
14.7585 17.2265 8.86989 0.137323 -0.737717 0.660997
15.9417 15.2443 7.89512 -0.0744991 0.0345856 -0.996621
14.3513 18.135 5.99383 0.120942 0.702833 -0.700999
15.8322 16.9655 5.42084 0.193476 0.970627 0.143003
16.5908 17.7511 6.23163 -0.441604 0.674111 0.59208
17.3288 15.8959 5.1362 0.74796 -0.363134 -0.555599
19.83 18.4075 3.36405 0.618293 0.775686 -0.126588
16.4827 17.3427 4.09779 -0.64806 -0.661624 0.377189
19.2247 19.9766 9.24373 -0.0588372 0.60008 0.797773
20.4227 18.277 7.55546 0.668087 -0.393299 -0.631645
19.6563 17.3093 4.41374 -0.177699 -0.973918 0.141091
19.6797 13.4149 1.75851 -0.0681142 -0.345126 -0.936081
19.6224 19.6166 6.61202 0.395848 0.657225 0.641373
21.2278 16.3412 3.61118 -0.201012 -0.403402 0.892671
23.5132 17.7656 2.04283 0.433888 0.351284 0.829663
24.2816 18.4892 4.79797 0.145982 -0.0764653 0.986328
24.9489 18.9649 6.34265 0.806819 -0.501694 0.312002
27.661 15.2686 4.915 0.656258 0.719706 -0.226604
25.0008 18.4167 2.69946 0.13907 0.195042 -0.970885
29.4916 20.6622 6.15966 -0.757582 -0.202648 0.620487
25.0904 17.6369 7.44526 -0.162242 0.322002 -0.932734
30.6781 16.8326 1.62188 0.763269 -0.633932 0.124702
29.551 20.0617 7.93336 -0.0902474 0.73395 -0.673181
32.0642 16.5462 3.13949 -0.13547 0.36716 0.92024
29.0444 19.3951 10.7451 -0.993349 -0.115043 -0.00478194
32.194 17.2549 6.38838 -0.348469 0.924708 0.153245
30.5699 22.4848 5.31985 -0.157487 -0.261976 -0.952138
34.7159 18.3919 1.88187 0.365693 0.0618959 -0.928675
34.9736 18.7612 8.6701 0.163265 -0.109193 0.980521
34.3476 16.3857 5.19191 0.886384 -0.280741 -0.368114
33.7408 18.7489 7.21565 -0.256724 -0.206693 -0.944124
35.7655 18.6748 4.13995 0.252332 0.957297 0.141108
34.1063 19.1068 5.82368 -0.468614 0.302669 -0.829936
35.0929 19.9634 8.88897 0.611287 0.348207 0.71069
35.6603 20.3207 5.41147 0.532938 0.845379 -0.0362188
41.7111 14.8711 5.40257 -0.185844 0.963272 0.193825
36.1764 19.4894 8.98885 0.243216 0.377331 0.89357
0.180235 16.8461 8.62785 -0.944919 0.126262 -0.301971
41.3871 17.4038 5.0651 -0.0491404 0.99849 0.0245453
41.5722 15.5862 7.1721 -0.393371 0.467468 0.791665
40.4196 18.8311 5.54729 -0.819856 0.394675 -0.414811
40.214 18.2438 10.1874 0.414867 -0.105134 0.903788
1.12348 16.9452 7.88183 -0.47164 0.830008 0.297729
41.1635 17.3297 7.39145 -0.201544 -0.912759 -0.355317
41.2593 21.3015 6.84335 -0.339564 0.209848 -0.916875
7.11091 20.2413 9.16776 -0.191612 0.393269 0.899236
8.39524 21.3347 7.78227 0.780797 0.0781511 0.619877
8.43573 18.0138 4.53994 0.373946 -0.654064 -0.657544
7.31537 21.4813 8.28063 -0.676643 -0.727955 0.110615
8.56712 18.9137 9.23125 0.772003 0.393121 -0.499466
9.77369 17.3951 5.84732 0.0297809 -0.995753 -0.0871158
9.14274 16.9998 6.94098 -0.32207 0.349398 -0.879882
9.87984 19.0249 6.76096 -0.468187 -0.763851 0.444221
15.7779 16.9572 9.68124 -0.113629 0.993431 -0.0135371
10.9271 18.9129 6.57788 0.310477 0.872865 0.376444
8.485 18.7995 6.27849 -0.645128 0.739897 -0.190686
15.8249 19.3894 3.48249 -0.483247 -0.309315 -0.819021
13.9714 19.6482 7.43083 -0.737979 0.670626 0.0751521
15.9308 21.637 6.45356 -0.301429 0.325932 -0.896052
13.8026 19.1559 6.26643 0.450072 -0.634617 0.628249
16.2736 22.5808 9.92743 -0.944043 0.262305 0.199949
18.5753 22.0921 6.93917 0.958292 -0.129595 0.254719
18.2692 20.1656 6.38957 0.223191 0.222861 0.948957
17.6515 17.6763 2.78912 0.850917 -0.451777 0.268028
18.3624 22.2454 5.82581 -0.863495 0.499113 0.0725375
18.6132 18.1592 6.94443 -0.0941707 -0.977399 0.189272
17.8727 21.5437 3.03979 -0.0304722 -0.577479 -0.815837
20.8907 18.9991 5.2921 0.969678 -0.188421 -0.155632
21.8904 25.0848 9.16914 -0.834899 0.503622 0.222056
22.8867 18.9324 4.31256 -0.515452 0.496868 0.698163
16.7605 20.6243 3.07138 -0.774434 0.326627 -0.541818
22.2487 17.8381 1.66876 0.210559 0.851369 -0.480453
24.6581 23.4024 9.45193 -0.803615 0.221309 0.552471
24.9944 16.4436 8.18949 -0.293881 0.110458 0.949438
25.9803 21.4025 8.76283 0.832556 0.495073 0.2485
27.4206 16.4239 6.6424 -0.232601 -0.598098 -0.766926
29.6066 21.6271 8.88406 -0.556849 -0.759716 0.335783
29.3353 21.7896 7.599 0.788382 -0.586264 0.186409
29.9937 23.2942 5.21189 -0.78465 -0.549582 -0.286853
29.8654 22.6151 7.38755 0.343289 -0.407279 -0.846331
32.297 21.8615 5.96104 -0.558304 -0.58599 0.587292
33.5336 22.9797 3.16228 0.221945 0.97092 0.0897432
28.9133 22.4596 6.52539 0.512529 -0.852279 0.104567
34.3054 19.9149 4.68879 0.638395 -0.767987 -0.0514563
32.7846 21.8915 6.85417 0.0841804 0.978051 -0.190605
35.335 19.3773 6.30206 -0.452502 0.7895 0.414645
35.1191 20.343 7.82476 0.901738 -0.234909 0.362886
36.4464 18.7846 5.00331 0.271903 -0.707004 -0.652851
36.0158 21.1082 7.8179 -0.846582 0.47465 0.240844
37.4739 19.9502 10.0652 -0.354629 -0.110573 -0.928446
35.7304 21.1129 6.75954 -0.136339 0.877191 0.460377
36.9302 20.0464 5.80051 0.260758 -0.531245 -0.806092
35.0006 20.6013 11.3949 0.704779 -0.70224 -0.100725
36.7593 20.7606 9.8478 0.51017 0.103342 0.853842
39.2271 19.7604 6.43408 -0.179952 -0.969016 0.169192
40.0908 18.1538 6.35221 0.927576 -0.0182958 0.373187
0.118627 17.6159 6.68206 -0.0357809 -0.415184 -0.909034
40.3463 18.622 8.41984 -0.270252 0.925548 0.26519
40.1754 22.473 5.60015 0.92374 -0.208042 0.321594
0.251314 21.4567 6.46083 0.0492887 0.894008 -0.445331
1.59862 21.8766 5.43176 -0.468247 0.355058 0.809122
5.59527 20.9597 8.97489 0.134148 0.828663 0.543435
4.7005 22.3656 4.97892 0.595119 -0.698164 0.397994
6.3815 18.2794 6.90638 -0.06124 -0.51835 0.852973
8.52273 24.4505 6.13704 0.829972 -0.319773 -0.457047
9.65828 19.9382 7.23178 -0.124176 -0.730538 0.671487
4.03537 21.5652 5.39384 -0.402638 0.595744 -0.694962
9.58075 18.5207 4.8091 -0.650516 -0.343332 0.677461
8.62873 21.7131 5.6835 -0.250467 -0.680584 -0.688529
11.6758 20.605 6.28252 0.238371 -0.399242 -0.885316
10.5482 21.3258 7.15117 0.0387915 -0.973233 -0.226522
10.6267 21.1733 8.27438 -0.425679 0.676434 0.601027
10.2497 23.739 6.11564 -0.559198 0.112156 0.821413
14.8935 22.3411 12.5245 -0.45298 0.369704 -0.811251
18.2324 23.1535 5.16718 0.18178 -0.513983 -0.838318
15.7992 20.175 4.90267 -0.79397 -0.601113 -0.0909637
18.4793 23.9247 6.92627 -0.651512 0.176434 0.737837
14.6633 23.5887 7.66429 -0.704316 0.334839 -0.625957
15.8602 23.7608 6.8998 -0.757614 0.526399 0.38591
18.6869 21.3067 7.83584 -0.521862 -0.123662 -0.844019
18.4846 23.4209 8.45187 -0.091503 0.992872 -0.0763669
20.7777 26.4693 10.0634 0.718704 -0.10951 -0.686639
19.1144 25.1467 8.35278 0.0252604 -0.773911 -0.632791
19.6185 20.8072 5.4438 -0.349386 0.123572 -0.928795
20.7116 25.4028 10.2249 0.923459 0.360564 0.131216
24.7853 22.6228 8.44055 -0.929107 0.365429 0.0567598
24.1033 24.7031 5.70836 0.845372 -0.219223 -0.487122
25.8169 22.8104 10.4463 -0.219017 -0.412238 0.884359
25.8655 25.034 8.41246 0.565376 -0.205 0.798953
27.2469 21.2887 9.53347 -0.315223 -0.539726 -0.780596
28.5118 24.4704 6.28971 0.496004 -0.786972 -0.366954
28.5602 24.034 4.76683 -0.160125 -0.682122 0.713491
28.2195 22.7227 9.69727 0.490156 0.674941 0.551545
27.7637 25.7841 8.21746 0.156367 0.987347 -0.026358
27.6889 22.5777 6.54805 0.00412494 0.640667 -0.767808
27.6521 22.2561 5.26611 -0.728395 -0.557846 0.397805
25.8815 26.4381 8.26121 0.646084 -0.760669 0.0629105
34.5458 21.9969 6.71321 -0.175762 -0.337039 -0.924939
32.4113 28.4616 5.4251 -0.470104 -0.318131 0.823283
31.4795 21.5422 4.46577 0.796305 0.0778129 -0.599869
33.2794 25.7031 5.25206 0.109839 -0.605283 0.788396
36.304 23.519 10.3939 0.655056 -0.751836 0.0751244
33.8672 25.6797 4.13138 0.305129 0.869601 -0.388188
34.4547 23.5328 2.4917 -0.44226 -0.0190658 -0.896684
35.949 22.9625 11.2098 -0.705214 0.228826 -0.671053
36.0063 21.4556 9.83297 0.808946 0.503892 0.302819
34.6498 24.9461 4.06542 0.277955 0.910405 0.306439
36.6508 21.7136 7.12996 0.0061667 0.426847 0.904303
35.844 22.8948 9.7187 0.0903923 -0.61431 0.78387
39.0144 19.4271 7.53017 0.492909 -0.792585 0.358957
38.4917 21.9512 6.89026 -0.18689 0.977797 0.0947851
40.9917 22.2103 7.05704 0.80979 0.131897 0.571702
37.7058 23.4847 9.10507 0.856123 -0.337416 -0.391412
41.0641 20.2052 7.06906 -0.575783 -0.178552 0.797868
41.6775 22.2347 4.50998 -0.82039 -0.376243 0.430582
41.9896 23.313 4.85715 0.231159 0.734282 -0.638276
2.79475 29.9152 9.72387 0.683295 0.534671 0.497226
0.0809539 21.4866 3.89445 -0.920939 0.0698559 -0.383394
3.6691 30.4523 9.21841 -0.783666 0.0506052 -0.619117
3.07016 23.1879 4.66858 0.504596 -0.437398 0.744356
5.44418 25.7783 7.7147 -0.350194 0.204808 -0.914012
10.3906 22.2808 6.31211 0.673975 0.709023 -0.207471
0.887915 24.5136 5.86321 -0.797106 0.500448 0.337896
9.48548 21.0737 5.23695 0.290607 0.425017 -0.857268
7.86195 23.2763 7.30191 0.457923 -0.883713 0.096737
8.95741 23.2855 5.56996 -0.597311 0.377751 -0.707477
7.01902 25.0248 7.94628 0.765523 0.0736111 -0.639184
10.7891 21.259 6.14424 0.589132 0.700197 0.403295
15.4582 31.8764 9.1617 -0.593892 -0.796539 -0.113217
16.343 28.7457 4.04474 -0.185642 -0.430595 0.883247
14.7864 31.6275 4.05431 0.646801 0.756917 0.0934085
17.6196 21.363 8.28707 0.142223 -0.755014 -0.640099
16.1209 31.9825 11.2727 0.275811 0.742156 0.610846
17.8269 25.1257 10.1771 -0.654484 0.726874 0.208098
18.3512 31.0031 5.51002 -0.987284 -0.107614 0.117
18.3239 21.6256 4.51321 0.853908 0.258246 -0.451829
18.5878 30.0652 5.90686 -0.907003 -0.180212 -0.380618
19.4831 24.0967 8.75956 -0.29161 0.382976 0.876523
18.651 25.7001 5.9886 -0.916298 0.0493459 -0.397445
18.3284 24.7018 6.25952 -0.353746 -0.352432 -0.866404
22.5211 28.3027 10.3387 0.112786 -0.896837 0.427741
25.5773 24.1517 9.45631 -0.358324 0.303987 0.882721
24.5521 28.1049 7.1826 0.39789 -0.865425 0.304504
25.7675 23.1023 4.06944 0.440943 -0.745147 -0.500325
23.7562 27.6973 7.71535 -0.701273 0.154817 -0.695879
25.9898 22.9409 7.76779 -0.708924 0.592286 0.382916
25.3016 29.0615 6.80231 -0.146691 0.987383 -0.0596446
27.2261 24.3907 4.54157 0.577101 -0.235432 0.782002
24.6437 28.4432 8.13972 0.921628 -0.388075 0.000645238
27.4331 24.804 9.34587 0.333901 -0.829634 0.447456
32.9919 27.3668 6.21719 0.907527 0.0336599 0.418642
33.3354 25.4726 6.97444 -0.452268 0.824126 -0.340983
31.1288 28.5898 6.49268 -0.0319225 0.282354 0.958779
34.7396 25.3588 6.81825 -0.681292 0.595861 0.425195
34.6793 26.4271 6.51522 0.182629 -0.548463 -0.815987
34.1907 26.2948 5.00499 0.204811 -0.978717 0.0128414
34.7005 28.0986 8.21707 0.600465 0.293237 0.743945
31.726 24.9643 3.80771 0.994008 0.108473 0.013516
35.5234 33.1672 5.17878 0.218465 0.540717 -0.812341
33.4176 25.9019 3.0463 -0.498598 -0.0941093 0.861709
37.5904 28.8498 11.9786 0.077435 -0.836637 0.542257
36.3525 21.5309 8.74284 0.970661 -0.112162 -0.212692
37.5535 28.3057 8.54019 -0.369215 0.75379 0.543581
34.8434 25.1934 2.12977 -0.987811 -0.055317 0.145497
37.5392 28.5907 9.82865 0.898598 -0.326337 -0.293302
37.7382 22.3282 8.71824 0.636614 -0.512854 0.575937
39.4385 28.4207 9.09366 -0.471366 0.794387 0.383097
38.168 22.8657 5.85936 0.585959 0.679003 -0.442274
39.1001 28.8416 10.4787 -0.702874 -0.709248 -0.0541835
2.72786 22.3238 4.3588 -0.133858 -0.210506 0.968385
3.24048 21.4971 4.15627 -0.541705 -0.429556 0.722522
2.03373 25.3092 3.23597 0.45916 -0.829291 0.318511
3.33536 33.1249 10.0168 -0.209622 0.640084 -0.739155
4.95038 31.0399 11.2049 0.607867 0.513199 0.605908
3.87008 29.5954 10.3857 0.00167373 -0.203441 -0.979086
4.78718 31.0889 9.20826 -0.823398 0.406646 -0.395797
7.43585 32.6358 3.20908 0.514001 0.563959 0.646338
8.14649 26.6566 7.21556 -0.948932 0.164619 0.269125
9.72718 34.5926 5.85155 0.952579 -0.237373 0.190385
7.8587 26.9215 8.37026 -0.375573 -0.92629 0.0305225
13.1333 32.4445 9.9038 0.658812 0.151402 0.736915
7.33427 25.5454 6.19583 -0.145746 -0.287976 -0.946482
12.8147 32.0284 4.16993 0.147031 0.120864 0.98172
12.8664 29.9288 3.03714 0.867839 0.269986 0.417089
12.5544 33.5397 7.85799 -0.375661 0.644022 -0.666419
15.2256 30.2456 9.61477 0.256056 0.929177 0.266583
15.9191 31.3367 3.30225 -0.949503 0.238337 -0.204057
14.6047 29.9884 4.16569 0.144253 0.755645 0.638899
17.2299 30.2197 6.29482 0.79397 0.556332 0.245167
18.289 29.0142 6.53195 0.526675 -0.148279 0.837034
16.0548 30.4744 6.45266 0.676739 0.64292 -0.358718
18.8848 30.0876 4.74297 0.951449 -0.29197 -0.0974595
16.6289 31.9612 8.80616 0.743994 0.310468 0.591677
21.3258 30.6583 9.6165 0.815735 -0.510397 0.272159
19.4852 31.8274 4.59582 -0.787916 0.498177 -0.36195
20.5666 26.7658 8.46349 -0.0714894 0.293953 0.953143
18.8065 32.3655 8.46052 -0.214604 -0.0682848 -0.974311
23.501 27.8294 9.43089 0.13257 -0.655099 -0.743822
20.4503 33.1924 7.59575 0.880773 -0.433165 -0.19133
23.2104 26.4314 7.40266 0.111647 -0.661204 -0.741852
24.0001 33.6864 7.25312 0.97459 -0.0466697 0.219078
26.3752 27.6727 10.7692 -0.683728 -0.623448 -0.379247
21.7306 33.0213 6.58185 -0.153528 -0.830233 -0.535856
24.4124 28.2693 5.98619 0.491015 0.640009 -0.59101
25.3176 34.8817 4.95434 -0.781783 -0.187155 -0.594801
31.8631 29.3848 7.48841 0.121919 -0.613876 0.779931
25.5974 31.6354 3.01685 -0.788512 -0.557575 -0.259536
32.93 30.033 6.73494 -0.719842 0.6509 0.241155
26.5114 33.1767 6.30357 0.184508 -0.929021 0.320744
34.3467 29.1682 8.69149 -0.564471 -0.731537 -0.382396
26.6584 32.9576 3.97866 -0.64109 -0.358788 0.678436
34.2161 30.1843 5.28949 -0.541115 -0.73118 -0.415416
26.733 34.0867 2.65176 -0.343163 -0.041053 -0.938378
34.0924 28.9987 7.5057 0.97047 -0.174315 0.166743
35.7659 34.1971 8.12176 -0.971388 -0.105647 0.212705
34.6856 33.328 6.12905 0.406248 -0.130178 0.904442
33.7675 33.0232 8.27937 0.162758 -0.884121 -0.437996
37.4015 29.676 10.0028 -0.428346 -0.0430607 0.902588
37.2879 34.3643 4.6321 0.66435 0.738891 -0.112597
38.9865 27.0959 9.13615 -0.329025 0.844125 -0.423315
38.5649 31.2928 12.0782 0.746007 -0.251085 -0.61679
38.8496 30.9473 9.97578 0.286813 -0.957421 -0.0329175
41.6934 34.1978 5.40995 0.908604 0.411467 0.0716428
38.2144 27.3669 9.79331 0.786693 -0.182232 0.589835
2.55768 33.2414 11.709 -0.599664 0.767155 0.227764
3.75084 31.1781 11.082 0.496764 0.847942 -0.184987
0.981362 33.0303 9.67767 0.600633 0.798923 0.0310316
2.25904 33.1269 9.95389 -0.261485 -0.472738 -0.841513
41.7063 32.365 10.6134 -0.167499 -0.604705 0.778637
8.10845 32.8957 2.38837 -0.82656 0.556061 0.0871462
2.80488 32.0085 9.39293 -0.0824229 0.344577 0.935133
8.72811 33.8285 3.56128 0.0372813 -0.355322 -0.934
8.09445 36.4898 4.09707 0.987371 -0.101585 0.12157
11.5291 32.498 9.89686 -0.138971 -0.988783 0.0547344
7.78765 33.7343 4.81286 0.267427 0.928899 0.256183
9.29918 34.3396 6.87368 -0.193433 -0.76045 -0.619919
9.0225 36.5896 6.05175 -0.268703 -0.0547834 0.961664
14.2291 33.9365 7.84507 0.176037 -0.890298 -0.419978
11.1552 34.5105 5.24627 0.818414 -0.571376 0.0610596
11.327 33.9561 3.658 0.606152 -0.548784 -0.575688
13.5696 35.2844 6.39063 0.579905 0.749301 -0.319779
11.089 37.1669 5.85832 -0.0729845 -0.870837 -0.486124
10.9593 33.3166 5.20672 0.547944 -0.690248 0.472562
16.2442 29.5401 4.75511 0.674182 -0.177406 0.716942
12.6317 34.0339 10.4401 -0.207034 -0.937535 -0.279581
14.3182 32.2488 5.70728 0.675403 -0.340883 0.653933
15.2261 33.6637 8.13429 0.585377 -0.376811 -0.717877
15.4774 31.5845 4.91001 0.386099 -0.857129 -0.340965
18.7593 35.0966 7.40731 -0.278015 -0.385169 0.879973
17.8193 32.8907 5.91077 0.277055 -0.177978 0.944227
18.5671 33.6675 8.59323 0.701612 0.696167 -0.15196
19.3624 33.9004 6.72427 0.610559 -0.153958 -0.776862
16.5462 34.8782 8.26044 0.0403412 -0.400487 0.915414
22.9207 31.8052 8.37429 0.370357 0.925743 0.0763905
18.1331 35.0994 9.69415 -0.680677 -0.0401444 0.731483
18.9312 35.2619 5.2739 0.966902 0.249616 -0.0528455
21.2058 33.6248 10.8466 -0.43432 0.585535 0.684482
22.6485 32.5617 9.66657 0.50683 0.635198 -0.582792
23.6747 34.6957 4.77506 -0.501101 -0.849019 -0.167522
24.4089 33.9716 4.96486 0.00830704 0.637685 0.770253
24.7625 34.6635 6.95004 -0.75549 0.0392125 0.653985
25.248 33.9847 4.15794 0.424865 -0.101251 0.899576
32.6939 33.7439 8.873 0.320207 -0.822144 0.470687
25.0547 33.0348 4.94856 0.359276 -0.215572 -0.907992
32.2864 35.8487 9.58136 -0.414364 0.819189 0.396526
32.8385 28.4341 8.26482 0.144936 0.988908 -0.0324643
26.5184 35.8453 3.53071 -0.716628 -0.696698 0.0325049
26.5293 33.0282 2.66271 -0.648723 0.16076 0.743851
27.9455 34.2142 3.00639 -0.309638 0.686147 -0.658276
35.6714 31.5409 6.70327 -0.246969 -0.548506 0.798841
34.8278 33.118 8.60002 0.0474266 0.314797 0.947973
36.0626 32.9898 6.4922 0.51212 -0.813849 0.274558
39.7044 34.6908 8.01008 -0.637528 0.383685 0.66809
33.758 31.0386 6.60116 0.0443517 -0.874429 -0.483122
38.0358 34.851 7.41737 0.165275 -0.912004 0.37541
36.4544 33.3898 5.61484 0.14331 -0.988667 -0.0447277
40.6707 29.6502 10.0308 0.855442 0.00075764 0.517898
40.395 30.6491 10.2014 -0.83394 -0.136261 0.534769
39.2632 36.3779 7.28519 -0.662836 -0.491342 -0.565005
39.7325 32.9545 5.15748 0.507084 -0.627881 -0.59045
0.102798 30.8187 11.4859 -0.264587 -0.943213 -0.200854
4.01452 32.1755 9.5879 0.54368 0.392212 -0.742012
